# .PCD v0.7 - Point Cloud Data file format
VERSION 0.7
FIELDS x y z rgba
SIZE 4 4 4 4
TYPE F F F U
COUNT 1 1 1 1
WIDTH 1147
HEIGHT 1
VIEWPOINT 0 0 0 1 0 0 0
POINTS 1147
DATA ascii
75.174667 2161.1321 -655.11322 4294966641
79.386154 2160.853 -655.93915 4294966641
87.025375 2161.1047 -655.46991 4294966641
93.157181 2160.5591 -655.54504 4294966641
303.39508 2122.5635 -654.02893 4294966642
305.40863 2122.4182 -654.09967 4294966642
307.29465 2122.2913 -654.09058 4294966642
309.04105 2122.1746 -654.10645 4294966642
311.33063 2122.0488 -654.02161 4294966642
265.33853 2125.6736 -654.11017 4294966642
267.2417 2125.7795 -654.98199 4294966642
271.41724 2125.3638 -654.16034 4294966642
277.423 2124.6838 -654.78491 4294966642
281.28732 2124.5068 -654.95673 4294966642
283.3446 2124.3013 -654.28516 4294966642
234.89212 2127.2515 -654.23956 4294966642
149.49161 2132.9197 -654.89154 4294966642
153.35423 2132.3857 -654.27789 4294966642
158.99959 2132.0359 -654.13623 4294966642
165.51904 2131.5493 -654.0769 4294966642
182.70502 2130.6558 -654.59192 4294966642
120.83063 2135.9055 -654.96124 4294966642
121.54112 2135.2397 -654.36328 4294966642
122.30368 2135.0674 -654.02771 4294966642
125.30421 2135.4121 -654.6698 4294966642
127.00887 2135.293 -654.69281 4294966642
128.85779 2135.0552 -654.36639 4294966642
131.70084 2134.9304 -654.49829 4294966642
142.58447 2133.4114 -654.12299 4294966642
145.29474 2133.0657 -654.20538 4294966642
147.7506 2133.0825 -654.84326 4294966642
81.274994 2138.491 -654.98859 4294966642
91.348122 2138.124 -654.95093 4294966642
93.514313 2138.0898 -654.87048 4294966642
96.31105 2138.6921 -654.55743 4294966642
101.2651 2138.3513 -654.19952 4294966642
102.83791 2138.8113 -654.65552 4294966642
105.16109 2138.4238 -654.38123 4294966642
107.48371 2138.665 -654.97321 4294966642
109.39519 2138.3726 -654.97705 4294966642
110.65081 2137.5681 -654.26575 4294966642
112.69286 2137.093 -654.14685 4294966642
116.75359 2136.4824 -654.6864 4294966642
72.85984 2141.9885 -654.35065 4294966642
73.749046 2140.6006 -654.11163 4294966642
75.356277 2141.7744 -654.92267 4294966642
76.92038 2140.2036 -654.67596 4294966642
71.181564 2143.9355 -654.11438 4294966642
73.370552 2144.0491 -654.67108 4294966642
73.249565 2146.2993 -654.43445 4294966642
75.560226 2146.7612 -654.94775 4294966642
272.17953 2147.0452 -654.11371 4294966642
273.81091 2146.3438 -654.867 4294966642
277.49628 2146.2339 -654.71527 4294966642
278.82758 2146.5505 -654.17859 4294966642
283.88531 2147.041 -654.26251 4294966642
284.79037 2147.0967 -654.20404 4294966642
72.544563 2149.1448 -654.09485 4294966642
266.45276 2148.2434 -654.5531 4294966642
153.47867 2156.9492 -654.07428 4294966642
69.324409 2159.001 -654.2547 4294966642
71.506241 2159.4902 -654.82837 4294966642
101.5642 2159.7429 -654.86298 4294966642
111.35453 2159.3772 -654.60297 4294966642
115.42892 2159.2686 -654.12695 4294966642
116.65657 2158.8315 -654.59045 4294966642
119.14639 2158.4917 -654.00812 4294966642
122.51872 2157.7092 -654.77692 4294966642
124.98551 2158.0977 -654.10388 4294966642
127.69493 2158.0557 -654.21997 4294966642
129.29095 2158.6479 -654.03302 4294966642
133.35095 2158.3999 -654.14154 4294966642
137.62132 2158.1885 -654.06201 4294966642
141.12248 2157.7891 -654.24823 4294966642
143.38074 2157.7036 -654.00122 4294966642
145.07436 2157.5457 -654.26666 4294966642
147.39796 2157.4043 -654.02795 4294966642
151.38054 2157.0798 -654.06116 4294966642
71.599571 2161.043 -654.36957 4294966642
73.737068 2161.0706 -654.84491 4294966642
78.60408 2161.8462 -654.53528 4294966642
81.019302 2162.022 -654.27789 4294966642
83.524002 2161.9961 -654.02222 4294966642
85.40979 2161.7666 -654.29425 4294966642
91.122551 2161.405 -654.2276 4294966642
93.303185 2161.2334 -654.19049 4294966642
101.19615 2160.6021 -654.07556 4294966642
285.36267 2123.7373 -653.72729 4294966643
287.20779 2123.6018 -653.84052 4294966643
291.67303 2123.5012 -653.71594 4294966643
293.1911 2123.356 -653.92749 4294966643
295.51352 2123.1851 -653.76367 4294966643
297.26028 2123.0908 -653.84412 4294966643
299.38632 2122.9871 -653.93628 4294966643
243.04512 2126.7695 -653.64026 4294966643
245.51886 2126.5337 -653.77515 4294966643
247.67293 2126.4446 -653.55255 4294966643
249.44504 2126.364 -653.35577 4294966643
253.38623 2126.0134 -653.56866 4294966643
255.33711 2125.7961 -653.83862 4294966643
257.41263 2125.8103 -653.79547 4294966643
259.60443 2125.6252 -653.82959 4294966643
261.51169 2125.4395 -653.95544 4294966643
263.4165 2125.3584 -653.82141 4294966643
266.96805 2125.5366 -653.05902 4294966643
269.21661 2125.5105 -653.73688 4294966643
273.41336 2125.126 -653.99805 4294966643
275.71265 2124.793 -653.85492 4294966643
279.99561 2124.4004 -653.1991 4294966643
281.49649 2124.0134 -653.68915 4294966643
195.43983 2129.8196 -653.75812 4294966643
199.39011 2129.5283 -653.80066 4294966643
201.49348 2129.376 -653.83881 4294966643
203.68475 2129.2544 -653.72833 4294966643
205.15497 2129.1626 -653.77014 4294966643
207.58481 2129.0459 -653.59259 4294966643
209.34177 2128.9622 -653.57617 4294966643
211.34634 2128.8198 -653.75537 4294966643
213.45224 2128.7217 -653.56873 4294966643
215.61342 2128.5813 -653.59552 4294966643
217.19118 2128.4487 -653.83899 4294966643
218.87274 2128.407 -653.44879 4294966643
221.97333 2128.2175 -653.62988 4294966643
223.21301 2128.1633 -653.41254 4294966643
225.39626 2127.9473 -653.7085 4294966643
227.65718 2127.8582 -653.23651 4294966643
231.49846 2127.6011 -653.30133 4294966643
233.31369 2127.4905 -653.28351 4294966643
237.75363 2127.2043 -653.58136 4294966643
239.47316 2127.114 -653.39319 4294966643
151.21175 2132.6582 -653.97754 4294966643
155.09392 2132.4575 -653.93561 4294966643
157.27536 2132.1836 -653.89941 4294966643
161.51062 2131.8887 -653.89026 4294966643
163.10892 2131.8782 -653.90289 4294966643
169.20059 2131.3994 -653.73553 4294966643
171.08131 2131.2891 -653.80475 4294966643
173.71503 2131.2361 -653.76154 4294966643
175.61462 2131.1738 -653.60699 4294966643
177.2496 2131.0771 -653.67273 4294966643
179.40343 2130.988 -653.61188 4294966643
181.04234 2130.8726 -653.75848 4294966643
185.3837 2130.5701 -653.6889 4294966643
187.37633 2130.4109 -653.71436 4294966643
189.15495 2130.3083 -653.57343 4294966643
191.69342 2130.1411 -653.54681 4294966643
192.78159 2130.0022 -653.9458 4294966643
118.28248 2135.3535 -653.72095 4294966643
120.03974 2134.9863 -653.7583 4294966643
121.59644 2134.7839 -653.28363 4294966643
123.69472 2134.991 -653.57648 4294966643
125.73019 2134.9353 -653.80872 4294966643
127.2299 2134.7249 -653.43439 4294966643
133.26678 2134.0667 -653.9939 4294966643
136.06544 2133.626 -653.84045 4294966643
139.52843 2133.5195 -653.67438 4294966643
141.6792 2133.4238 -653.9903 4294966643
77.355217 2138.2937 -653.40118 4294966643
82.819199 2137.4163 -653.87933 4294966643
86.301979 2136.6636 -653.00244 4294966643
91.268723 2137.0293 -653.37726 4294966643
101.52332 2137.4243 -653.30225 4294966643
103.14078 2137.519 -653.42676 4294966643
108.15884 2137.3943 -653.56238 4294966643
114.60271 2136.3896 -653.89233 4294966643
71.01384 2140.5635 -653.078 4294966643
75.782227 2139.1899 -653.80829 4294966643
67.449028 2144.0835 -653.06305 4294966643
69.261566 2143.7324 -653.43909 4294966643
69.481506 2146.478 -653.43475 4294966643
269.67566 2147.7358 -653.67712 4294966643
271.03629 2147.48 -653.74933 4294966643
276.13828 2146.7734 -653.51477 4294966643
280.32886 2146.7969 -653.66644 4294966643
282.27423 2146.9587 -653.72858 4294966643
283.26285 2147.0671 -653.86462 4294966643
286.10376 2147.1704 -653.2998 4294966643
288.13525 2147.186 -653.39935 4294966643
289.46628 2147.1917 -653.11371 4294966643
291.38007 2147.0996 -653.61804 4294966643
295.31653 2146.8005 -653.56891 4294966643
297.23734 2146.6719 -653.42712 4294966643
299.62299 2146.5176 -653.43848 4294966643
303.31668 2146.2883 -653.62238 4294966643
305.41364 2146.1563 -653.55444 4294966643
309.24197 2145.9387 -653.64551 4294966643
237.56572 2150.8379 -653.12244 4294966643
239.32745 2150.7083 -653.02374 4294966643
243.32834 2150.4534 -653.03412 4294966643
245.48117 2150.3298 -653.18964 4294966643
247.51132 2150.1875 -653.01331 4294966643
249.37549 2150.0923 -653.258 4294966643
251.51158 2149.9155 -653.13312 4294966643
253.51625 2149.7786 -653.10651 4294966643
259.38559 2149.3525 -653.19031 4294966643
261.51459 2149.1936 -653.0816 4294966643
263.4549 2149.0581 -653.16504 4294966643
264.93494 2148.6736 -653.04095 4294966643
267.98862 2148.0735 -653.55902 4294966643
215.32607 2152.4067 -653.14581 4294966643
217.51881 2152.2788 -653.14038 4294966643
219.48889 2152.2654 -653.42487 4294966643
223.53003 2151.8728 -653.13519 4294966643
229.48885 2151.4753 -653.01947 4294966643
231.39098 2151.3269 -653.09198 4294966643
235.35854 2151.0222 -653.19946 4294966643
67.736588 2154.5715 -653.26105 4294966643
68.886147 2155.8147 -653.81573 4294966643
155.41003 2156.873 -653.88556 4294966643
159.21652 2156.6853 -653.92749 4294966643
163.30865 2156.3765 -653.78857 4294966643
167.55856 2155.9839 -653.78839 4294966643
171.13734 2155.6533 -653.83337 4294966643
173.24156 2155.4053 -653.40393 4294966643
175.43098 2155.1863 -653.06488 4294966643
177.27087 2155.0474 -653.10626 4294966643
179.40221 2154.8992 -653.16882 4294966643
183.46518 2154.6079 -653.02039 4294966643
185.47012 2154.4753 -653.07556 4294966643
189.49033 2154.2168 -653.21545 4294966643
65.738304 2158.7781 -653.31067 4294966643
67.11158 2158.8779 -653.48669 4294966643
106.60252 2159.7249 -653.77808 4294966643
109.49952 2159.7524 -653.47571 4294966643
113.96557 2159.4524 -653.64258 4294966643
115.27765 2159.4795 -653.52942 4294966643
131.78223 2158.5483 -653.69031 4294966643
67.142815 2161.1355 -653.05054 4294966643
71.154778 2162.3379 -653.15509 4294966643
73.339584 2162.0762 -653.55841 4294966643
74.590897 2162.2275 -653.71948 4294966643
77.567329 2162.1531 -653.86401 4294966643
87.409767 2161.9177 -653.76849 4294966643
95.801575 2160.4502 -653.86243 4294966643
99.303535 2160.2393 -653.8078 4294966643
103.20055 2160.0942 -653.82513 4294966643
277.78336 2124.592 -652.98523 4294966644
113.30683 2135.9868 -652.64417 4294966644
115.62235 2135.5359 -652.52356 4294966644
118.74533 2134.7476 -652.55139 4294966644
119.96187 2134.6597 -652.91302 4294966644
120.7867 2134.6462 -652.64417 4294966644
125.46949 2134.6335 -652.25842 4294966644
73.657669 2138.8091 -652.75201 4294966644
77.268234 2137.541 -652.02911 4294966644
81.152176 2136.9802 -652.64923 4294966644
86.779564 2136.5266 -652.5083 4294966644
89.542252 2136.4912 -652.37634 4294966644
96.118973 2137.0305 -652.23401 4294966644
99.488556 2137.4373 -652.75494 4294966644
102.15111 2136.8982 -652.37897 4294966644
103.6096 2136.7944 -652.30145 4294966644
105.46783 2136.8347 -652.13727 4294966644
110.88814 2136.4756 -652.52277 4294966644
67.146675 2141.7241 -652.67389 4294966644
69.18428 2140.5669 -652.75122 4294966644
65.028633 2146.897 -652.23236 4294966644
274.40021 2147.1841 -652.65472 4294966644
278.59042 2146.9363 -652.93835 4294966644
281.58493 2147.1648 -652.24579 4294966644
283.78235 2147.2004 -652.35059 4294966644
293.62177 2146.8716 -652.92163 4294966644
67.304283 2150.8308 -652.78253 4294966644
257.60818 2149.4646 -652.97656 4294966644
209.68016 2152.7683 -652.93713 4294966644
65.553886 2155.1846 -652.68298 4294966644
63.574833 2158.5969 -652.50171 4294966644
111.46532 2159.812 -652.15112 4294966644
116.37993 2159.3394 -652.62122 4294966644
121.56322 2158.8765 -652.25134 4294966644
123.58652 2158.7146 -652.9718 4294966644
68.795151 2162.1262 -652.69952 4294966644
74.892517 2162.6978 -652.08282 4294966644
77.077438 2162.4905 -652.89893 4294966644
79.188454 2162.6064 -652.17932 4294966644
80.63356 2162.6025 -652.88684 4294966644
82.860802 2162.5205 -652.47437 4294966644
85.360947 2162.3818 -652.21503 4294966644
89.377831 2161.9478 -652.02081 4294966644
91.0047 2161.8003 -652.0647 4294966644
289.53381 2123.825 -651.14362 4294966645
293.43839 2123.5686 -651.02942 4294966645
295.3396 2123.5112 -651.12305 4294966645
297.20447 2123.4158 -651.05261 4294966645
301.22949 2123.1418 -651.22052 4294966645
303.27057 2122.9663 -651.07678 4294966645
305.4624 2122.9507 -651.02582 4294966645
311.53925 2122.5654 -651.13129 4294966645
247.2267 2126.7947 -651.14465 4294966645
259.52649 2125.9119 -651.15765 4294966645
261.36218 2125.7534 -651.28308 4294966645
263.3519 2125.6694 -651.05225 4294966645
265.33966 2125.5491 -651.11334 4294966645
267.65018 2125.5596 -651.17175 4294966645
269.42068 2125.4441 -651.39111 4294966645
271.20993 2125.3174 -651.74683 4294966645
273.85992 2125.1001 -651.40375 4294966645
276.02939 2124.8447 -651.56415 4294966645
281.51965 2124.3865 -651.02441 4294966645
283.52188 2124.2207 -651.12115 4294966645
285.37387 2124.0798 -651.12158 4294966645
201.53651 2129.8069 -651.15466 4294966645
221.84694 2128.6084 -651.01831 4294966645
225.3084 2128.2693 -651.06732 4294966645
149.80908 2132.8894 -651.78882 4294966645
151.44308 2132.802 -651.50751 4294966645
153.61211 2132.6477 -651.71606 4294966645
155.24683 2132.6421 -651.38904 4294966645
159.34538 2132.4751 -651.07483 4294966645
161.5963 2132.3225 -651.16376 4294966645
183.67003 2131.1799 -651.08618 4294966645
191.45659 2130.5703 -651.04199 4294966645
193.02399 2130.4458 -651.12756 4294966645
112.24794 2135.886 -651.5545 4294966645
113.60522 2135.6074 -651.21082 4294966645
117.63467 2134.8435 -651.33826 4294966645
119.59048 2134.6355 -651.75592 4294966645
121.97937 2134.697 -651.4989 4294966645
128.99562 2133.999 -651.63043 4294966645
132.96361 2133.675 -651.9848 4294966645
137.56036 2133.5464 -651.86609 4294966645
138.95592 2133.3367 -651.70215 4294966645
141.41321 2133.2354 -651.81781 4294966645
142.67233 2133.251 -651.53021 4294966645
145.40457 2133.1084 -651.80823 4294966645
148.00339 2133.053 -651.57031 4294966645
69.654015 2138.8528 -651.44067 4294966645
71.086609 2138.6938 -651.71942 4294966645
73.82663 2137.8789 -651.27808 4294966645
94.066612 2136.408 -651.95282 4294966645
98.064224 2136.6753 -651.15875 4294966645
108.39074 2136.428 -651.31903 4294966645
65.788162 2140.3667 -651.5816 4294966645
272.19855 2147.6748 -651.54688 4294966645
276.14951 2147.2429 -651.79077 4294966645
277.91739 2147.2422 -651.4436 4294966645
279.45895 2147.2322 -651.46777 4294966645
280.25284 2147.1567 -651.9801 4294966645
287.33325 2147.1416 -651.39935 4294966645
307.29996 2145.8157 -651.0163 4294966645
266.96979 2148.3992 -651.76086 4294966645
269.25287 2148.1021 -651.27673 4294966645
151.48447 2156.949 -651.03625 4294966645
153.48492 2156.843 -651.11829 4294966645
155.18936 2156.6372 -651.15863 4294966645
159.33476 2156.2832 -651.0896 4294966645
173.22365 2155.1726 -651.0116 4294966645
119.24752 2159.1858 -651.00629 4294966645
123.38307 2159.312 -651.63867 4294966645
125.37981 2159.1792 -651.72009 4294966645
129.76254 2158.7979 -651.20612 4294966645
131.16707 2158.7466 -651.98444 4294966645
133.49347 2158.592 -651.60382 4294966645
137.42084 2158.335 -651.74213 4294966645
139.47192 2158.155 -651.77924 4294966645
141.28357 2157.9709 -651.75342 4294966645
143.1563 2157.7678 -651.57513 4294966645
147.39299 2157.384 -651.59741 4294966645
63.646004 2161.5344 -651.55695 4294966645
64.695824 2162.4768 -651.17633 4294966645
68.11264 2162.7749 -651.36475 4294966645
73.932678 2162.8003 -651.83557 4294966645
87.590294 2162.1111 -651.51691 4294966645
93.563683 2161.4563 -651.20349 4294966645
97.622177 2161.2463 -651.91779 4294966645
99.539009 2161.0908 -651.90393 4294966645
101.30183 2160.9397 -651.74707 4294966645
104.29485 2160.3577 -651.44385 4294966645
106.34258 2160.209 -651.02423 4294966645
108.70177 2160.0293 -651.47601 4294966645
299.01822 2123.3235 -650.96558 4294966646
307.57306 2122.8398 -650.9845 4294966646
309.64133 2122.6621 -650.8501 4294966646
249.37943 2126.7415 -650.86975 4294966646
277.41367 2124.6436 -650.99231 4294966646
279.05032 2124.5205 -650.89551 4294966646
199.78474 2129.96 -650.95203 4294966646
207.67456 2129.4563 -650.96564 4294966646
209.45323 2129.3044 -650.9278 4294966646
211.2431 2129.2549 -650.72113 4294966646
213.38757 2129.1702 -650.85046 4294966646
217.23952 2128.8303 -650.95605 4294966646
219.02821 2128.7961 -650.97369 4294966646
227.52014 2128.1719 -650.99963 4294966646
233.2718 2127.7979 -650.96307 4294966646
235.1739 2127.6296 -650.90222 4294966646
237.45279 2127.5532 -650.96735 4294966646
239.35556 2127.437 -650.83893 4294966646
243.44359 2127.2061 -650.86133 4294966646
246.06923 2127.0186 -650.60419 4294966646
187.50348 2130.8857 -650.94257 4294966646
195.66853 2130.2141 -650.98627 4294966646
73.853554 2137.3264 -650.09375 4294966646
79.0149 2136.8232 -650.29535 4294966646
89.963219 2136.365 -650.18439 4294966646
101.41457 2136.5964 -650.9173 4294966646
103.62048 2136.4695 -650.9165 4294966646
105.20522 2136.3728 -650.62103 4294966646
106.67992 2136.3167 -650.07111 4294966646
285.87573 2147.1877 -650.91394 4294966646
289.46164 2146.9902 -650.927 4294966646
291.52603 2146.8169 -650.78955 4294966646
293.54605 2146.7122 -650.84735 4294966646
305.48581 2145.9272 -650.85168 4294966646
311.46094 2145.47 -650.92108 4294966646
233.4579 2150.9688 -650.96326 4294966646
247.34866 2150.019 -650.8714 4294966646
249.35359 2149.887 -650.90808 4294966646
253.33957 2149.6052 -650.8869 4294966646
255.59106 2149.4543 -650.85211 4294966646
261.35278 2148.9944 -650.8866 4294966646
263.51016 2148.8701 -650.83716 4294966646
175.47696 2155.0049 -650.89838 4294966646
179.30675 2154.7017 -650.91235 4294966646
183.30853 2154.4202 -650.79388 4294966646
185.37222 2154.2957 -650.94513 4294966646
113.93928 2159.6443 -650.52875 4294966646
60.752594 2161.4109 -650.63202 4294966646
62.581699 2162.6501 -650.23297 4294966646
80.846535 2162.564 -650.01874 4294966646
67.235062 2163.2871 -650.07965 4294966646
68.982193 2163.2461 -650.43127 4294966646
70.372559 2163.071 -650.94598 4294966646
74.940681 2163.1665 -650.11395 4294966646
269.6951 2125.5942 -649.03168 4294966647
191.53888 2130.866 -649.12683 4294966647
203.23604 2130.0078 -649.1416 4294966647
111.1017 2135.9514 -649.97784 4294966647
115.5176 2135.3176 -649.48187 4294966647
118.96499 2134.8474 -649.79602 4294966647
120.98832 2134.7068 -649.12067 4294966647
125.34738 2134.7051 -649.28076 4294966647
128.92406 2134.4773 -649.16858 4294966647
131.08987 2134.2275 -649.10785 4294966647
137.8044 2133.8787 -649.22241 4294966647
141.78639 2133.7805 -649.00299 4294966647
149.26868 2133.3589 -649.05219 4294966647
67.687149 2138.0847 -649.65662 4294966647
70.747055 2137.6445 -649.86426 4294966647
75.856949 2137.0669 -649.53876 4294966647
80.327293 2136.8599 -649.75568 4294966647
91.623924 2136.3623 -649.83722 4294966647
94.264702 2136.2241 -649.99402 4294966647
97.330193 2136.0417 -649.65326 4294966647
99.424805 2136.5103 -649.60535 4294966647
105.06232 2136.2866 -649.14301 4294966647
108.4335 2136.1802 -649.67371 4294966647
276.392 2147.6042 -649.37164 4294966647
280.87918 2147.4111 -649.70459 4294966647
265.37268 2148.5911 -649.67383 4294966647
117.12656 2159.3521 -649.00098 4294966647
121.34916 2159.1851 -649.04443 4294966647
145.34364 2157.3228 -649.06067 4294966647
59.611279 2162.3423 -649.18915 4294966647
61.943687 2162.8059 -649.73083 4294966647
77.506142 2162.917 -649.75153 4294966647
83.62117 2162.2419 -649.25623 4294966647
87.117104 2161.9343 -649.22711 4294966647
89.608704 2161.6851 -649.16644 4294966647
93.249855 2161.3203 -649.09473 4294966647
97.507347 2160.9539 -649.1109 4294966647
100.9407 2160.6399 -649.0614 4294966647
106.74553 2160.2397 -649.10699 4294966647
63.880642 2163.3523 -649.78235 4294966647
73.542389 2163.2705 -649.52979 4294966647
297.41257 2123.8291 -648.75439 4294966648
301.44534 2123.5518 -648.86139 4294966648
303.4357 2123.4326 -648.85364 4294966648
305.3978 2123.3044 -648.81604 4294966648
307.26675 2123.1855 -648.84955 4294966648
311.43332 2122.9524 -648.95502 4294966648
251.30701 2126.9248 -648.95569 4294966648
253.52472 2126.7856 -648.875 4294966648
255.39462 2126.6262 -648.85077 4294966648
257.27618 2126.4692 -648.83588 4294966648
259.28885 2126.3472 -648.89832 4294966648
261.51953 2126.1724 -648.73029 4294966648
265.48398 2125.9578 -648.76056 4294966648
271.49185 2125.5195 -648.84308 4294966648
275.62604 2125.2734 -648.63977 4294966648
279.246 2124.98 -648.7652 4294966648
281.76892 2124.6902 -648.97626 4294966648
283.59473 2124.6047 -648.82611 4294966648
207.92 2129.8059 -648.6463 4294966648
209.59198 2129.6963 -648.78265 4294966648
211.43953 2129.7336 -648.35669 4294966648
213.65402 2129.5762 -648.54529 4294966648
215.33942 2129.5403 -648.72888 4294966648
217.31125 2129.3328 -648.70593 4294966648
219.26398 2129.1614 -648.69482 4294966648
221.69217 2129.0195 -648.77661 4294966648
223.4341 2128.8892 -648.83319 4294966648
226.00574 2128.6709 -648.63849 4294966648
229.41049 2128.3872 -648.73322 4294966648
231.19392 2128.2917 -648.84583 4294966648
235.19954 2128.0659 -648.61639 4294966648
237.43666 2128.02 -648.56494 4294966648
239.67842 2127.8247 -648.70447 4294966648
241.58861 2127.718 -648.836 4294966648
243.44753 2127.5923 -648.71857 4294966648
247.24197 2127.2966 -648.84784 4294966648
249.20917 2127.1392 -648.72919 4294966648
159.42613 2132.832 -648.86182 4294966648
163.22264 2132.6199 -648.94275 4294966648
189.35593 2131.0964 -648.83099 4294966648
193.61728 2130.8311 -648.64722 4294966648
195.47296 2130.6917 -648.78204 4294966648
197.45493 2130.5334 -648.71442 4294966648
199.55031 2130.325 -648.84442 4294966648
201.62517 2130.1907 -648.70544 4294966648
119.72697 2134.99 -648.59796 4294966648
127.36029 2134.5813 -648.81195 4294966648
139.05261 2133.8 -648.94794 4294966648
145.59111 2133.5588 -648.97113 4294966648
151.09677 2133.3413 -648.83337 4294966648
153.60945 2133.2434 -648.65765 4294966648
155.38469 2133.0598 -648.83136 4294966648
74.051033 2137.1768 -648.13239 4294966648
102.27465 2136.4126 -648.32098 4294966648
273.71268 2147.8474 -648.22461 4294966648
284.85727 2147.2505 -648.9679 4294966648
287.17615 2147.0605 -648.74335 4294966648
289.64063 2146.845 -648.59357 4294966648
293.32553 2146.551 -648.59796 4294966648
295.12195 2146.4314 -648.71356 4294966648
303.43839 2145.8511 -648.58252 4294966648
307.09305 2145.5984 -648.48767 4294966648
239.26283 2150.3501 -648.70044 4294966648
243.40973 2150.1321 -648.88379 4294966648
253.49062 2149.3655 -648.49127 4294966648
259.28378 2148.9768 -648.59857 4294966648
263.51392 2148.7273 -648.6817 4294966648
267.81567 2148.3157 -648.38245 4294966648
271.04538 2148.0273 -648.17847 4294966648
187.42981 2153.9573 -648.69733 4294966648
189.42862 2153.8054 -648.70654 4294966648
191.55533 2153.6162 -648.64191 4294966648
193.11339 2153.4956 -648.69989 4294966648
197.31276 2153.2234 -648.61786 4294966648
207.12007 2152.7615 -648.85931 4294966648
209.61684 2152.5596 -648.65869 4294966648
211.29962 2152.415 -648.79852 4294966648
213.33171 2152.2422 -648.67609 4294966648
215.46448 2152.0693 -648.69043 4294966648
217.53993 2151.8887 -648.60046 4294966648
149.79672 2156.8794 -648.62164 4294966648
153.34424 2156.605 -648.92932 4294966648
157.65424 2156.2026 -648.80042 4294966648
175.5818 2154.7856 -648.7204 4294966648
177.4057 2154.6594 -648.80115 4294966648
179.49109 2154.5015 -648.68384 4294966648
181.4427 2154.3757 -648.69775 4294966648
185.15492 2154.1216 -648.73871 4294966648
125.19385 2158.9048 -648.98322 4294966648
127.68082 2158.7627 -648.82922 4294966648
133.41534 2158.2024 -648.88531 4294966648
139.60822 2157.7441 -648.73383 4294966648
141.11717 2157.6082 -648.90979 4294966648
143.37346 2157.502 -648.83374 4294966648
85.387993 2162.0486 -648.92719 4294966648
95.471962 2161.1216 -648.97156 4294966648
103.2703 2160.4519 -648.9798 4294966648
105.12096 2160.3608 -648.95758 4294966648
117.97971 2135.1953 -647.45026 4294966649
69.410538 2137.3381 -647.93274 4294966649
71.108482 2137.2397 -647.97937 4294966649
74.798615 2137.1946 -647.53162 4294966649
77.425072 2137.1296 -647.75018 4294966649
79.427605 2137.0669 -647.32294 4294966649
104.7146 2136.333 -647.32672 4294966649
107.81689 2136.2588 -647.38696 4294966649
79.769531 2162.5786 -647.17767 4294966649
86.53981 2161.9128 -647.42657 4294966649
61.305553 2163.7249 -647.65021 4294966649
65.195549 2164.0098 -647.91425 4294966649
67.148842 2163.8833 -647.96338 4294966649
69.443039 2163.6699 -647.69958 4294966649
71.207458 2163.4585 -647.5686 4294966649
73.563049 2163.2024 -647.12195 4294966649
74.864464 2163.0996 -647.04193 4294966649
301.6116 2123.8828 -646.63556 4294966650
303.68716 2123.8049 -646.37415 4294966650
305.50089 2123.7195 -646.19427 4294966650
309.2706 2123.5298 -646.42963 4294966650
311.53101 2123.3081 -646.60632 4294966650
257.35529 2126.8457 -646.216 4294966650
259.50552 2126.5898 -646.79181 4294966650
261.65292 2126.5215 -646.23358 4294966650
263.51746 2126.4111 -646.30304 4294966650
267.5058 2126.2209 -646.2204 4294966650
269.54526 2126.0691 -646.38019 4294966650
271.30219 2125.9932 -646.10095 4294966650
273.37027 2125.8625 -646.19977 4294966650
277.45178 2125.6118 -646.0968 4294966650
281.74286 2125.207 -646.33856 4294966650
283.22208 2125.1106 -646.02893 4294966650
285.53564 2124.8911 -646.2052 4294966650
289.37659 2124.6404 -646.16113 4294966650
291.31668 2124.5432 -646.17291 4294966650
293.26926 2124.3684 -646.69025 4294966650
295.51907 2124.3525 -646.1543 4294966650
297.67148 2124.1863 -646.37268 4294966650
299.59912 2124.0703 -646.2486 4294966650
215.62032 2129.7366 -646.44916 4294966650
217.65907 2129.655 -646.09821 4294966650
219.54993 2129.5313 -646.17969 4294966650
225.54594 2129.0605 -646.18329 4294966650
227.62975 2128.8818 -646.25793 4294966650
231.43045 2128.6477 -646.23944 4294966650
233.66867 2128.5449 -646.00677 4294966650
237.1452 2128.3323 -646.2829 4294966650
239.59683 2128.2134 -646.15057 4294966650
241.44969 2128.0981 -646.07019 4294966650
244.90308 2127.7808 -646.49377 4294966650
247.59453 2127.6116 -646.24249 4294966650
249.64677 2127.4656 -646.22681 4294966650
251.58682 2127.3391 -646.20465 4294966650
255.25021 2127.0674 -646.08282 4294966650
163.56487 2132.9304 -646.81494 4294966650
190.58353 2131.3335 -646.43066 4294966650
193.68396 2131.1125 -646.4126 4294966650
195.45987 2130.9888 -646.48682 4294966650
197.49219 2130.9036 -646.19794 4294966650
199.7963 2130.7104 -646.36938 4294966650
201.71353 2130.5803 -646.15637 4294966650
203.70229 2130.4109 -646.34863 4294966650
205.14592 2130.3425 -646.12201 4294966650
209.1835 2130.0647 -646.27679 4294966650
211.03583 2130.02 -646.07513 4294966650
112.32162 2135.9873 -646.72699 4294966650
118.8969 2134.8926 -646.64856 4294966650
123.73028 2135.012 -646.58093 4294966650
127.34535 2134.9556 -646.76233 4294966650
129.22205 2134.7842 -646.73999 4294966650
133.57378 2134.4773 -646.75226 4294966650
136.17198 2134.374 -646.34369 4294966650
138.93961 2134.1992 -646.91376 4294966650
149.07664 2133.7837 -646.71423 4294966650
153.46463 2133.6455 -646.19482 4294966650
157.68275 2133.3018 -646.77197 4294966650
161.61293 2133.0486 -646.74756 4294966650
94.129402 2136.8318 -646.94647 4294966650
97.220337 2136.6523 -646.99097 4294966650
100.12093 2136.429 -646.93829 4294966650
103.41008 2136.3289 -646.68994 4294966650
279.05847 2147.7908 -646.9212 4294966650
280.91595 2147.8325 -646.0694 4294966650
289.56296 2146.8428 -646.07709 4294966650
185.26375 2153.9683 -646.14368 4294966650
203.37328 2152.8315 -646.24377 4294966650
205.38634 2152.7866 -646.20697 4294966650
207.28421 2152.6934 -646.14105 4294966650
153.37416 2156.3586 -646.22015 4294966650
159.29105 2155.8291 -646.11584 4294966650
165.21359 2155.3816 -646.50427 4294966650
175.6077 2154.5876 -646.12921 4294966650
177.57443 2154.4451 -646.02368 4294966650
181.42816 2154.2156 -646.03217 4294966650
183.3891 2154.1135 -646.26361 4294966650
107.12467 2159.9111 -646.61444 4294966650
109.69029 2159.7324 -646.52185 4294966650
121.67316 2158.8796 -646.85443 4294966650
129.43863 2158.2363 -646.29468 4294966650
141.44727 2157.3193 -646.06049 4294966650
145.16245 2157.0281 -646.77216 4294966650
77.383011 2162.8088 -646.94464 4294966650
81.368919 2162.4187 -646.8736 4294966650
83.596786 2162.1282 -646.78827 4294966650
91.310989 2161.354 -646.9657 4294966650
93.375519 2161.1284 -646.82709 4294966650
95.626526 2160.9207 -646.88409 4294966650
97.387428 2160.7712 -646.79602 4294966650
99.368904 2160.6377 -646.8363 4294966650
101.41321 2160.4561 -646.83673 4294966650
103.34607 2160.2314 -646.6073 4294966650
105.28952 2160.0837 -646.61975 4294966650
265.6203 2126.3704 -645.83978 4294966651
279.38931 2125.5017 -645.86584 4294966651
221.52483 2129.4229 -645.9776 4294966651
229.66618 2128.7832 -645.95734 4294966651
235.2589 2128.4604 -645.966 4294966651
115.94196 2135.6255 -645.07489 4294966651
119.30176 2135.3779 -645.56842 4294966651
69.639648 2137.6047 -645.45245 4294966651
71.357292 2137.5608 -645.49469 4294966651
73.431755 2137.5474 -645.48242 4294966651
77.862602 2137.5042 -645.08087 4294966651
104.96855 2136.5366 -645.08881 4294966651
273.5368 2147.8499 -645.77966 4294966651
277.47681 2147.9622 -645.94763 4294966651
287.2309 2147.0757 -645.99286 4294966651
291.37155 2146.667 -645.93378 4294966651
295.24365 2146.4121 -645.80804 4294966651
299.45477 2145.9775 -645.87408 4294966651
301.41986 2145.8323 -645.71039 4294966651
303.323 2145.6851 -645.60425 4294966651
305.28052 2145.5369 -645.74713 4294966651
307.20724 2145.4067 -645.79169 4294966651
309.27576 2145.2432 -645.85345 4294966651
235.37935 2150.481 -645.91736 4294966651
239.24515 2150.2109 -645.67719 4294966651
241.37216 2150.0532 -645.88666 4294966651
251.44322 2149.3311 -645.57861 4294966651
253.44005 2149.1641 -645.68463 4294966651
255.35127 2149.0598 -645.89899 4294966651
257.32416 2149.0576 -645.80865 4294966651
259.31363 2148.9548 -645.88934 4294966651
261.38666 2148.8064 -645.89441 4294966651
263.31403 2148.6489 -645.86194 4294966651
265.49335 2148.4385 -645.87878 4294966651
267.39426 2148.2998 -645.83325 4294966651
269.48792 2148.1316 -645.80634 4294966651
271.35464 2148.0977 -645.71088 4294966651
275.32874 2148.0483 -645.92047 4294966651
187.34001 2153.7913 -645.9483 4294966651
191.45731 2153.3818 -645.94879 4294966651
193.06248 2153.2266 -645.93646 4294966651
195.44778 2153.1543 -645.75079 4294966651
197.37152 2153.0396 -645.7381 4294966651
199.37978 2152.9705 -645.88776 4294966651
201.6667 2152.8608 -645.95105 4294966651
211.3307 2152.2915 -645.96222 4294966651
215.40225 2151.8584 -645.66852 4294966651
217.49422 2151.6887 -645.76605 4294966651
219.45451 2151.5027 -645.61792 4294966651
223.39041 2151.2112 -645.55988 4294966651
149.68257 2156.6284 -645.66156 4294966651
155.97412 2156.123 -645.87701 4294966651
157.67513 2155.9714 -645.92615 4294966651
161.49426 2155.6003 -645.96954 4294966651
179.40053 2154.3267 -645.90332 4294966651
133.53668 2157.9307 -645.75818 4294966651
60.89661 2164.3635 -645.89709 4294966651
63.040672 2164.2952 -645.82166 4294966651
67.375748 2163.7927 -645.18701 4294966651
71.348427 2163.3596 -645.07776 4294966651
119.54631 2135.1575 -644.06586 4294966652
123.38389 2135.1033 -644.67694 4294966652
124.93214 2135.0742 -644.25311 4294966652
133.47836 2134.749 -644.64856 4294966652
153.53188 2133.9492 -644.04016 4294966652
165.47713 2133.1946 -644.06738 4294966652
75.008698 2137.5906 -644.97888 4294966652
91.684921 2137.3328 -644.57751 4294966652
92.977974 2137.3462 -644.35254 4294966652
95.199364 2137.1777 -644.69031 4294966652
97.011681 2137.1826 -644.22968 4294966652
100.23326 2136.9875 -644.65155 4294966652
103.21935 2136.825 -644.02612 4294966652
77.038986 2162.7415 -644.85724 4294966652
79.605614 2162.4221 -644.78912 4294966652
81.447205 2162.1978 -644.58746 4294966652
84.836357 2161.8459 -644.85681 4294966652
87.640404 2161.3906 -644.16626 4294966652
89.453293 2161.2588 -644.61816 4294966652
91.414917 2161.0906 -644.42493 4294966652
93.241051 2160.9133 -644.18024 4294966652
95.464569 2160.7456 -644.24255 4294966652
69.500977 2163.5378 -644.91058 4294966652
73.605202 2163.1453 -644.98285 4294966652
307.72839 2123.7014 -643.61053 4294966653
309.34427 2123.8027 -643.72144 4294966653
311.48395 2123.5696 -643.72437 4294966653
263.34561 2126.5679 -643.13885 4294966653
267.69583 2126.2864 -643.15381 4294966653
269.37766 2126.1802 -643.11554 4294966653
271.2077 2126.3098 -643.55243 4294966653
275.39859 2126.1023 -643.62555 4294966653
279.36154 2125.7761 -643.60669 4294966653
283.02438 2125.2258 -643.19824 4294966653
285.69495 2125.0435 -643.10516 4294966653
289.25418 2124.8247 -643.23462 4294966653
301.53461 2124.3003 -643.52551 4294966653
305.42398 2124.0278 -643.5835 4294966653
217.42618 2129.8191 -643.50128 4294966653
219.51752 2129.6448 -643.60876 4294966653
225.14803 2129.238 -643.78851 4294966653
227.59824 2129.0024 -643.01508 4294966653
229.31889 2128.8977 -643.06677 4294966653
237.81171 2128.4365 -643.75757 4294966653
239.96603 2128.1912 -643.0246 4294966653
243.5204 2128.2219 -643.50989 4294966653
245.39821 2127.9114 -643.67126 4294966653
249.27728 2127.7634 -643.46271 4294966653
251.62622 2127.5745 -643.40216 4294966653
253.41222 2127.2703 -643.59424 4294966653
172.12602 2132.8518 -643.79126 4294966653
173.27478 2132.7747 -643.65369 4294966653
175.75047 2132.4675 -643.68231 4294966653
179.35004 2132.3835 -643.55017 4294966653
183.39973 2132.1748 -643.4693 4294966653
185.53136 2132.0747 -643.61243 4294966653
187.59497 2131.9189 -643.66986 4294966653
189.67735 2131.7419 -643.63855 4294966653
193.33423 2131.5149 -643.73218 4294966653
195.51309 2131.2029 -643.50555 4294966653
197.59663 2131.0942 -643.76031 4294966653
199.49399 2130.9504 -643.58508 4294966653
201.02499 2130.7993 -643.32013 4294966653
207.78995 2130.5112 -643.06635 4294966653
213.72949 2130.052 -643.58301 4294966653
120.03912 2134.8408 -643.68719 4294966653
129.19591 2135.2439 -643.1864 4294966653
131.7448 2135.1003 -643.74255 4294966653
147.36595 2134.4299 -643.58252 4294966653
148.89742 2134.1855 -643.86328 4294966653
151.32724 2134.1724 -643.59662 4294966653
155.69296 2133.6943 -643.8205 4294966653
157.93678 2133.6782 -643.84882 4294966653
159.73201 2133.5278 -643.92957 4294966653
161.55336 2133.3992 -643.88788 4294966653
163.71474 2133.1897 -643.87091 4294966653
169.57109 2133.0295 -643.70697 4294966653
107.2914 2136.5469 -643.71552 4294966653
285.60114 2147.7542 -643.95648 4294966653
289.44534 2147.4065 -643.54675 4294966653
295.46402 2146.8176 -643.64728 4294966653
297.12231 2146.6768 -643.85382 4294966653
299.29391 2146.4246 -643.68085 4294966653
303.41888 2146.1479 -643.60132 4294966653
241.65021 2150.4543 -643.46838 4294966653
245.37007 2150.3721 -643.60437 4294966653
247.35677 2150.2178 -643.65723 4294966653
249.41083 2150.0898 -643.60724 4294966653
251.40967 2149.9207 -643.57751 4294966653
257.2377 2149.4563 -643.71985 4294966653
261.40176 2149.2061 -643.5965 4294966653
265.34366 2148.9539 -643.60327 4294966653
267.34439 2148.7993 -643.67096 4294966653
271.34772 2148.531 -643.71393 4294966653
277.16959 2148.2476 -643.83832 4294966653
279.25061 2148.2505 -643.81799 4294966653
281.50848 2148.2439 -643.65283 4294966653
189.43506 2153.9453 -643.81 4294966653
193.24377 2153.6594 -643.78424 4294966653
195.63644 2153.4873 -643.77423 4294966653
197.39809 2153.3311 -643.7785 4294966653
199.29306 2153.2749 -643.80493 4294966653
205.41187 2153.2134 -643.82117 4294966653
207.19241 2153.0923 -643.57428 4294966653
213.27414 2152.4143 -643.66394 4294966653
215.45187 2152.2446 -643.60571 4294966653
219.46695 2152.0647 -643.46387 4294966653
221.42471 2151.866 -643.70874 4294966653
225.52026 2151.6387 -643.5528 4294966653
161.58318 2155.8865 -643.5293 4294966653
173.46643 2154.9883 -643.9494 4294966653
175.65201 2154.8889 -643.69513 4294966653
177.36147 2154.7637 -643.70184 4294966653
181.3445 2154.5479 -643.69409 4294966653
183.53018 2154.428 -643.6701 4294966653
103.35347 2159.9382 -643.66229 4294966653
105.5131 2159.7783 -643.55627 4294966653
109.49879 2159.4907 -643.00806 4294966653
119.47366 2158.8579 -643.90326 4294966653
124.9507 2158.5491 -643.3092 4294966653
74.834007 2162.9224 -643.25214 4294966653
97.298943 2160.5359 -643.87238 4294966653
99.333214 2160.3047 -643.85687 4294966653
102.22185 2160.0332 -643.46185 4294966653
62.720184 2164.2478 -643.64978 4294966653
71.040459 2163.3281 -643.26886 4294966653
257.57892 2126.9358 -642.8371 4294966654
259.31296 2126.814 -642.97241 4294966654
261.46054 2126.7397 -642.362 4294966654
281.5397 2125.3333 -642.88281 4294966654
287.33411 2124.9165 -642.71594 4294966654
291.70718 2124.7102 -642.87689 4294966654
293.51907 2124.6182 -642.91101 4294966654
295.6192 2124.5002 -642.95691 4294966654
297.76364 2124.3494 -642.94781 4294966654
299.55896 2124.1816 -642.94757 4294966654
220.72397 2129.3582 -642.27203 4294966654
231.58566 2128.7734 -642.8786 4294966654
203.43938 2130.6123 -642.80072 4294966654
205.52904 2130.4871 -642.92548 4294966654
209.31641 2130.2341 -642.74908 4294966654
211.26303 2130.3582 -642.87543 4294966654
120.53403 2134.3477 -642.55554 4294966654
124.90686 2134.7373 -642.57367 4294966654
78.355476 2137.8816 -642.92108 4294966654
293.70779 2147.5593 -642.49127 4294966654
297.32062 2147.0969 -642.39343 4294966654
301.53763 2146.8696 -642.43921 4294966654
303.32581 2146.689 -642.52789 4294966654
307.37259 2146.4277 -642.40607 4294966654
253.44234 2150.3049 -642.54834 4294966654
255.32228 2150.1785 -642.52252 4294966654
259.353 2149.7419 -642.6001 4294966654
261.60062 2149.7502 -642.38885 4294966654
265.50458 2149.4978 -642.35016 4294966654
267.50043 2149.3499 -642.42285 4294966654
269.52835 2149.2605 -642.33801 4294966654
273.54721 2148.9304 -642.31799 4294966654
277.18353 2148.7893 -642.6955 4294966654
279.23938 2149.0061 -642.32678 4294966654
287.22751 2148.4595 -642.36938 4294966654
195.42554 2153.9993 -642.53424 4294966654
197.37454 2153.8906 -642.50775 4294966654
199.38821 2153.8191 -642.40442 4294966654
201.55022 2153.7607 -642.49292 4294966654
203.36063 2153.7195 -642.46216 4294966654
205.27867 2153.5356 -642.35388 4294966654
209.56718 2153.3135 -642.29388 4294966654
215.3924 2152.8513 -642.54449 4294966654
217.37102 2152.2898 -642.97119 4294966654
225.48531 2152.1592 -642.50891 4294966654
229.37767 2151.8599 -642.5224 4294966654
231.65041 2151.668 -642.58862 4294966654
233.48196 2151.5945 -642.45313 4294966654
237.38489 2151.2939 -642.56494 4294966654
239.44379 2151.2593 -642.40625 4294966654
241.45419 2151.1265 -642.45428 4294966654
243.56009 2151.0054 -642.49731 4294966654
245.40535 2151.1208 -642.16211 4294966654
177.29039 2155.304 -642.4986 4294966654
179.42392 2155.0935 -642.40778 4294966654
183.43716 2155.0439 -642.41321 4294966654
193.75726 2154.2651 -642.28131 4294966654
113.44308 2159.2104 -642.83276 4294966654
115.42574 2159.0938 -642.83954 4294966654
123.67426 2158.6641 -642.19916 4294966654
129.50363 2158.1187 -642.82672 4294966654
143.36378 2157.4597 -642.29663 4294966654
77.107193 2162.5752 -642.5163 4294966654
79.518845 2162.2957 -642.68579 4294966654
81.344795 2162.106 -642.77948 4294966654
83.743881 2161.759 -642.45142 4294966654
67.488434 2163.6768 -642.92847 4294966654
73.550079 2163.0337 -642.96106 4294966654
303.63489 2123.6619 -641.82117 4294966655
309.60471 2123.3826 -641.99744 4294966655
257.62079 2126.6968 -641.5498 4294966655
261.2554 2126.6094 -641.57855 4294966655
267.55237 2126.0698 -641.78119 4294966655
269.21487 2125.9583 -641.8313 4294966655
275.10303 2125.551 -641.8017 4294966655
277.38077 2125.5635 -641.71313 4294966655
279.49774 2125.2874 -641.71198 4294966655
281.40918 2125.166 -641.75989 4294966655
283.40839 2125.002 -641.63403 4294966655
289.32013 2124.7561 -641.39484 4294966655
291.4747 2124.6873 -641.5285 4294966655
295.4375 2124.363 -641.68335 4294966655
299.42084 2124.0066 -641.73981 4294966655
213.58116 2129.5183 -641.24469 4294966655
217.63225 2129.457 -641.7077 4294966655
219.59479 2129.3684 -641.79749 4294966655
223.54048 2129.0459 -641.72589 4294966655
225.10649 2128.9358 -641.63898 4294966655
227.64487 2128.7783 -641.60077 4294966655
235.36411 2128.4534 -641.67963 4294966655
237.68306 2128.1882 -641.96844 4294966655
238.41536 2127.8088 -641.16833 4294966655
239.59985 2128.0044 -641.86536 4294966655
241.32799 2128.0393 -641.91809 4294966655
243.33199 2127.7195 -641.87006 4294966655
245.20387 2127.4888 -641.7323 4294966655
248.0255 2127.3633 -641.98047 4294966655
251.55043 2127.1233 -641.89465 4294966655
253.58578 2127.0642 -641.67651 4294966655
161.06628 2132.9729 -641.46594 4294966655
163.81671 2132.8887 -641.70795 4294966655
165.21165 2132.8013 -641.67273 4294966655
167.28502 2132.7417 -641.63965 4294966655
172.9482 2132.4844 -641.77106 4294966655
177.43629 2132.1418 -641.76208 4294966655
179.12509 2131.9951 -641.74524 4294966655
183.30432 2131.7644 -641.94281 4294966655
187.61821 2131.4329 -641.81995 4294966655
195.40656 2130.9788 -641.71704 4294966655
197.6069 2130.876 -641.71497 4294966655
199.21494 2130.6914 -641.41095 4294966655
201.1385 2130.6101 -641.51843 4294966655
205.45485 2130.3237 -641.58661 4294966655
207.04793 2130.1985 -641.6734 4294966655
121.16238 2134.156 -641.48535 4294966655
127.53355 2134.9109 -641.70874 4294966655
133.43407 2134.8357 -641.56226 4294966655
149.56822 2133.9041 -641.54077 4294966655
151.61656 2133.7065 -641.58063 4294966655
155.41132 2133.5122 -641.89624 4294966655
93.475067 2137.7322 -641.80066 4294966655
95.289658 2137.4797 -641.97968 4294966655
97.274574 2137.5068 -641.64716 4294966655
100.37646 2137.0801 -641.72778 4294966655
103.48618 2136.916 -641.54688 4294966655
107.72037 2136.4761 -641.67517 4294966655
109.63144 2136.6824 -641.9339 4294966655
305.52527 2147.0427 -641.78204 4294966655
309.48959 2146.8364 -641.76953 4294966655
251.32161 2150.8752 -641.93652 4294966655
257.36304 2150.416 -641.85419 4294966655
259.44574 2150.3418 -641.54639 4294966655
261.43283 2150.6355 -641.23151 4294966655
263.44714 2150.6328 -641.10724 4294966655
265.54904 2150.5161 -641.10193 4294966655
271.59521 2150.3687 -641.03003 4294966655
287.29779 2149.699 -641.02887 4294966655
289.61087 2148.8086 -641.56787 4294966655
291.617 2149.0476 -641.07703 4294966655
293.392 2148.4897 -641.32825 4294966655
295.54459 2148.5327 -641.05652 4294966655
297.38861 2148.3589 -641.09808 4294966655
301.42615 2148.0796 -641.01691 4294966655
207.5269 2153.9548 -641.28253 4294966655
215.60899 2153.95 -641.05981 4294966655
221.4971 2153.3674 -641.32861 4294966655
223.40042 2152.7507 -641.81366 4294966655
225.61833 2153.1296 -641.2934 4294966655
229.52072 2152.8259 -641.2735 4294966655
235.36415 2152.4858 -641.11749 4294966655
239.46761 2152.3394 -641.05908 4294966655
241.50496 2152.3572 -641.02002 4294966655
243.38742 2152.1621 -641.11615 4294966655
247.50482 2151.1753 -641.91534 4294966655
255.40472 2151.1138 -641.32837 4294966655
193.43134 2155.1399 -641.19 4294966655
199.383 2154.7861 -641.06903 4294966655
111.39016 2159.8621 -641.58337 4294966655
121.65327 2159.0972 -641.40521 4294966655
123.30572 2159.0767 -641.10883 4294966655
126.9875 2158.8274 -641.19348 4294966655
131.7045 2158.4375 -641.01569 4294966655
133.51709 2158.3357 -641.013 4294966655
137.40161 2157.9714 -641.29437 4294966655
139.59363 2157.9084 -641.23041 4294966655
73.63549 2162.9321 -641.11133 4294966655
85.561371 2161.4993 -641.97406 4294966655
89.636841 2161.1047 -641.62219 4294966655
91.616699 2161.1313 -641.78174 4294966655
95.853432 2161.0303 -641.42444 4294966655
97.706917 2160.8865 -641.78003 4294966655
101.94612 2160.6079 -641.68207 4294966655
103.32674 2160.4727 -641.74799 4294966655
105.45407 2160.366 -641.62115 4294966655
107.50016 2160.2395 -641.57141 4294966655
295.18512 2123.9124 -640.12952 4294966656
299.40161 2123.4014 -640.26477 4294966656
301.17596 2122.9841 -640.15564 4294966656
303.43124 2123.0044 -640.41174 4294966656
305.58463 2122.7034 -640.20349 4294966656
307.3222 2122.7561 -640.37598 4294966656
309.61188 2122.5112 -640.11963 4294966656
311.31357 2122.4375 -640.0459 4294966656
239.75148 2126.9749 -640.1676 4294966656
243.30917 2126.7695 -640.2774 4294966656
245.20802 2126.658 -640.28796 4294966656
246.93382 2126.656 -640.38226 4294966656
249.35973 2126.4841 -640.32861 4294966656
251.28403 2126.4856 -640.52527 4294966656
253.12654 2126.4336 -640.55878 4294966656
255.74651 2126.2649 -640.19684 4294966656
259.25836 2126.1155 -640.11035 4294966656
263.36087 2125.9043 -640.15369 4294966656
271.67636 2125.0813 -640.45129 4294966656
273.30505 2124.8867 -640.362 4294966656
275.40671 2124.7207 -640.28186 4294966656
277.48181 2124.7983 -640.47107 4294966656
279.76508 2124.6287 -640.38507 4294966656
281.09906 2124.5786 -640.39886 4294966656
283.70428 2124.4927 -640.4671 4294966656
208.09953 2129.7434 -640.55652 4294966656
209.56245 2129.6282 -640.76257 4294966656
211.44336 2129.1545 -640.25293 4294966656
215.23373 2128.7839 -640.17468 4294966656
217.6089 2128.7234 -640.29303 4294966656
219.30434 2128.6758 -640.37964 4294966656
223.73697 2128.5364 -640.52612 4294966656
225.4948 2128.2893 -640.23663 4294966656
227.62959 2128.3069 -640.44336 4294966656
229.29773 2128.1907 -640.1203 4294966656
231.37982 2128.1128 -640.19122 4294966656
233.14578 2128.0745 -640.30786 4294966656
241.40605 2127.0879 -640.46246 4294966656
155.86314 2132.8792 -640.40045 4294966656
157.02843 2132.804 -640.48883 4294966656
159.77953 2132.6079 -640.5459 4294966656
161.16858 2132.5144 -640.57227 4294966656
163.55161 2132.4224 -640.48291 4294966656
165.03038 2132.3179 -640.40308 4294966656
169.75475 2132.2205 -640.52222 4294966656
170.93808 2132.1101 -640.40894 4294966656
173.65736 2131.9495 -640.39124 4294966656
175.66043 2131.8687 -640.58594 4294966656
181.2668 2131.1118 -640.1944 4294966656
185.33069 2131.1272 -640.45453 4294966656
187.7204 2130.7729 -640.33557 4294966656
193.26744 2130.6958 -640.63989 4294966656
197.37947 2130.427 -640.50128 4294966656
203.32477 2130.0415 -640.01752 4294966656
129.35805 2134.3457 -640.04211 4294966656
131.93645 2134.5959 -640.40918 4294966656
143.70416 2134.1033 -640.40271 4294966656
145.49361 2133.8301 -640.55463 4294966656
149.41174 2133.4551 -640.50153 4294966656
151.20352 2133.3008 -640.47382 4294966656
153.48785 2133.2131 -640.40186 4294966656
107.57871 2136.1218 -640.47687 4294966656
307.39386 2147.9275 -640.91339 4294966656
275.19141 2150.4253 -640.87219 4294966656
277.57822 2150.4172 -640.93884 4294966656
289.42383 2150.4417 -640.43561 4294966656
293.25677 2150.0146 -640.44385 4294966656
295.29016 2149.7949 -640.21381 4294966656
299.41 2149.7817 -640.23627 4294966656
301.29373 2149.804 -640.20306 4294966656
303.42484 2149.1367 -640.41632 4294966656
305.2674 2149.2236 -640.36218 4294966656
309.14609 2148.4883 -640.51385 4294966656
311.49576 2148.563 -640.31873 4294966656
231.61847 2153.8572 -640.4079 4294966656
233.33989 2152.6667 -640.87994 4294966656
239.30608 2153.658 -640.49133 4294966656
243.48422 2153.7417 -640.42175 4294966656
245.61606 2152.7271 -640.78912 4294966656
249.25082 2153.6868 -640.38062 4294966656
251.60732 2152.9563 -640.59003 4294966656
253.3756 2153.6226 -640.37823 4294966656
255.43681 2152.438 -640.65778 4294966656
259.36508 2152.7886 -640.47498 4294966656
261.4371 2152.7683 -640.44568 4294966656
263.2851 2151.8066 -640.5517 4294966656
265.23718 2153.073 -640.28973 4294966656
267.46906 2152.0813 -640.40546 4294966656
269.17273 2152.645 -640.17297 4294966656
273.40302 2152.7278 -640.328 4294966656
177.30304 2156.7671 -640.2774 4294966656
179.39317 2156.8855 -640.18628 4294966656
183.32088 2156.6155 -640.28925 4294966656
189.29437 2156.03 -640.77618 4294966656
191.54337 2155.8896 -640.65906 4294966656
193.39557 2156.4985 -640.33722 4294966656
197.34177 2155.9119 -640.25647 4294966656
201.48489 2155.0945 -640.62469 4294966656
205.425 2155.0593 -640.49658 4294966656
207.44611 2154.8428 -640.5163 4294966656
213.26208 2154.0535 -640.89227 4294966656
217.53577 2154.9292 -640.56262 4294966656
219.09816 2154.4968 -640.57935 4294966656
221.3396 2155.718 -640.23761 4294966656
223.34698 2155.1875 -640.40839 4294966656
225.38622 2154.4766 -640.57495 4294966656
227.43877 2154.833 -640.4425 4294966656
231.53558 2155.6401 -640.0451 4294966656
233.33485 2154.9651 -640.08832 4294966656
235.35007 2154.9495 -640.099 4294966656
