# .PCD v0.7 - Point Cloud Data file format
VERSION 0.7
FIELDS x y z rgba
SIZE 4 4 4 4
TYPE F F F U
COUNT 1 1 1 1
WIDTH 1120
HEIGHT 1
VIEWPOINT 0 0 0 1 0 0 0
POINTS 1120
DATA ascii
247.50203 -226.49731 -553.69653 4294966743
249.46326 -226.5354 -553.49805 4294966743
251.43535 -225.47551 -553.21564 4294966743
253.34079 -227.46013 -553.46869 4294966743
255.67403 -227.96921 -553.25146 4294966743
225.45229 -222.97466 -553.71533 4294966743
229.4586 -223.20946 -553.39648 4294966743
231.6122 -224.3911 -553.85223 4294966743
233.59541 -223.97348 -553.53168 4294966743
235.22034 -223.97212 -553.30646 4294966743
237.37024 -224.52129 -553.47455 4294966743
239.29208 -224.40575 -553.20508 4294966743
241.47464 -224.38057 -553.11951 4294966743
245.21378 -224.8416 -553.24133 4294966743
249.39526 -224.68648 -553.23126 4294966743
141.56653 -219.86952 -553.6535 4294966743
145.29736 -220.03426 -553.75122 4294966743
147.62347 -219.9612 -553.73517 4294966743
149.73445 -220.05452 -553.55402 4294966743
153.25922 -219.97078 -553.55011 4294966743
155.38295 -220.11307 -553.73798 4294966743
159.35834 -220.27083 -553.32935 4294966743
163.65849 -220.39638 -553.18024 4294966743
167.59602 -220.43576 -553.26532 4294966743
169.43179 -220.3804 -553.16833 4294966743
171.31223 -220.49203 -553.31378 4294966743
173.53302 -220.50185 -553.22913 4294966743
175.46864 -220.53784 -553.2627 4294966743
177.56374 -220.6765 -553.35571 4294966743
179.50893 -220.75803 -553.29755 4294966743
183.25723 -220.79842 -553.42188 4294966743
191.33141 -220.93373 -553.39374 4294966743
193.43906 -221.00827 -553.3703 4294966743
197.407 -221.34613 -553.36761 4294966743
199.44295 -221.37067 -553.21423 4294966743
201.355 -221.50195 -553.38263 4294966743
203.47621 -221.54176 -553.35266 4294966743
207.15002 -221.56973 -553.42792 4294966743
209.43999 -221.60002 -553.37909 4294966743
211.64386 -221.67506 -553.37769 4294966743
213.45483 -221.74686 -553.41522 4294966743
215.5945 -221.758 -553.34552 4294966743
217.37582 -221.86179 -553.44482 4294966743
219.08237 -221.89374 -553.41931 4294966743
141.41054 -243.60109 -552.32465 4294966744
143.39275 -243.78004 -552.24316 4294966744
145.55006 -243.63626 -552.27307 4294966744
147.64156 -243.71213 -552.24908 4294966744
149.43835 -244.1665 -552.16223 4294966744
163.30823 -243.66763 -552.13806 4294966744
171.48697 -243.98059 -552.04742 4294966744
173.26173 -244.14272 -552.04211 4294966744
175.27505 -244.1908 -552.07819 4294966744
177.36121 -244.33936 -552.10797 4294966744
179.35025 -243.06473 -552.59674 4294966744
181.30211 -243.11765 -552.75983 4294966744
183.54901 -244.31717 -552.22107 4294966744
185.42911 -243.11903 -552.64661 4294966744
187.25162 -244.4444 -552.30719 4294966744
189.54736 -244.51274 -552.37244 4294966744
191.40994 -243.12921 -552.83215 4294966744
193.35435 -244.55772 -552.45447 4294966744
195.4313 -243.83443 -552.64783 4294966744
197.30215 -243.82968 -552.65747 4294966744
199.46704 -244.5312 -552.46283 4294966744
201.46448 -244.54906 -552.46436 4294966744
203.284 -244.58916 -552.46222 4294966744
205.4283 -244.59947 -552.50891 4294966744
207.88393 -243.50102 -552.69397 4294966744
209.89285 -243.8129 -552.6189 4294966744
211.44334 -244.95528 -552.2417 4294966744
213.62241 -244.54778 -552.34442 4294966744
215.52864 -244.33531 -552.3252 4294966744
225.25681 -244.26132 -552.35699 4294966744
143.35722 -242.35262 -552.90375 4294966744
145.36981 -242.36949 -552.86737 4294966744
147.41919 -242.37625 -552.81989 4294966744
149.24826 -242.60913 -552.89343 4294966744
151.51494 -242.97397 -552.59467 4294966744
157.68938 -242.45891 -552.68915 4294966744
159.2173 -242.48848 -552.64294 4294966744
161.57358 -242.28036 -552.63934 4294966744
163.52536 -242.16402 -552.66016 4294966744
165.41957 -242.25253 -552.64795 4294966744
167.45882 -242.24397 -552.65192 4294966744
169.28873 -242.36504 -552.64844 4294966744
171.59251 -242.32561 -552.64832 4294966744
175.4659 -242.40033 -552.74237 4294966744
183.50722 -242.87369 -552.67651 4294966744
187.31754 -242.87236 -552.80383 4294966744
199.38356 -242.97554 -552.88397 4294966744
201.43404 -242.43802 -552.9978 4294966744
211.57951 -242.47478 -552.88232 4294966744
213.50513 -242.39851 -552.92285 4294966744
227.58653 -242.2984 -552.79633 4294966744
229.44421 -242.0851 -552.70038 4294966744
231.41684 -241.97699 -552.58636 4294966744
233.45906 -241.95203 -552.479 4294966744
235.39005 -241.89177 -552.39142 4294966744
237.57605 -241.8378 -552.28033 4294966744
239.4563 -241.97165 -552.17499 4294966744
241.38507 -241.79428 -552.08612 4294966744
259.50031 -230.35925 -552.4859 4294966744
263.53958 -230.25899 -552.25055 4294966744
265.2272 -230.35179 -552.13074 4294966744
255.74101 -225.87575 -552.89819 4294966744
259.54694 -226.65353 -552.78558 4294966744
261.70935 -227.31187 -552.6507 4294966744
263.60568 -226.68022 -552.56689 4294966744
265.52554 -227.27571 -552.38727 4294966744
267.34854 -226.69618 -552.17932 4294966744
269.3645 -227.15285 -552.31201 4294966744
271.59576 -227.32722 -552.15753 4294966744
273.54324 -227.3331 -552.07111 4294966744
223.27048 -222.04585 -552.83997 4294966744
231.71063 -222.79683 -552.63293 4294966744
243.4906 -224.26862 -552.98718 4294966744
245.32912 -223.74554 -552.66705 4294966744
247.44551 -223.8672 -552.73145 4294966744
249.49017 -223.82704 -552.57745 4294966744
253.25648 -223.93808 -552.33569 4294966744
257.422 -224.89793 -552.48169 4294966744
144.94611 -219.43361 -552.35712 4294966744
147.67111 -219.43675 -552.12891 4294966744
151.59969 -219.70602 -552.64362 4294966744
153.39075 -219.61432 -552.33362 4294966744
155.40695 -219.62759 -552.32562 4294966744
159.43776 -219.75342 -552.31531 4294966744
165.47948 -219.74306 -552.16663 4294966744
167.54535 -219.94 -552.24512 4294966744
171.41805 -220.01505 -552.29327 4294966744
173.25378 -220.02553 -552.16614 4294966744
175.41599 -220.12384 -552.26343 4294966744
177.35431 -220.18846 -552.25769 4294966744
179.5098 -220.17 -552.16217 4294966744
183.55444 -220.30341 -552.15405 4294966744
187.37097 -220.44572 -552.30939 4294966744
189.50774 -220.47708 -552.27252 4294966744
195.35291 -220.7095 -552.2868 4294966744
197.55295 -220.78517 -552.18378 4294966744
199.14525 -220.87036 -552.21533 4294966744
201.07243 -220.97305 -552.24152 4294966744
203.28413 -221.00504 -552.22784 4294966744
205.72794 -221.10181 -552.31055 4294966744
207.44511 -221.08603 -552.07983 4294966744
209.14514 -221.26741 -552.41705 4294966744
211.72995 -221.26161 -552.12988 4294966744
213.34319 -221.40985 -552.34418 4294966744
219.39577 -221.54997 -552.31183 4294966744
223.75264 -221.73544 -552.18994 4294966744
225.66243 -221.813 -552.04724 4294966744
191.41187 -246.09271 -551.63556 4294966745
193.18187 -246.23932 -551.46185 4294966745
195.33965 -246.29453 -551.4718 4294966745
197.75188 -246.13855 -551.63367 4294966745
199.34941 -246.02017 -551.75464 4294966745
203.78839 -246.33107 -551.48389 4294966745
205.48924 -246.14566 -551.76306 4294966745
209.3615 -246.15913 -551.81433 4294966745
221.4156 -246.03818 -551.24939 4294966745
141.58881 -244.87956 -551.39044 4294966745
143.56033 -244.88988 -551.36694 4294966745
145.31473 -244.9556 -551.3222 4294966745
147.4295 -244.97502 -551.32935 4294966745
149.43866 -245.14456 -551.25299 4294966745
151.37364 -245.0885 -551.33801 4294966745
153.35367 -245.17815 -551.64764 4294966745
155.47562 -245.20222 -551.6167 4294966745
157.44467 -245.26575 -551.22473 4294966745
159.37944 -244.14737 -551.96533 4294966745
161.38196 -244.59993 -551.59595 4294966745
163.4837 -245.14177 -551.36438 4294966745
165.52394 -244.57684 -551.57477 4294966745
169.46544 -245.37201 -551.24207 4294966745
173.4007 -245.41182 -551.20264 4294966745
175.49602 -245.4464 -551.29364 4294966745
177.60338 -245.55923 -551.27179 4294966745
179.48897 -245.48747 -551.3844 4294966745
181.43877 -245.62335 -551.32239 4294966745
183.51546 -245.62512 -551.36792 4294966745
185.44118 -245.61031 -551.47839 4294966745
187.38673 -245.72337 -551.50574 4294966745
213.5558 -245.94614 -551.5838 4294966745
215.4552 -245.99512 -551.37976 4294966745
219.42314 -245.99176 -551.35016 4294966745
227.38397 -245.50894 -551.40631 4294966745
229.48634 -245.44455 -551.34601 4294966745
231.39461 -244.79292 -551.59766 4294966745
233.30841 -245.49078 -551.25806 4294966745
235.47475 -244.8654 -551.4516 4294966745
237.27783 -244.1562 -551.69226 4294966745
239.50372 -245.68404 -551.00421 4294966745
243.61661 -244.4016 -551.3797 4294966745
249.3849 -244.32516 -551.21527 4294966745
251.37627 -244.32539 -551.28101 4294966745
253.28883 -244.37627 -551.06091 4294966745
243.45216 -242.00253 -551.99438 4294966745
245.45451 -242.12193 -551.90869 4294966745
249.451 -241.88194 -551.74976 4294966745
255.30357 -241.77467 -551.48767 4294966745
257.22528 -241.98331 -551.37573 4294966745
259.48782 -241.71164 -551.24933 4294966745
263.36972 -241.77414 -551.02313 4294966745
267.46222 -232.98877 -551.43597 4294966745
273.43607 -232.85751 -551.07245 4294966745
267.34439 -230.48427 -551.9585 4294966745
273.57471 -230.50694 -551.50555 4294966745
277.505 -230.46573 -551.30273 4294966745
279.46652 -230.34874 -551.19312 4294966745
273.43204 -226.03178 -551.59332 4294966745
275.63196 -227.44936 -551.89081 4294966745
277.53162 -226.99338 -551.46887 4294966745
279.63721 -227.8167 -551.54865 4294966745
281.48502 -227.88005 -551.15948 4294966745
233.5556 -222.0854 -551.50769 4294966745
239.2029 -222.47086 -551.28705 4294966745
241.55841 -222.50591 -551.22876 4294966745
245.38394 -222.79807 -551.56018 4294966745
249.28404 -222.84552 -551.33197 4294966745
251.38332 -222.94836 -551.27667 4294966745
253.42833 -223.02879 -551.11798 4294966745
255.57825 -223.61337 -551.9295 4294966745
257.548 -223.56807 -551.70123 4294966745
259.54446 -223.71643 -551.67682 4294966745
261.62589 -223.71561 -551.47241 4294966745
263.55667 -223.86118 -551.36462 4294966745
265.30072 -224.74367 -551.70209 4294966745
267.37979 -224.71167 -551.49713 4294966745
269.3009 -224.68655 -551.33057 4294966745
271.32889 -224.62509 -551.26105 4294966745
273.50183 -224.79767 -551.0105 4294966745
227.77531 -221.99962 -551.9964 4294966745
191.42326 -246.94334 -550.01215 4294966746
227.23082 -246.51297 -550.53992 4294966746
229.40997 -246.86688 -550.05103 4294966746
231.45122 -246.81503 -550.0827 4294966746
255.50673 -246.0724 -550.25964 4294966746
257.50867 -246.22444 -550.13171 4294966746
259.35815 -246.01488 -550.12549 4294966746
154.71609 -245.59477 -550.89233 4294966746
159.57446 -245.63454 -550.78265 4294966746
171.26633 -245.53133 -550.89008 4294966746
243.35971 -245.73131 -550.87225 4294966746
245.61517 -245.67142 -550.85425 4294966746
249.56059 -245.84935 -550.54211 4294966746
253.31616 -245.85841 -550.62427 4294966746
255.43515 -244.36235 -550.98627 4294966746
257.59714 -244.40843 -550.8537 4294966746
259.53046 -244.41365 -550.79242 4294966746
261.5383 -244.46132 -550.67474 4294966746
263.64264 -244.42537 -550.58234 4294966746
265.21463 -244.4082 -550.54358 4294966746
267.5282 -244.57181 -550.47784 4294966746
269.40179 -245.06908 -550.23865 4294966746
271.58771 -244.91368 -550.138 4294966746
273.37109 -244.56345 -550.11774 4294966746
267.33072 -241.89949 -550.77814 4294966746
269.40991 -242.26811 -550.62823 4294966746
271.36096 -241.87308 -550.479 4294966746
273.43033 -241.84508 -550.31165 4294966746
275.50607 -241.73099 -550.12817 4294966746
267.40814 -239.24831 -550.79895 4294966746
271.58691 -237.22844 -550.57971 4294966746
283.41473 -230.30725 -550.79541 4294966746
285.58743 -230.46225 -550.49432 4294966746
287.44797 -230.47218 -550.26538 4294966746
289.56979 -230.30991 -550.04254 4294966746
281.37805 -226.15181 -550.92389 4294966746
283.53421 -226.18907 -550.54639 4294966746
285.42645 -227.86157 -550.68567 4294966746
287.71597 -227.03212 -550.33337 4294966746
245.37038 -222.10857 -550.08844 4294966746
247.38377 -222.27419 -550.43146 4294966746
249.44859 -222.25963 -550.1759 4294966746
251.49834 -222.36877 -550.06677 4294966746
255.67589 -222.63136 -550.10187 4294966746
275.35788 -224.77698 -550.89471 4294966746
277.50281 -224.72089 -550.70538 4294966746
279.38708 -224.81296 -550.55219 4294966746
153.50763 -219.17073 -550.0777 4294966746
157.41429 -219.24426 -550.14026 4294966746
159.67348 -219.18565 -550.09625 4294966746
163.44136 -219.24384 -550.27393 4294966746
167.42151 -219.56578 -550.76361 4294966746
169.46701 -219.32228 -550.23181 4294966746
171.3233 -219.67107 -550.86902 4294966746
173.32895 -219.57486 -550.21729 4294966746
177.38681 -219.67336 -550.17548 4294966746
179.26486 -219.74036 -550.29883 4294966746
181.40388 -219.58946 -550.28369 4294966746
183.37027 -219.84387 -550.22064 4294966746
185.54208 -219.79604 -550.23346 4294966746
187.5838 -219.98131 -550.19971 4294966746
189.36743 -220.02733 -550.27209 4294966746
191.32979 -220.07591 -550.21045 4294966746
193.5701 -220.17386 -550.1615 4294966746
195.44188 -220.22935 -550.02771 4294966746
199.34102 -220.42371 -550.10748 4294966746
203.12157 -220.54279 -550.08154 4294966746
205.4733 -220.5853 -550.14142 4294966746
209.35246 -220.67567 -550.02887 4294966746
211.43509 -220.75223 -550.06207 4294966746
213.4929 -220.86516 -550.08154 4294966746
215.638 -220.92592 -550.72144 4294966746
221.42758 -221.25946 -550.74402 4294966746
223.70947 -221.22372 -550.198 4294966746
225.66472 -221.31245 -550.22583 4294966746
227.5251 -221.40248 -550.26642 4294966746
229.63232 -221.36827 -550.16425 4294966746
231.7771 -221.43517 -550.00171 4294966746
235.52438 -221.63281 -550.08356 4294966746
237.36169 -221.74776 -550.10107 4294966746
243.45824 -221.96347 -550.19086 4294966746
143.23331 -218.81247 -550.05841 4294966746
151.40926 -246.02284 -549.66357 4294966747
153.09085 -246.12334 -549.64124 4294966747
155.3559 -246.13657 -549.70551 4294966747
157.51184 -246.15176 -549.60626 4294966747
161.59056 -246.11481 -549.61139 4294966747
169.30406 -246.2195 -549.65967 4294966747
173.19049 -246.37477 -549.60345 4294966747
175.69002 -246.45363 -549.62103 4294966747
177.56894 -246.62549 -549.72644 4294966747
179.33363 -246.49428 -549.74683 4294966747
181.42503 -246.55774 -549.66248 4294966747
185.34032 -246.59303 -549.80334 4294966747
189.48236 -246.77202 -549.89532 4294966747
193.21004 -246.88182 -549.86182 4294966747
195.41595 -246.90312 -549.89691 4294966747
197.68692 -247.0415 -549.86212 4294966747
199.26718 -247.10359 -549.70917 4294966747
201.27603 -247.12265 -549.85449 4294966747
203.33897 -247.03812 -549.85516 4294966747
205.50722 -247.09229 -549.89343 4294966747
207.60567 -247.29207 -549.8858 4294966747
209.80307 -247.28857 -549.78235 4294966747
211.13054 -247.23503 -549.96527 4294966747
213.37527 -247.16634 -549.70044 4294966747
217.22665 -247.12007 -549.37006 4294966747
219.35693 -247.2596 -549.48608 4294966747
221.59918 -247.35191 -549.32117 4294966747
235.5081 -246.88066 -549.93964 4294966747
237.23894 -246.94144 -549.88409 4294966747
241.39355 -247.09518 -549.7298 4294966747
243.39958 -247.04156 -549.74097 4294966747
247.33936 -247.11627 -549.7851 4294966747
249.37831 -247.47197 -549.33527 4294966747
251.25665 -247.29408 -549.59558 4294966747
255.3996 -247.39618 -549.30988 4294966747
257.53864 -247.3793 -549.23474 4294966747
261.54761 -247.35783 -549.078 4294966747
263.44485 -247.31888 -549.11438 4294966747
265.42035 -246.2193 -549.9126 4294966747
267.67258 -246.35487 -549.81561 4294966747
271.34448 -246.55751 -549.84637 4294966747
273.48499 -246.42136 -549.56927 4294966747
277.6279 -246.3488 -549.21417 4294966747
279.44754 -246.43747 -549.03937 4294966747
141.52647 -245.68375 -549.81848 4294966747
143.51048 -245.73372 -549.81152 4294966747
145.61691 -245.79385 -549.63849 4294966747
147.31277 -245.7878 -549.7464 4294966747
149.14468 -245.86351 -549.69745 4294966747
277.3205 -244.24901 -549.79193 4294966747
279.37466 -244.37355 -549.56256 4294966747
281.46872 -244.62563 -549.36353 4294966747
279.41092 -241.47974 -549.75262 4294966747
281.44058 -241.43083 -549.5412 4294966747
283.49179 -239.20398 -549.39709 4294966747
285.44949 -239.27336 -549.14337 4294966747
287.4263 -237.19449 -549.0531 4294966747
285.56131 -235.1062 -549.60919 4294966747
287.47916 -235.01945 -549.30524 4294966747
289.56885 -235.14519 -549.04797 4294966747
285.54694 -233.04684 -549.99097 4294966747
287.37787 -233.20724 -549.71838 4294966747
291.46875 -233.0314 -549.19043 4294966747
293.30951 -230.11739 -549.5495 4294966747
295.54248 -230.19186 -549.14465 4294966747
289.6774 -226.26895 -549.83661 4294966747
291.46689 -227.04987 -549.73242 4294966747
293.68011 -226.97061 -549.58167 4294966747
295.42767 -227.85114 -549.26898 4294966747
257.52002 -222.70969 -549.94647 4294966747
259.48926 -222.81209 -549.9942 4294966747
263.14624 -223.13478 -549.96893 4294966747
265.44302 -223.26392 -549.91827 4294966747
267.43207 -223.34196 -549.78552 4294966747
269.53644 -223.3974 -549.62 4294966747
271.38184 -223.41672 -549.48224 4294966747
273.43933 -223.48396 -549.50555 4294966747
275.69839 -223.47108 -549.24567 4294966747
281.14944 -223.98228 -549.46014 4294966747
283.31302 -224.00781 -549.13104 4294966747
285.55243 -224.86172 -549.60938 4294966747
289.4137 -224.99779 -549.18103 4294966747
151.49376 -219.11865 -549.99451 4294966747
155.5773 -219.16682 -549.9444 4294966747
175.33226 -219.60808 -549.98645 4294966747
207.55919 -220.58037 -549.91034 4294966747
219.54889 -221.04903 -549.82111 4294966747
239.71573 -221.79149 -549.87152 4294966747
145.87622 -218.90346 -549.6181 4294966747
147.4559 -218.95105 -549.93073 4294966747
147.36928 -246.01585 -548.07947 4294966748
149.30161 -246.11612 -548.08423 4294966748
151.30989 -246.23152 -548.19971 4294966748
153.65723 -246.30424 -548.21112 4294966748
155.67874 -246.35417 -548.1261 4294966748
157.9424 -246.31497 -548.45447 4294966748
161.46141 -246.36775 -548.12183 4294966748
163.20099 -246.56187 -548.26813 4294966748
165.72861 -246.5831 -548.67712 4294966748
167.52756 -246.68765 -548.27496 4294966748
169.56427 -246.74899 -548.22827 4294966748
171.69087 -246.58626 -548.15356 4294966748
173.20053 -246.64067 -548.19019 4294966748
177.28363 -246.73911 -548.23779 4294966748
181.45175 -246.7915 -548.05725 4294966748
183.33904 -246.72366 -548.64038 4294966748
185.30803 -246.84901 -548.21338 4294966748
187.31573 -246.84691 -548.76807 4294966748
189.15648 -246.97806 -548.16541 4294966748
191.42715 -247.04073 -548.20007 4294966748
193.33224 -247.10892 -548.04156 4294966748
195.12997 -247.07446 -548.20892 4294966748
199.45523 -247.20393 -548.01526 4294966748
201.44554 -247.20274 -548.04224 4294966748
205.4897 -247.31667 -548.10669 4294966748
207.51488 -247.37807 -548.09442 4294966748
209.28375 -247.37283 -548.20752 4294966748
211.46381 -247.39395 -548.01135 4294966748
217.05205 -247.38351 -548.02362 4294966748
219.02 -247.38309 -548.02722 4294966748
227.43184 -247.71446 -548.06079 4294966748
233.13812 -247.59567 -548.89087 4294966748
237.13229 -248.05606 -548.0318 4294966748
239.33769 -248.07199 -548.02136 4294966748
267.31415 -247.50433 -548.99445 4294966748
269.42682 -247.70787 -548.89771 4294966748
272.32678 -248.09773 -548.47278 4294966748
275.3667 -247.65152 -548.78644 4294966748
277.44089 -247.44463 -548.61908 4294966748
279.465 -247.70396 -548.48547 4294966748
281.40463 -246.42683 -548.87146 4294966748
287.49463 -246.46678 -548.05164 4294966748
143.27298 -245.94125 -548.16064 4294966748
285.38727 -244.53185 -548.9718 4294966748
287.47794 -244.42404 -548.56763 4294966748
289.51318 -244.37398 -548.21185 4294966748
291.37247 -244.48781 -548.03809 4294966748
291.41022 -241.32108 -548.11285 4294966748
289.35373 -239.22221 -548.58765 4294966748
293.37744 -235.13997 -548.47321 4294966748
295.67026 -233.03477 -548.51849 4294966748
297.31131 -232.99727 -548.24536 4294966748
297.46976 -230.32396 -548.75549 4294966748
299.6618 -230.2211 -548.40881 4294966748
301.37247 -230.20491 -548.15631 4294966748
291.48041 -225.05588 -548.96423 4294966748
295.38867 -225.0937 -548.35187 4294966748
297.6142 -226.74704 -548.64594 4294966748
299.54071 -227.86293 -548.4715 4294966748
301.53909 -227.88412 -548.11865 4294966748
255.41383 -222.00301 -548.03577 4294966748
257.32745 -222.07936 -548.09875 4294966748
259.26248 -222.30534 -548.07727 4294966748
265.31805 -222.61452 -548.07703 4294966748
271.33432 -222.88223 -548.14124 4294966748
273.74011 -222.92664 -548.00012 4294966748
275.70251 -222.98521 -548.10638 4294966748
277.57782 -223.03348 -548.00079 4294966748
279.48709 -223.21457 -548.17944 4294966748
281.48685 -223.34219 -548.14343 4294966748
251.65514 -221.80373 -548.10895 4294966748
145.6528 -246.03812 -547.95923 4294966749
176.01001 -246.69713 -547.92273 4294966749
215.25322 -247.39145 -547.95245 4294966749
221.60893 -247.6976 -547.93854 4294966749
231.37114 -247.96295 -547.94714 4294966749
241.41273 -248.09772 -547.91132 4294966749
247.55769 -248.22701 -547.75433 4294966749
253.5356 -248.34325 -547.86536 4294966749
255.33136 -248.23978 -547.59985 4294966749
257.49927 -248.25348 -547.67072 4294966749
259.63651 -248.24384 -547.49164 4294966749
261.29419 -248.2377 -547.35229 4294966749
265.38504 -248.36885 -547.27258 4294966749
267.38239 -248.41058 -547.40509 4294966749
269.7034 -248.60233 -547.28455 4294966749
273.41705 -248.59343 -547.31726 4294966749
275.18665 -248.5038 -547.49127 4294966749
277.65036 -248.56155 -547.19843 4294966749
279.60486 -248.62057 -547.11932 4294966749
283.39963 -248.48851 -547.24969 4294966749
285.55927 -248.30359 -547.25623 4294966749
289.38525 -246.44334 -547.72675 4294966749
291.50101 -246.47011 -547.36029 4294966749
293.58627 -246.41562 -547.05707 4294966749
141.58536 -245.89571 -547.88568 4294966749
293.56476 -244.38106 -547.55396 4294966749
295.45374 -244.32413 -547.25079 4294966749
293.41959 -241.66728 -547.77332 4294966749
295.50443 -241.61981 -547.44934 4294966749
297.59521 -241.74324 -547.1109 4294966749
293.44904 -239.23796 -547.92413 4294966749
299.48773 -237.20973 -547.17194 4294966749
299.63138 -233.0365 -547.87323 4294966749
301.31207 -233.03098 -547.63715 4294966749
303.71216 -232.96916 -547.32733 4294966749
303.59613 -230.33876 -547.8465 4294966749
305.63812 -230.24875 -547.54395 4294966749
297.45245 -225.08261 -547.88696 4294966749
299.38629 -225.0621 -547.45789 4294966749
301.40598 -226.20322 -547.74371 4294966749
303.62061 -227.04668 -547.64014 4294966749
305.51495 -226.30228 -547.24579 4294966749
306.05399 -227.85364 -547.5379 4294966749
261.34647 -222.36891 -547.89661 4294966749
267.81146 -222.73222 -547.98865 4294966749
283.6218 -223.46698 -547.94678 4294966749
285.52182 -223.68456 -547.93433 4294966749
287.33954 -223.84221 -547.91339 4294966749
289.65683 -223.93465 -547.73657 4294966749
291.56876 -224.09837 -547.78265 4294966749
167.16243 -219.41188 -547.54846 4294966749
169.61755 -219.45882 -547.01117 4294966749
171.55791 -219.51158 -547.19635 4294966749
175.40041 -219.59488 -547.16486 4294966749
179.11147 -219.6991 -547.19647 4294966749
187.56146 -219.94577 -547.12177 4294966749
189.6508 -220.01572 -547.03754 4294966749
191.44275 -220.06662 -547.17059 4294966749
197.40829 -220.27171 -547.06934 4294966749
201.37289 -220.40448 -547.14319 4294966749
211.39015 -220.53838 -547.08563 4294966749
219.39714 -220.9939 -547.22357 4294966749
221.53484 -221.02278 -547.0733 4294966749
223.53931 -221.06686 -547.47162 4294966749
227.60315 -221.15514 -547.22601 4294966749
229.66449 -221.17561 -547.50348 4294966749
231.52643 -221.20164 -547.72021 4294966749
233.29025 -221.24759 -547.60571 4294966749
235.39432 -221.29663 -547.69366 4294966749
237.7348 -221.33879 -547.80927 4294966749
239.58446 -221.40784 -547.83313 4294966749
241.52438 -221.4675 -547.66022 4294966749
243.49463 -221.52025 -547.87897 4294966749
245.07399 -221.55527 -547.99591 4294966749
247.55119 -221.64174 -547.75049 4294966749
151.14253 -246.12485 -546.01971 4294966750
163.17801 -246.37376 -546.04779 4294966750
167.24057 -246.47786 -546.05322 4294966750
223.33156 -247.7856 -546.03845 4294966750
227.45462 -247.98135 -546.05389 4294966750
231.28979 -248.09102 -546.10101 4294966750
233.42796 -248.20583 -546.18335 4294966750
235.74831 -248.16724 -546.11792 4294966750
237.24568 -248.18741 -546.23047 4294966750
239.75974 -248.20309 -546.02533 4294966750
245.26801 -248.35461 -546.78992 4294966750
247.44577 -248.39572 -546.37061 4294966750
249.64764 -248.40118 -546.0816 4294966750
251.34248 -248.50105 -546.65863 4294966750
253.38249 -248.64975 -546.31128 4294966750
257.27808 -248.66104 -546.20361 4294966750
267.15164 -248.67715 -546.14172 4294966750
269.36029 -248.8678 -546.06512 4294966750
271.44922 -248.86423 -546.1593 4294966750
273.53394 -248.90834 -546.14459 4294966750
275.38931 -248.89842 -546.21771 4294966750
277.76083 -248.90582 -546.08765 4294966750
279.48117 -248.93457 -546.05621 4294966750
289.37469 -247.90901 -546.88391 4294966750
291.50693 -247.77174 -546.60547 4294966750
293.36014 -247.46124 -546.50494 4294966750
295.30914 -247.50435 -546.17712 4294966750
297.51489 -246.41315 -546.37885 4294966750
299.36859 -246.34074 -546.10156 4294966750
299.59717 -244.26358 -546.68042 4294966750
301.46844 -244.26849 -546.38129 4294966750
301.21667 -241.45685 -546.54388 4294966750
303.46686 -225.21939 -546.80383 4294966750
307.60297 -226.27306 -546.69073 4294966750
309.51266 -227.0006 -546.5611 4294966750
311.96704 -227.94183 -546.38947 4294966750
281.46909 -222.83475 -546.05994 4294966750
285.88019 -223.03978 -546.03668 4294966750
289.5094 -223.34151 -546.12152 4294966750
291.57764 -223.494 -546.30188 4294966750
293.78122 -223.55804 -546.04694 4294966750
297.10477 -224.12173 -546.64386 4294966750
305.47128 -224.91486 -546.11035 4294966750
173.60979 -219.54967 -546.98389 4294966750
217.39813 -220.96121 -546.90729 4294966750
149.45975 -246.02156 -545.88385 4294966751
153.33464 -246.19667 -545.86066 4294966751
155.41974 -246.30055 -545.97144 4294966751
157.66066 -246.27736 -545.79828 4294966751
159.59784 -246.30682 -545.96204 4294966751
161.70154 -246.31702 -545.85272 4294966751
165.40028 -246.36313 -545.86261 4294966751
169.37872 -246.51778 -545.89911 4294966751
171.7002 -246.54402 -545.8302 4294966751
173.02522 -246.59435 -545.91016 4294966751
175.62173 -246.65878 -545.85553 4294966751
177.48294 -246.69643 -545.91168 4294966751
179.64717 -246.69379 -545.83997 4294966751
181.50133 -246.66385 -545.67163 4294966751
185.282 -246.69809 -545.64526 4294966751
187.4929 -246.77458 -545.70868 4294966751
189.20818 -246.85532 -545.85492 4294966751
191.11159 -246.87033 -545.68323 4294966751
193.36285 -246.8857 -545.60657 4294966751
197.73474 -246.86873 -545.29028 4294966751
199.38937 -246.97968 -545.55939 4294966751
201.41141 -247.04729 -545.58325 4294966751
203.46298 -247.09506 -545.65466 4294966751
205.30353 -247.13684 -545.68152 4294966751
207.50661 -247.09785 -545.25238 4294966751
211.23694 -247.22208 -545.47229 4294966751
213.53503 -247.29323 -545.55103 4294966751
215.49748 -247.33904 -545.46106 4294966751
217.14728 -247.45279 -545.79089 4294966751
219.61708 -247.47665 -545.48291 4294966751
225.38461 -247.83638 -545.76355 4294966751
243.56905 -248.27834 -545.98096 4294966751
263.67731 -248.58212 -545.9455 4294966751
285.52069 -248.99214 -545.85352 4294966751
287.62695 -248.93408 -545.70563 4294966751
291.69629 -248.87675 -545.20758 4294966751
293.25494 -248.63263 -545.46863 4294966751
297.01663 -248.32939 -545.28247 4294966751
299.61313 -247.93086 -545.14636 4294966751
301.41522 -246.42006 -545.68488 4294966751
305.49133 -246.49792 -545.01318 4294966751
141.14221 -245.68405 -545.75781 4294966751
143.53848 -245.70441 -545.4519 4294966751
145.55774 -245.79524 -545.48901 4294966751
147.64229 -245.91098 -545.66132 4294966751
303.76505 -244.41112 -545.94745 4294966751
305.47946 -244.31807 -545.5835 4294966751
307.57767 -225.11797 -545.94598 4294966751
311.23819 -225.19519 -545.19263 4294966751
313.89072 -226.84 -545.565 4294966751
257.31302 -222.0544 -545.35077 4294966751
261.36517 -222.13106 -545.54169 4294966751
265.4545 -222.22665 -545.61798 4294966751
269.48642 -222.32709 -545.84131 4294966751
271.44171 -222.36415 -545.98206 4294966751
273.47617 -222.407 -545.77972 4294966751
275.58282 -222.45999 -545.95508 4294966751
277.44958 -222.64165 -545.95624 4294966751
279.75031 -222.70563 -545.99719 4294966751
295.68463 -223.67357 -545.98694 4294966751
297.56693 -223.85698 -545.95654 4294966751
299.63535 -224.00876 -545.8421 4294966751
303.50766 -224.15668 -545.38666 4294966751
181.49736 -219.67552 -545.0144 4294966751
195.33615 -220.13213 -545.00635 4294966751
223.33902 -221.00726 -545.03369 4294966751
229.38843 -221.15315 -545.07379 4294966751
231.59886 -221.18916 -545.07208 4294966751
233.30533 -221.24068 -545.02557 4294966751
239.38843 -221.43294 -545.10394 4294966751
241.50214 -221.5013 -545.18243 4294966751
243.60437 -221.57753 -545.20782 4294966751
247.58371 -221.72078 -545.07416 4294966751
272.05383 -249.07257 -544.12073 4294966752
275.7113 -249.10315 -544.05859 4294966752
281.70578 -249.11571 -544.6076 4294966752
283.64536 -249.16286 -544.64178 4294966752
285.64493 -249.25006 -544.08032 4294966752
289.45178 -249.19048 -544.26453 4294966752
293.50763 -249.23631 -544.0097 4294966752
269.38748 -248.82663 -544.00586 4294966752
277.73367 -248.99922 -544.02722 4294966752
303.43903 -247.51573 -544.65533 4294966752
315.67175 -226.99408 -544.97174 4294966752
319.59317 -227.17395 -544.05896 4294966752
297.72037 -223.37094 -544.02356 4294966752
301.62003 -223.58875 -544.15424 4294966752
305.45782 -223.80548 -544.15259 4294966752
308.14542 -224.1114 -544.40826 4294966752
185.49077 -219.79211 -544.94312 4294966752
187.49091 -219.85513 -544.89819 4294966752
189.46852 -219.92355 -544.96307 4294966752
215.40147 -220.76305 -544.96667 4294966752
221.58292 -220.99084 -544.84991 4294966752
227.36246 -221.09848 -544.98145 4294966752
237.91479 -221.38239 -544.90735 4294966752
291.94739 -249.26563 -543.90417 4294966753
295.74225 -249.21298 -543.7691 4294966753
297.65915 -249.1721 -543.66028 4294966753
299.36224 -249.10507 -543.4845 4294966753
187.4026 -246.23186 -543.07764 4294966753
213.44653 -246.81406 -543.02258 4294966753
217.23984 -246.95125 -543.16351 4294966753
221.36414 -247.05388 -543.0722 4294966753
223.67401 -247.11757 -543.02765 4294966753
227.42274 -247.36494 -543.51233 4294966753
229.40672 -247.45117 -543.54358 4294966753
231.36848 -247.47852 -543.50238 4294966753
233.25961 -247.52428 -543.57751 4294966753
237.34641 -247.58369 -543.57544 4294966753
251.33408 -248.00435 -543.4967 4294966753
255.46014 -248.31525 -543.80042 4294966753
259.41547 -248.49918 -543.93884 4294966753
261.3855 -248.50821 -543.73157 4294966753
265.49591 -248.60974 -543.86243 4294966753
267.41714 -248.71153 -543.88062 4294966753
303.45987 -248.61865 -543.66913 4294966753
305.48358 -248.58084 -543.32727 4294966753
307.44562 -247.98531 -543.45636 4294966753
309.47324 -247.10155 -543.51361 4294966753
141.37549 -245.1044 -543.13342 4294966753
147.70302 -245.31741 -543.02148 4294966753
149.41905 -245.4738 -543.10474 4294966753
153.14297 -245.54784 -543.09741 4294966753
165.3649 -245.88774 -543.03064 4294966753
173.48022 -245.98184 -543.02521 4294966753
319.34988 -228.86473 -543.91528 4294966753
321.62689 -230.15375 -543.18713 4294966753
319.28458 -225.28401 -543.64874 4294966753
321.52762 -225.99658 -543.13068 4294966753
273.3768 -222.49614 -543.06793 4294966753
275.6579 -222.56569 -543.03595 4294966753
277.40543 -222.62708 -543.09241 4294966753
279.66736 -222.69478 -543.08173 4294966753
283.59305 -222.77826 -543.34973 4294966753
287.43686 -222.90263 -543.34888 4294966753
289.19516 -222.92931 -543.85919 4294966753
293.37195 -223.01411 -543.93787 4294966753
295.22931 -223.19478 -543.86932 4294966753
311.41769 -224.00302 -543.29633 4294966753
312.79614 -224.3055 -543.71509 4294966753
318.20795 -224.85735 -543.53717 4294966753
293.45325 -249.42564 -542.11658 4294966754
297.36273 -249.476 -542.03644 4294966754
185.47049 -246.15172 -542.89203 4294966754
189.7644 -246.23845 -542.89447 4294966754
191.29935 -246.32004 -542.9422 4294966754
193.25876 -246.31578 -542.98016 4294966754
205.27747 -246.54025 -542.90155 4294966754
209.65875 -246.6638 -542.92365 4294966754
311.44379 -247.51973 -542.86322 4294966754
317.50549 -246.37706 -542.32819 4294966754
143.35295 -245.11813 -542.97491 4294966754
151.56953 -245.46994 -542.99963 4294966754
155.77686 -245.6474 -542.88275 4294966754
157.58998 -245.63422 -542.97083 4294966754
161.49969 -245.67841 -542.98639 4294966754
169.437 -245.87604 -542.979 4294966754
321.39508 -244.00421 -542.078 4294966754
323.62097 -230.46338 -542.48755 4294966754
323.69632 -227.04059 -542.65363 4294966754
259.76401 -222.07903 -542.94446 4294966754
265.65204 -222.25499 -542.88763 4294966754
271.39496 -222.44263 -542.99078 4294966754
307.70279 -223.49104 -542.18256 4294966754
309.88177 -223.49025 -542.79266 4294966754
311.69489 -223.70311 -542.27527 4294966754
315.73755 -223.8212 -542.01392 4294966754
321.90192 -224.79517 -542.19293 4294966754
177.63342 -219.5116 -542.88434 4294966754
191.16933 -219.86626 -542.80145 4294966754
201.4834 -220.29686 -542.77899 4294966754
217.3761 -220.79478 -542.93903 4294966754
227.51492 -221.06239 -542.7934 4294966754
231.44926 -221.15816 -542.94904 4294966754
235.34904 -221.2818 -542.94598 4294966754
239.46764 -221.40262 -542.97913 4294966754
241.47241 -221.47337 -542.91528 4294966754
245.35876 -221.61221 -542.98969 4294966754
283.54056 -249.00861 -541.68665 4294966755
285.3082 -249.1174 -541.67212 4294966755
287.56442 -249.30559 -541.922 4294966755
289.5351 -249.39662 -541.90601 4294966755
291.83423 -249.51302 -541.95599 4294966755
295.84979 -249.64211 -541.9447 4294966755
301.62723 -249.61703 -541.90625 4294966755
305.76712 -249.39227 -541.76782 4294966755
309.68317 -249.30067 -541.15271 4294966755
225.11386 -246.80843 -541.08679 4294966755
233.2365 -247.09854 -541.05402 4294966755
235.57668 -247.02748 -541.05701 4294966755
259.46561 -247.78653 -541.0744 4294966755
265.38132 -247.97876 -541.03674 4294966755
269.09317 -248.20634 -541.17334 4294966755
272.12332 -248.32939 -541.20129 4294966755
277.7897 -248.50932 -541.02637 4294966755
279.57901 -248.70387 -541.50757 4294966755
281.67487 -248.90948 -541.81354 4294966755
311.4447 -248.71416 -541.86523 4294966755
313.37512 -248.7001 -541.53772 4294966755
317.38675 -248.26927 -541.31116 4294966755
319.34863 -247.04135 -541.65747 4294966755
321.45197 -247.07193 -541.32037 4294966755
323.43106 -246.3214 -541.06818 4294966755
323.63342 -244.19095 -541.48822 4294966755
325.733 -230.1134 -541.94086 4294966755
327.67242 -230.35303 -541.27386 4294966755
325.40662 -225.229 -541.31256 4294966755
327.56778 -226.36203 -541.08282 4294966755
291.3851 -222.98296 -541.01855 4294966755
295.10742 -223.05008 -541.38562 4294966755
297.53201 -223.11223 -541.27832 4294966755
299.51709 -223.14261 -541.52863 4294966755
301.65671 -223.17676 -541.60181 4294966755
303.45474 -223.1893 -541.8288 4294966755
305.49045 -223.2177 -541.86444 4294966755
318.03214 -223.66116 -541.03632 4294966755
322.53589 -224.47523 -541.84174 4294966755
303.50858 -249.62411 -540.07874 4294966756
305.82996 -249.82938 -540.0025 4294966756
307.63589 -249.7903 -540.11731 4294966756
201.4122 -246.08041 -540.7738 4294966756
217.46516 -246.52145 -540.78607 4294966756
219.32327 -246.56329 -540.82385 4294966756
227.28532 -246.85503 -540.98126 4294966756
229.63495 -246.87993 -540.89453 4294966756
237.32657 -247.09109 -540.95367 4294966756
257.30588 -247.67307 -540.97723 4294966756
261.64178 -247.78514 -540.76056 4294966756
263.54007 -247.8914 -540.96326 4294966756
267.44403 -248.08214 -540.97919 4294966756
275.75323 -248.48557 -540.95374 4294966756
319.42633 -248.7166 -540.55408 4294966756
321.43344 -248.74132 -540.18329 4294966756
325.5625 -246.38925 -540.43848 4294966756
141.60675 -244.60071 -540.7486 4294966756
143.36052 -244.60324 -540.65308 4294966756
147.6808 -244.81444 -540.78595 4294966756
151.59172 -244.94302 -540.77509 4294966756
155.34001 -245.07106 -540.78473 4294966756
157.47961 -245.14845 -540.82544 4294966756
159.1895 -245.12486 -540.70447 4294966756
161.50671 -245.28886 -540.94525 4294966756
191.49315 -245.86101 -540.78314 4294966756
195.50778 -245.91016 -540.7547 4294966756
325.71695 -244.07658 -540.84888 4294966756
327.45642 -244.06142 -540.1701 4294966756
329.60004 -229.91142 -540.7655 4294966756
331.65924 -230.07262 -540.0589 4294966756
327.20117 -225.4281 -540.73419 4294966756
329.6109 -227.7567 -540.73077 4294966756
331.4931 -227.8327 -540.17291 4294966756
267.67783 -222.32539 -540.92773 4294966756
273.19843 -222.50114 -540.92432 4294966756
285.47803 -222.86484 -540.92566 4294966756
289.06918 -222.95743 -540.99976 4294966756
293.53836 -223.01752 -540.97498 4294966756
315.6138 -223.47778 -540.17273 4294966756
320.0708 -223.5257 -540.89117 4294966756
323.64648 -223.8671 -540.0556 4294966756
225.59973 -220.96353 -540.75867 4294966756
229.30609 -221.08722 -540.74451 4294966756
231.52454 -221.15326 -540.74268 4294966756
237.69086 -221.32397 -540.81854 4294966756
241.3475 -221.48763 -540.8692 4294966756
243.65131 -221.53885 -540.75549 4294966756
249.36003 -221.74014 -540.94031 4294966756
143.44994 -218.62935 -540.74585 4294966756
149.28093 -218.78613 -540.7196 4294966756
293.38361 -249.18425 -539.72943 4294966757
295.71448 -249.31297 -539.54877 4294966757
297.30209 -249.44284 -539.70453 4294966757
313.46008 -249.53848 -539.88544 4294966757
317.30139 -249.49126 -539.61444 4294966757
322.67392 -249.01402 -539.54187 4294966757
271.74268 -247.89362 -539.02002 4294966757
324.44031 -248.304 -539.82593 4294966757
327.52576 -246.93323 -539.53339 4294966757
329.63928 -246.30699 -539.06525 4294966757
329.61401 -244.32455 -539.57452 4294966757
331.55261 -233.04288 -539.29993 4294966757
331.31381 -225.23488 -539.24615 4294966757
333.56921 -227.07109 -539.32294 4294966757
303.36673 -223.05992 -539.10681 4294966757
307.46658 -223.18111 -539.58417 4294966757
311.62576 -223.32777 -539.64679 4294966757
322.46021 -223.60248 -539.82568 4294966757
313.62164 -249.97391 -538.13464 4294966758
315.63531 -250.00671 -538.17657 4294966758
317.3847 -249.83601 -538.02094 4294966758
319.63754 -249.82997 -538.05829 4294966758
321.43555 -249.78119 -538.09546 4294966758
209.5146 -246.00389 -538.77527 4294966758
211.61249 -246.11192 -538.79016 4294966758
213.59967 -246.17281 -538.85931 4294966758
215.37669 -246.20316 -538.81616 4294966758
217.51089 -246.20457 -538.67145 4294966758
219.43665 -246.19934 -538.61273 4294966758
221.43724 -246.20644 -538.5155 4294966758
223.54224 -246.21815 -538.659 4294966758
227.11034 -246.46883 -538.96564 4294966758
229.53169 -246.46918 -538.77979 4294966758
233.21698 -246.48813 -538.70306 4294966758
235.46602 -246.56766 -538.80817 4294966758
239.65558 -246.66765 -538.67816 4294966758
263.60645 -247.44885 -538.82025 4294966758
265.56976 -247.52579 -538.89246 4294966758
267.60248 -247.63159 -538.85034 4294966758
269.21011 -247.74142 -538.9552 4294966758
273.68692 -247.88464 -538.8623 4294966758
279.32208 -248.09935 -538.91437 4294966758
281.81885 -248.16685 -538.67627 4294966758
283.63507 -248.30516 -538.91559 4294966758
285.2583 -248.40718 -538.87708 4294966758
287.53201 -248.64923 -538.96808 4294966758
289.47586 -248.76971 -538.89703 4294966758
327.36389 -248.9306 -538.28583 4294966758
329.35318 -247.60162 -538.59961 4294966758
331.58066 -246.23293 -538.40564 4294966758
141.52927 -244.46373 -538.76501 4294966758
145.17818 -244.35135 -538.4303 4294966758
147.39644 -244.41139 -538.52393 4294966758
149.39391 -244.44406 -538.27045 4294966758
151.44391 -244.55008 -538.39124 4294966758
154.01674 -244.58521 -538.17065 4294966758
155.38402 -244.67197 -538.47009 4294966758
157.42677 -244.7179 -538.38104 4294966758
159.22939 -244.78088 -538.50836 4294966758
161.58388 -244.84579 -538.54529 4294966758
165.74681 -244.97812 -538.68988 4294966758
183.68398 -245.40945 -538.75153 4294966758
187.21776 -245.48819 -538.90393 4294966758
189.41243 -245.52113 -538.88452 4294966758
205.51097 -245.82687 -538.72028 4294966758
207.46455 -245.88628 -538.61938 4294966758
333.51495 -244.02483 -538.11938 4294966758
335.6496 -230.11192 -538.62756 4294966758
333.19257 -225.28758 -538.69531 4294966758
335.44238 -226.49289 -538.46442 4294966758
337.57175 -227.83762 -538.00867 4294966758
263.44501 -222.1976 -538.65771 4294966758
265.29556 -222.27919 -538.73633 4294966758
269.38538 -222.38098 -538.76373 4294966758
287.2963 -222.88664 -538.81335 4294966758
289.32834 -222.90723 -538.78333 4294966758
291.51929 -222.95386 -538.85248 4294966758
295.66431 -222.96864 -538.80707 4294966758
299.45969 -222.97012 -538.8269 4294966758
301.39227 -223.05205 -538.85596 4294966758
322.08835 -223.14267 -538.05511 4294966758
323.77475 -223.28966 -538.28632 4294966758
325.8024 -223.65686 -538.16589 4294966758
327.8038 -223.85852 -538.06519 4294966758
329.63782 -224.48412 -538.94452 4294966758
185.463 -219.41434 -538.05981 4294966758
213.56737 -219.78122 -538.52026 4294966758
215.22501 -220.09984 -538.60693 4294966758
219.36337 -220.64972 -538.34833 4294966758
227.63898 -220.95523 -538.40497 4294966758
233.36682 -221.13988 -538.50989 4294966758
237.6319 -221.27618 -538.25378 4294966758
239.24988 -221.34831 -538.74432 4294966758
241.43144 -221.44299 -538.32642 4294966758
247.70975 -221.60544 -538.64783 4294966758
141.48743 -218.52477 -538.1911 4294966758
145.35568 -218.61252 -538.33899 4294966758
303.57465 -249.18449 -537.12378 4294966759
305.52115 -249.43658 -537.5719 4294966759
307.69977 -249.57465 -537.50244 4294966759
311.60364 -249.89458 -537.99048 4294966759
325.70697 -249.73558 -537.86041 4294966759
329.327 -248.86717 -537.67291 4294966759
331.44278 -248.3745 -537.36798 4294966759
333.54507 -246.9603 -537.38477 4294966759
339.7504 -229.33905 -537.09155 4294966759
335.47638 -225.00052 -537.76819 4294966759
337.59406 -225.65158 -537.47961 4294966759
339.49896 -226.01617 -537.04938 4294966759
317.89883 -223.24588 -537.60846 4294966759
319.68762 -223.1692 -537.98639 4294966759
331.6196 -224.18567 -537.79309 4294966759
333.4686 -224.2733 -537.47217 4294966759
177.42578 -219.19449 -537.98932 4294966759
179.55269 -219.25539 -537.94885 4294966759
319.85187 -250.07758 -536.11798 4294966760
321.82327 -250.15913 -536.75775 4294966760
323.78708 -250.22269 -536.29602 4294966760
223.84673 -246.01454 -536.28473 4294966760
227.54686 -246.11462 -536.25031 4294966760
231.34688 -246.18164 -536.39307 4294966760
233.32297 -246.23991 -536.36737 4294966760
237.19835 -246.5255 -536.57086 4294966760
255.5099 -246.64986 -536.43616 4294966760
257.23651 -246.70651 -536.51978 4294966760
259.57886 -246.88272 -536.56995 4294966760
261.38153 -246.99774 -536.7179 4294966760
263.38959 -247.09047 -536.72162 4294966760
265.36761 -247.18497 -536.77661 4294966760
267.29697 -247.26833 -536.78845 4294966760
269.22137 -247.29681 -536.81677 4294966760
271.59656 -247.43452 -536.8725 4294966760
277.68146 -247.62743 -536.73138 4294966760
281.61008 -247.73553 -536.74542 4294966760
283.50836 -247.86368 -536.66992 4294966760
287.49207 -248.0672 -536.65338 4294966760
289.45706 -248.13272 -536.59845 4294966760
291.46152 -248.31512 -536.77551 4294966760
295.55164 -248.57446 -536.85291 4294966760
299.61432 -248.76266 -536.91034 4294966760
301.50476 -248.94167 -536.99469 4294966760
335.50208 -246.94635 -536.63879 4294966760
337.51669 -246.40964 -536.23621 4294966760
141.62114 -244.51053 -536.38391 4294966760
143.455 -244.27808 -536.25616 4294966760
181.43036 -245.00937 -536.33948 4294966760
183.56795 -245.05536 -536.31604 4294966760
185.58829 -245.05901 -536.22314 4294966760
189.42004 -245.11511 -536.22626 4294966760
193.3795 -245.17012 -536.12427 4294966760
195.38103 -245.21831 -536.26642 4294966760
199.36957 -245.28938 -536.14673 4294966760
201.3779 -245.34467 -536.14966 4294966760
203.40186 -245.35666 -536.05927 4294966760
207.23454 -245.58368 -536.10309 4294966760
215.15947 -245.87029 -536.21393 4294966760
217.57118 -245.90552 -536.1571 4294966760
221.32953 -245.91895 -536.34039 4294966760
341.6113 -230.26208 -536.29132 4294966760
341.57608 -226.13914 -536.19653 4294966760
263.3689 -222.26369 -536.09583 4294966760
265.39288 -222.34338 -536.03918 4294966760
267.54761 -222.37183 -536.04272 4294966760
269.47879 -222.37259 -536.08331 4294966760
273.35938 -222.45877 -536.22211 4294966760
283.38229 -222.7375 -536.35492 4294966760
287.54346 -222.82588 -536.64813 4294966760
289.32281 -222.84315 -536.55591 4294966760
293.46381 -222.86081 -536.52917 4294966760
295.20438 -222.87967 -536.77832 4294966760
297.29874 -222.84628 -536.86609 4294966760
299.35995 -222.82266 -536.96576 4294966760
301.31992 -222.82445 -536.88776 4294966760
327.86038 -223.30533 -536.12927 4294966760
329.832 -223.49437 -536.19897 4294966760
331.71707 -223.64294 -536.22205 4294966760
333.64948 -223.73236 -536.12103 4294966760
336.1246 -223.91641 -536.13239 4294966760
217.41957 -220.13383 -536.34851 4294966760
220.881 -220.50693 -536.45624 4294966760
227.52841 -220.73941 -536.03284 4294966760
229.15109 -220.84689 -536.13812 4294966760
231.2757 -220.94075 -536.0564 4294966760
235.2421 -221.048 -536.18542 4294966760
255.22621 -221.92772 -536.1225 4294966760
143.52399 -218.22934 -536.05048 4294966760
311.61313 -249.23656 -535.11627 4294966761
315.2869 -249.71008 -535.70074 4294966761
317.47708 -249.84888 -535.64038 4294966761
329.52646 -249.91449 -535.83679 4294966761
331.03494 -249.74927 -535.40637 4294966761
333.49722 -249.62651 -535.09839 4294966761
235.51875 -246.36105 -535.93665 4294966761
241.07242 -246.53896 -535.74036 4294966761
243.47473 -246.59683 -535.38885 4294966761
145.21509 -244.10701 -535.84027 4294966761
147.29034 -244.01929 -535.85266 4294966761
151.18201 -244.04547 -535.49896 4294966761
153.4371 -244.32562 -535.64001 4294966761
155.38818 -244.21011 -535.65808 4294966761
157.54587 -244.26582 -535.63007 4294966761
159.12175 -244.33011 -535.98438 4294966761
161.55045 -244.35312 -535.66309 4294966761
163.13474 -244.3989 -535.79333 4294966761
165.44997 -244.40419 -535.58673 4294966761
167.37926 -244.47095 -535.80292 4294966761
169.54071 -244.51521 -535.6427 4294966761
219.62193 -245.84198 -535.98505 4294966761
339.67935 -244.29356 -535.51794 4294966761
339.47815 -241.4435 -535.43579 4294966761
343.6705 -229.96828 -535.52167 4294966761
343.65921 -227.38123 -535.66766 4294966761
257.43433 -222.0372 -535.91241 4294966761
319.46616 -223.14636 -535.01788 4294966761
321.41595 -223.14365 -535.02313 4294966761
323.57135 -223.2191 -535.1745 4294966761
337.58371 -224.12119 -535.88464 4294966761
339.62927 -224.22884 -535.42352 4294966761
223.72339 -220.53777 -535.90851 4294966761
243.35364 -221.38895 -535.77917 4294966761
245.48946 -221.45613 -535.80255 4294966761
247.51146 -221.48586 -535.84961 4294966761
249.33795 -221.60727 -535.85303 4294966761
251.47755 -221.68921 -535.96948 4294966761
253.43509 -221.81714 -535.97308 4294966761
141.2715 -218.14639 -535.96844 4294966761
309.67148 -249.01077 -534.91809 4294966762
335.43765 -249.50473 -534.86047 4294966762
245.42021 -246.79454 -534.45398 4294966762
261.49109 -246.73981 -534.00751 4294966762
267.7832 -246.8688 -534.00519 4294966762
271.82169 -247.05296 -534.11536 4294966762
281.69464 -247.44012 -534.20972 4294966762
285.04483 -247.56599 -534.21149 4294966762
287.29419 -247.67044 -534.06799 4294966762
291.3255 -247.91824 -534.64386 4294966762
303.56082 -248.5726 -534.62421 4294966762
305.24564 -248.80122 -534.87524 4294966762
307.30984 -248.84422 -534.83856 4294966762
337.49695 -248.77594 -534.7821 4294966762
341.54218 -246.26199 -534.17566 4294966762
141.3015 -244.96149 -534.3858 4294966762
341.69153 -243.89645 -534.54248 4294966762
341.71304 -241.26358 -534.38623 4294966762
343.56216 -233.14508 -534.65033 4294966762
345.77209 -230.13414 -534.55847 4294966762
345.53564 -226.32385 -534.55652 4294966762
333.63028 -223.21143 -534.16663 4294966762
338.11945 -223.71996 -534.70551 4294966762
339.63297 -223.65407 -534.12421 4294966762
341.81873 -223.82864 -534.04364 4294966762
187.25443 -219.01396 -534.30243 4294966762
219.22961 -219.76323 -534.6676 4294966762
221.35823 -219.93819 -534.6651 4294966762
225.25595 -219.95241 -534.33502 4294966762
141.23201 -217.55188 -534.35712 4294966762
