# .PCD v0.7 - Point Cloud Data file format
VERSION 0.7
FIELDS x y z rgba
SIZE 4 4 4 4
TYPE F F F U
COUNT 1 1 1 1
WIDTH 1147
HEIGHT 1
VIEWPOINT 0 0 0 1 0 0 0
POINTS 1147
DATA ascii
367.77127 3823.9705 -197.485 4294967295
369.22482 3823.9053 -197.37564 4294967295
371.37695 3823.8516 -197.15645 4294967295
373.50455 3823.4036 -197.67946 4294967295
375.25513 3823.4861 -197.25471 4294967295
379.38965 3823.2053 -197.17616 4294967295
383.54529 3822.8027 -197.18913 4294967295
385.34235 3822.6785 -197.16867 4294967295
391.71738 3822.1914 -197.46329 4294967295
394.9866 3822.1094 -197.39693 4294967295
636.16034 3824.2563 -197.20576 4294967295
319.57089 3827.7678 -197.644 4294967295
323.45166 3826.8645 -197.67528 4294967295
325.45911 3826.2073 -197.88474 4294967295
327.20639 3826.064 -197.72263 4294967295
329.8139 3826.0884 -197.2758 4294967295
331.5864 3826.0068 -197.48833 4294967295
337.12164 3825.8684 -197.32678 4294967295
341.00858 3825.5376 -197.76517 4294967295
345.83154 3825.3088 -197.17313 4294967295
635.51373 3826.375 -197.33693 4294967295
269.21997 3828.4148 -197.14429 4294967295
273.77087 3828.3438 -197.41211 4294967295
280.72116 3829.1111 -197.18854 4294967295
282.40759 3829.189 -197.6178 4294967295
283.51547 3829.5525 -197.05708 4294967295
285.98587 3829.4287 -197.71417 4294967295
309.56296 3828.958 -197.11061 4294967295
628.20959 3830.1099 -197.85367 4294967295
634.4198 3828.291 -197.88017 4294967295
574.92603 3833.4209 -197.65253 4294967295
577.27808 3832.7239 -197.772 4294967295
579.55011 3832.5112 -197.72768 4294967295
587.21887 3831.7156 -197.9581 4294967295
593.03119 3831.261 -197.85944 4294967295
596.90839 3831.0508 -197.84253 4294967295
523.82977 3836.7754 -197.19308 4294967295
525.44965 3836.5366 -197.36301 4294967295
529.12677 3836.3589 -197.52402 4294967295
542.08978 3835.5776 -197.42778 4294967295
543.54858 3835.4802 -197.33791 4294967295
545.38983 3835.3586 -197.41484 4294967295
547.59943 3835.3218 -197.74527 4294967295
551.38989 3835.0217 -197.73242 4294967295
559.2431 3834.333 -197.78387 4294967295
479.43466 3839.7988 -197.23157 4294967295
481.43774 3839.656 -197.34531 4294967295
489.40704 3839.252 -197.27269 4294967295
495.47379 3838.6907 -197.28578 4294967295
497.71979 3838.5615 -197.31052 4294967295
503.33545 3838.8081 -197.97939 4294967295
505.59909 3838.3508 -197.56503 4294967295
507.14059 3838.1992 -197.17207 4294967295
509.44437 3838.1511 -197.33917 4294967295
515.51563 3837.3108 -197.31891 4294967295
519.2099 3837.1804 -197.32201 4294967295
521.43457 3837.022 -197.24217 4294967295
447.39902 3842.5967 -197.8365 4294967295
449.30539 3842.5022 -197.83005 4294967295
451.69183 3841.7324 -197.24261 4294967295
453.54102 3841.5564 -197.23962 4294967295
455.27264 3841.3857 -197.15407 4294967295
457.26498 3841.3057 -197.29651 4294967295
459.23334 3841.209 -197.27197 4294967295
461.37244 3841.0498 -197.19812 4294967295
463.89371 3841.3816 -197.99799 4294967295
465.37158 3841.1289 -197.70576 4294967295
467.59329 3841.0774 -197.76341 4294967295
469.33524 3840.9324 -197.6277 4294967295
475.74512 3840.4041 -197.76476 4294967295
385.20462 3845.8386 -197.41402 4294967295
387.68222 3845.8108 -197.69806 4294967295
392.18198 3845.6643 -197.7964 4294967295
395.20319 3845.2917 -197.43753 4294967295
398.86826 3845.0222 -197.16879 4294967295
401.37012 3844.9126 -197.27286 4294967295
403.63846 3845.0637 -197.55902 4294967295
407.35199 3844.8035 -197.29976 4294967295
412.18768 3844.3884 -197.11948 4294967295
415.44501 3843.9399 -197.03036 4294967295
418.15024 3843.6577 -197.06358 4294967295
420.94662 3843.4443 -197.35725 4294967295
423.8132 3843.3972 -197.15317 4294967295
425.37396 3843.3911 -197.55458 4294967295
427.66528 3843.2344 -197.20065 4294967295
429.01675 3843.3787 -197.53503 4294967295
431.49738 3843.2412 -197.6385 4294967295
434.80966 3843.3542 -197.75404 4294967295
343.08423 3848.7478 -197.2522 4294967295
345.12253 3848.5325 -197.22324 4294967295
347.17703 3848.9519 -197.86235 4294967295
353.28506 3848.4124 -197.69446 4294967295
355.50635 3847.9526 -197.25813 4294967295
359.33694 3847.5938 -197.27628 4294967295
360.96671 3847.4624 -197.27003 4294967295
364.8559 3847.2537 -197.1853 4294967295
367.10196 3847.3188 -197.52538 4294967295
369.5853 3847.1328 -197.36707 4294967295
373.40347 3847.2014 -197.64586 4294967295
375.28229 3846.9497 -197.45604 4294967295
377.32346 3846.8066 -197.46921 4294967295
379.68509 3846.7981 -197.73619 4294967295
381.37262 3846.7412 -197.853 4294967295
332.07132 3849.5874 -197.39378 4294967295
334.72214 3849.207 -197.08942 4294967295
337.80621 3849.0542 -197.17032 4294967295
619.58728 3805.825 -196.95714 4294967295
623.67847 3805.2031 -196.43774 4294967295
634.22107 3804.9897 -196.83746 4294967295
635.51282 3805.7188 -196.87357 4294967295
581.80908 3809.0583 -196.02724 4294967295
635.62408 3807.0042 -196.62698 4294967295
527.3374 3812.9529 -196.82411 4294967295
541.21472 3812.2478 -196.04466 4294967295
547.87372 3811.8364 -196.93068 4294967295
551.21332 3811.6543 -196.14471 4294967295
553.90216 3811.4529 -196.90829 4294967295
556.05817 3811.3276 -196.52983 4294967295
559.78564 3810.9951 -196.22449 4294967295
563.96552 3810.7048 -196.17961 4294967295
491.48499 3815.6152 -196.06726 4294967295
495.33499 3815.165 -196.35384 4294967295
497.88885 3814.9402 -196.56512 4294967295
499.61053 3814.6094 -196.59589 4294967295
503.36667 3814.3921 -196.66153 4294967295
509.20267 3814.3599 -196.58887 4294967295
511.62582 3814.1538 -196.70059 4294967295
513.55164 3814.1074 -196.28313 4294967295
514.94617 3814.1633 -196.34978 4294967295
519.3299 3813.8413 -196.16058 4294967295
523.27661 3813.4963 -196.83356 4294967295
525.35291 3813.1282 -196.59862 4294967295
529.65826 3813.0203 -196.61742 4294967295
441.49786 3818.9832 -196.13312 4294967295
445.38824 3818.6707 -196.14685 4294967295
447.22653 3818.5247 -196.18512 4294967295
449.52246 3818.3943 -196.08806 4294967295
402.74155 3821.6689 -196.50121 4294967295
405.78101 3821.6636 -196.00502 4294967295
409.4614 3821.3862 -196.08215 4294967295
411.45374 3821.228 -196.17352 4294967295
413.29691 3821.1208 -196.0154 4294967295
417.2485 3820.7834 -196.27406 4294967295
419.51553 3820.6545 -196.29581 4294967295
421.64972 3820.5212 -196.14493 4294967295
423.39789 3820.4277 -196.0544 4294967295
433.63623 3819.7246 -196.12538 4294967295
437.48126 3819.3704 -196.27592 4294967295
359.54404 3824.9675 -196.28941 4294967295
361.38187 3824.8079 -196.07162 4294967295
363.52002 3824.6572 -196.13649 4294967295
365.52747 3824.5413 -196.14221 4294967295
369.59595 3824.2402 -196.37352 4294967295
384.05487 3823.1475 -196.34241 4294967295
387.33597 3822.946 -196.09659 4294967295
389.1196 3822.4812 -196.99234 4294967295
393.66162 3822.4314 -196.47934 4294967295
395.36316 3822.3774 -196.1487 4294967295
399.25717 3822.3267 -196.08173 4294967295
321.2774 3827.5842 -196.00343 4294967295
324.06027 3827.0833 -196.59729 4294967295
327.69324 3826.6399 -196.42578 4294967295
333.39532 3826.5645 -196.16142 4294967295
335.21292 3826.49 -196.19197 4294967295
342.22192 3825.8511 -196.14549 4294967295
348.80106 3825.0259 -196.97913 4294967295
633.42773 3827.7952 -196.72937 4294967295
261.00348 3829.6096 -196.3627 4294967295
264.32217 3828.9736 -196.52272 4294967295
266.94989 3828.717 -196.70956 4294967295
271.67099 3828.9182 -196.75473 4294967295
274.74045 3829.4736 -196.19595 4294967295
277.733 3828.9907 -196.86583 4294967295
281.96878 3829.7725 -196.43289 4294967295
299.5238 3829.6956 -196.72729 4294967295
305.38647 3829.3081 -196.39316 4294967295
613.54358 3830.6362 -196.92644 4294967295
615.47424 3830.4963 -196.78542 4294967295
619.46875 3830.4031 -196.40482 4294967295
561.72156 3833.772 -196.05255 4294967295
564.95563 3833.6792 -196.60786 4294967295
567.40771 3833.9382 -196.02817 4294967295
573.83594 3833.5364 -196.03595 4294967295
517.46417 3836.9055 -196.02847 4294967295
519.4162 3836.8022 -196.04686 4294967295
521.24542 3836.7771 -196.33215 4294967295
523.59094 3836.5789 -196.06146 4294967295
527.1391 3836.0457 -196.18201 4294967295
541.37311 3835.4141 -196.51709 4294967295
543.32397 3835.2507 -196.10278 4294967295
545.23413 3835.1858 -196.2227 4294967295
547.27802 3835.0508 -196.13771 4294967295
551.71637 3834.6982 -196.16748 4294967295
553.00171 3834.6455 -196.57697 4294967295
555.40204 3834.2095 -196.06107 4294967295
557.25562 3834.1641 -196.04727 4294967295
471.79764 3839.9619 -196.08884 4294967295
478.07245 3839.7908 -196.92603 4294967295
479.30756 3839.2166 -196.07912 4294967295
483.24283 3839.228 -196.22777 4294967295
485.30685 3839.0852 -196.22534 4294967295
491.64206 3838.8098 -196.03984 4294967295
493.08588 3838.6221 -196.23769 4294967295
495.48816 3838.374 -196.14854 4294967295
503.32388 3837.7969 -196.09927 4294967295
505.76242 3837.739 -196.0459 4294967295
507.28152 3837.6553 -196.00182 4294967295
509.7272 3837.5381 -196.02254 4294967295
425.17062 3842.9519 -196.02351 4294967295
430.86615 3842.728 -196.19496 4294967295
433.32898 3842.5725 -196.03589 4294967295
435.14157 3842.2773 -196.00394 4294967295
457.08237 3840.907 -196.11955 4294967295
459.37146 3840.782 -196.17744 4294967295
467.64072 3840.2969 -196.08583 4294967295
381.7644 3845.7617 -196.11188 4294967295
387.59314 3845.2271 -196.11928 4294967295
391.3707 3845.1294 -196.07622 4294967295
393.77274 3845.043 -196.22829 4294967295
401.36304 3844.4695 -196.01672 4294967295
419.62601 3843.2292 -196.09152 4294967295
421.23279 3843.1541 -196.10451 4294967295
423.65338 3843.0601 -196.21664 4294967295
335.06598 3848.8994 -196.14656 4294967295
339.28482 3848.5747 -196.33946 4294967295
341.05887 3848.5156 -196.32002 4294967295
350.70087 3848.2703 -196.89337 4294967295
357.52914 3847.3853 -196.10875 4294967295
361.46472 3847.1436 -196.19975 4294967295
365.92828 3846.8931 -196.2269 4294967295
367.07227 3846.7756 -196.04587 4294967295
369.41489 3846.634 -196.03502 4294967295
375.44785 3846.3264 -196.05257 4294967295
328.93744 3849.7231 -196.93358 4294967295
333.3074 3849.0361 -196.08852 4294967295
625.90179 3805.1208 -195.61409 4294967295
633.37616 3805.7935 -195.19386 4294967295
575.42212 3809.792 -195.86816 4294967295
579.09155 3809.3435 -195.42747 4294967295
583.17249 3808.929 -195.30272 4294967295
585.46503 3808.7207 -195.62415 4294967295
533.17615 3812.7434 -195.62718 4294967295
537.19659 3812.3989 -195.77271 4294967295
549.6488 3811.6724 -195.96622 4294967295
557.1651 3811.2356 -195.60548 4294967295
561.20685 3810.7917 -195.78351 4294967295
567.19745 3810.446 -195.30069 4294967295
569.57977 3810.1707 -195.89848 4294967295
571.32935 3810.21 -195.79305 4294967295
573.29749 3810.0288 -195.70268 4294967295
487.29855 3815.9133 -195.78795 4294967295
489.46536 3815.842 -195.96336 4294967295
493.11346 3815.5107 -195.8721 4294967295
451.37683 3818.3196 -195.91573 4294967295
463.21579 3817.7134 -195.63728 4294967295
467.2897 3817.2012 -195.99913 4294967295
481.2435 3816.4263 -195.86813 4294967295
483.16626 3816.1743 -195.80963 4294967295
403.16974 3821.8704 -195.91917 4294967295
427.45682 3820.3523 -195.9173 4294967295
367.79462 3824.4402 -195.94318 4294967295
371.63419 3824.1846 -195.99553 4294967295
375.35919 3823.979 -195.97639 4294967295
377.54849 3823.8018 -195.89822 4294967295
379.34995 3823.8506 -195.89487 4294967295
390.94922 3822.6965 -195.9718 4294967295
634.30084 3824.103 -195.80037 4294967295
329.60843 3826.5212 -195.97545 4294967295
339.33923 3826.1809 -195.91418 4294967295
345.39368 3825.6514 -195.89043 4294967295
355.38193 3825.1958 -195.95578 4294967295
631.52795 3827.3484 -195.09041 4294967295
263.46796 3830.0493 -195.21225 4294967295
268.81042 3829.7375 -195.48393 4294967295
272.57532 3830.0637 -195.38004 4294967295
276.85419 3830.0632 -195.14502 4294967295
278.93097 3829.8538 -195.61568 4294967295
280.66559 3830.0635 -195.13701 4294967295
284.86258 3830.1147 -195.16681 4294967295
303.02856 3829.2896 -195.82767 4294967295
306.98718 3829.0735 -195.66219 4294967295
622.0722 3830.5818 -195.79939 4294967295
624.46942 3830.3081 -195.17474 4294967295
626.49048 3830.26 -195.76442 4294967295
559.22937 3833.9736 -195.93471 4294967295
575.14606 3833.0884 -195.96527 4294967295
577.3324 3832.4446 -195.84547 4294967295
580.82172 3831.9907 -195.79282 4294967295
583.45142 3831.9214 -195.84015 4294967295
585.28815 3831.8618 -195.85529 4294967295
587.0766 3831.7947 -195.66116 4294967295
589.33173 3831.7493 -195.33046 4294967295
549.26947 3834.6941 -195.77988 4294967295
569.72766 3834.189 -195.99783 4294967295
475.69012 3839.7202 -195.8701 4294967295
500.98392 3838.0696 -195.94287 4294967295
513.26599 3837.259 -195.87009 4294967295
428.95389 3842.76 -195.96581 4294967295
445.35657 3841.6687 -195.95441 4294967295
449.2363 3841.5698 -195.93408 4294967295
451.48544 3841.3511 -195.99771 4294967295
463.52521 3840.4233 -195.71271 4294967295
383.19278 3845.4807 -195.05482 4294967295
396.45004 3844.7214 -195.58218 4294967295
399.83197 3844.5398 -195.86993 4294967295
408.88995 3843.9988 -195.43584 4294967295
337.70276 3848.6509 -195.99574 4294967295
343.14252 3848.3313 -195.9299 4294967295
347.14865 3848.2136 -195.84456 4294967295
349.42188 3848.073 -195.74599 4294967295
352.95181 3847.8113 -195.76456 4294967295
354.63324 3847.6733 -195.90805 4294967295
363.79288 3846.9375 -195.95729 4294967295
372.00128 3846.4744 -195.86295 4294967295
377.25827 3846.1135 -195.93393 4294967295
611.61523 3806.4436 -194.89264 4294967295
615.43573 3806.2141 -194.96126 4294967295
617.37378 3806.0427 -194.3714 4294967295
619.85718 3805.7034 -194.13609 4294967295
628.03961 3805.2229 -194.23685 4294967295
631.85559 3805.7642 -194.36768 4294967295
633.35724 3806.3098 -194.96629 4294967295
597.51654 3807.7131 -194.76215 4294967295
497.74042 3815.1169 -194.3152 4294967295
507.77936 3814.625 -194.49371 4294967295
511.97235 3814.3447 -194.06331 4294967295
453.55084 3818.5371 -194.94855 4294967295
415.2619 3821.3967 -194.06161 4294967295
423.82068 3820.6943 -194.15022 4294967295
433.64987 3820.1604 -194.01062 4294967295
439.50797 3819.4956 -194.08458 4294967295
441.32367 3819.3477 -194.06734 4294967295
443.44623 3819.1802 -194.09796 4294967295
372.13486 3824.5649 -194.31238 4294967295
373.47852 3824.4238 -194.11407 4294967295
375.3945 3824.2529 -194.02263 4294967295
386.45523 3823.4189 -194.98332 4294967295
387.72305 3823.3721 -194.18454 4294967295
391.66418 3822.936 -194.13574 4294967295
395.63284 3822.6963 -194.14784 4294967295
406.94208 3822.0459 -194.1396 4294967295
631.68463 3824.05 -194.0121 4294967295
339.55847 3826.4934 -194.29515 4294967295
345.82346 3825.9697 -194.58904 4294967295
355.97699 3825.4143 -194.31537 4294967295
361.94153 3825.1577 -194.03058 4294967295
632.08331 3826.1943 -194.66226 4294967295
265.53973 3830.3662 -194.2395 4294967295
270.72757 3830.1865 -194.97034 4294967295
271.70969 3830.6301 -194.05016 4294967295
273.80246 3830.4521 -194.46362 4294967295
275.31445 3830.2737 -194.88966 4294967295
282.61163 3830.1494 -194.99023 4294967295
613.65515 3830.8982 -194.73593 4294967295
615.62354 3830.8982 -194.1734 4294967295
617.54657 3830.863 -194.12015 4294967295
629.72205 3828.0906 -194.3194 4294967295
519.83044 3836.4675 -194.17468 4294967295
523.50702 3836.3301 -194.29887 4294967295
529.59314 3836.0508 -194.15608 4294967295
467.52454 3839.9153 -194.24661 4294967295
469.25339 3839.8301 -194.1916 4294967295
471.42184 3839.6851 -194.09001 4294967295
481.56989 3838.9656 -194.17854 4294967295
483.3656 3839.1736 -194.05316 4294967295
487.29477 3839.1819 -194.69589 4294967295
495.6496 3838.2932 -194.76089 4294967295
501.1152 3837.7712 -194.06654 4294967295
503.53613 3837.6868 -194.14197 4294967295
423.18002 3842.8999 -194.59772 4294967295
425.34232 3842.5903 -194.16719 4294967295
427.88284 3842.4512 -194.68575 4294967295
429.23938 3842.5815 -194.69632 4294967295
431.00058 3842.4624 -194.21642 4294967295
433.48935 3842.1135 -194.16792 4294967295
446.93741 3841.3357 -194.20679 4294967295
449.30588 3841.3442 -194.12367 4294967295
455.63693 3840.9426 -194.88185 4294967295
457.05817 3840.7769 -194.03242 4294967295
459.05417 3840.49 -194.03941 4294967295
461.33621 3840.2791 -194.73662 4294967295
465.5459 3840.0212 -194.49225 4294967295
375.59055 3845.8557 -194.29897 4294967295
377.36377 3845.7205 -194.29626 4294967295
379.4726 3845.5342 -194.83319 4294967295
387.11597 3845.218 -194.5929 4294967295
389.565 3845.1438 -194.85312 4294967295
391.4769 3844.9812 -194.35782 4294967295
392.85406 3844.8796 -194.53188 4294967295
394.99713 3844.6792 -194.12317 4294967295
396.67929 3844.5798 -194.27986 4294967295
400.2811 3844.1326 -194.49045 4294967295
401.37912 3844.0811 -194.17606 4294967295
403.70529 3843.9421 -194.29221 4294967295
407.16412 3843.7834 -194.8334 4294967295
411.62549 3843.4724 -194.56017 4294967295
412.93857 3843.3657 -194.867 4294967295
415.25882 3843.198 -194.03247 4294967295
417.44305 3843.2256 -194.79764 4294967295
421.19547 3843.0042 -194.70392 4294967295
335.93283 3848.4788 -194.48097 4294967295
340.66174 3848.3091 -194.00854 4294967295
353.26727 3847.4656 -194.24577 4294967295
357.35815 3847.1716 -194.00421 4294967295
361.52609 3846.9807 -194.65182 4294967295
369.41788 3846.3901 -194.10802 4294967295
622.164 3805.4558 -193.98807 4294967295
623.92554 3805.3679 -193.90634 4294967295
631.12067 3805.8596 -193.47319 4294967295
577.59277 3809.5657 -193.00352 4294967295
580.72235 3809.21 -193.19348 4294967295
583.52203 3808.9202 -193.07318 4294967295
588.0882 3808.5376 -193.65779 4294967295
593.52606 3808.2305 -193.00575 4294967295
551.76727 3811.6157 -193.79201 4294967295
493.10266 3815.7639 -193.58012 4294967295
494.98962 3815.4619 -193.40271 4294967295
499.75433 3814.8931 -193.59383 4294967295
503.86136 3814.6646 -193.47073 4294967295
508.82364 3814.5491 -193.79121 4294967295
515.56104 3813.9912 -193.55606 4294967295
519.4231 3813.7197 -193.32556 4294967295
523.51111 3813.3652 -193.49585 4294967295
447.32852 3818.906 -193.7868 4294967295
481.46167 3816.5469 -193.80235 4294967295
485.47281 3816.3606 -193.44646 4294967295
487.34738 3816.2678 -193.65887 4294967295
489.43323 3816.0347 -193.58682 4294967295
411.38068 3821.5786 -193.9691 4294967295
413.51633 3821.5427 -193.93916 4294967295
417.38025 3821.1292 -193.85881 4294967295
421.67447 3820.8662 -193.84978 4294967295
445.58121 3819.0542 -193.9221 4294967295
365.66507 3824.8127 -193.99252 4294967295
367.39749 3824.7908 -193.82332 4294967295
369.42239 3824.5732 -193.80844 4294967295
389.5166 3823.2129 -193.80675 4294967295
393.25116 3822.8879 -193.52406 4294967295
397.60287 3822.5725 -193.86067 4294967295
401.19006 3822.4988 -193.76289 4294967295
327.41635 3826.9661 -193.31564 4294967295
331.37442 3826.8481 -193.939 4294967295
341.57971 3826.2603 -193.7151 4294967295
343.36829 3826.1184 -193.71941 4294967295
357.27356 3825.3413 -193.3687 4294967295
359.2626 3825.2947 -193.6442 4294967295
363.45023 3825.0383 -193.84122 4294967295
629.79419 3826.0525 -193.25041 4294967295
275.54758 3830.6082 -193.54062 4294967295
278.38614 3830.4517 -193.43762 4294967295
301.71378 3829.3464 -193.97675 4294967295
303.28683 3829.2639 -193.22008 4294967295
305.1329 3829.115 -193.46796 4294967295
307.57791 3828.968 -193.54695 4294967295
620.05731 3830.926 -193.22649 4294967295
622.38531 3830.5232 -193.16006 4294967295
624.35773 3830.2673 -193.76442 4294967295
628.6543 3828.6001 -193.94202 4294967295
561.60236 3833.8562 -193.45988 4294967295
563.32477 3833.8081 -193.52011 4294967295
580.80475 3832.3411 -193.12688 4294967295
584.92157 3832.239 -193.08833 4294967295
587.14984 3832.106 -193.01485 4294967295
515.56195 3836.6904 -193.95065 4294967295
517.52545 3836.554 -193.82784 4294967295
521.49207 3836.4897 -193.679 4294967295
525.48651 3836.2771 -193.71942 4294967295
527.40948 3836.1094 -193.95824 4294967295
539.39307 3835.3538 -193.85802 4294967295
541.35468 3835.3276 -193.34232 4294967295
543.5022 3835.1531 -193.70514 4294967295
545.33069 3835.093 -193.65636 4294967295
549.47797 3834.8906 -193.36465 4294967295
551.37451 3834.7341 -193.49481 4294967295
553.12805 3834.5444 -193.91359 4294967295
557.39551 3834.144 -193.63573 4294967295
559.06726 3834.0054 -193.62247 4294967295
475.18579 3839.4248 -193.77396 4294967295
479.24338 3839.0408 -193.9673 4294967295
485.32269 3839.2195 -193.88655 4294967295
505.72479 3837.6257 -193.94153 4294967295
509.38007 3837.5146 -193.68843 4294967295
511.50955 3837.0991 -193.99936 4294967295
513.39307 3837.0417 -193.76314 4294967295
419.12463 3842.9595 -193.9147 4294967295
453.11069 3840.9226 -193.91574 4294967295
464.05136 3840.2874 -193.8829 4294967295
331.31723 3848.9065 -193.94298 4294967295
333.37622 3848.7034 -193.90282 4294967295
336.9187 3848.4429 -193.92278 4294967295
339.06573 3848.2771 -193.86232 4294967295
343.25885 3848.0537 -193.86407 4294967295
345.25192 3847.9788 -193.94527 4294967295
349.5459 3847.8557 -193.97896 4294967295
350.81409 3847.759 -193.86377 4294967295
354.83798 3847.5405 -193.73723 4294967295
364.49316 3846.7271 -193.0341 4294967295
367.49432 3846.5017 -193.96127 4294967295
371.87195 3846.0962 -193.95787 4294967295
302.88251 3851.4587 -193.40996 4294967295
611.75452 3806.4321 -192.6702 4294967295
613.41064 3806.3096 -192.74649 4294967295
615.65509 3806.0872 -192.394 4294967295
624.19867 3805.7039 -192.0444 4294967295
629.78882 3806.04 -192.70653 4294967295
585.22321 3808.7651 -192.63216 4294967295
595.23511 3808.0652 -192.06927 4294967295
606.00092 3807.1035 -192.19049 4294967295
569.39606 3810.1953 -192.87459 4294967295
505.30121 3814.6284 -192.92168 4294967295
405.92599 3821.9875 -192.15149 4294967295
268.65012 3830.915 -192.70216 4294967295
272.46277 3830.9827 -192.32304 4294967295
281.01117 3830.4597 -192.74394 4294967295
283.2233 3830.4229 -192.70795 4294967295
573.32251 3833.6255 -192.73511 4294967295
609.65863 3831.4407 -192.41164 4294967295
611.61371 3831.3909 -192.20308 4294967295
613.9538 3831.2781 -192.12988 4294967295
423.73007 3842.936 -192.13136 4294967295
392.10675 3845.0701 -192.07349 4294967295
350.03073 3848.1499 -192.19223 4294967295
610.56934 3806.731 -191.04955 4294967295
617.59924 3805.8689 -191.68756 4294967295
619.59058 3805.9148 -191.5498 4294967295
621.79291 3805.8149 -191.49889 4294967295
627.08197 3806.0115 -191.92337 4294967295
585.36249 3808.8311 -191.14352 4294967295
593.495 3808.2046 -191.13724 4294967295
597.23065 3807.8999 -191.98131 4294967295
628.37506 3808.6206 -191.06931 4294967295
629.2099 3807.8979 -191.72258 4294967295
629.70801 3810.407 -191.6169 4294967295
515.82867 3813.9165 -191.22305 4294967295
411.7233 3821.4839 -191.51379 4294967295
437.95074 3819.646 -191.98576 4294967295
443.7363 3819.1758 -191.37357 4294967295
363.95724 3824.8564 -191.33917 4294967295
367.16779 3824.6025 -191.08325 4294967295
373.16513 3824.3149 -191.02835 4294967295
375.68808 3824.0852 -191.26392 4294967295
389.87222 3823.052 -191.37401 4294967295
393.51465 3822.7534 -191.19063 4294967295
397.78928 3822.522 -191.18814 4294967295
399.45334 3822.4065 -191.29474 4294967295
401.552 3822.2332 -191.10226 4294967295
627.75262 3823.3662 -191.65254 4294967295
341.61963 3826.114 -191.66371 4294967295
343.50339 3825.8699 -191.09033 4294967295
347.47775 3825.5999 -191.59091 4294967295
358.09503 3825.2173 -191.64474 4294967295
627.9126 3825.9307 -191.78336 4294967295
305.51843 3828.9727 -191.06339 4294967295
310.27802 3828.7026 -191.50745 4294967295
617.59161 3830.9707 -191.7659 4294967295
622.09167 3830.4197 -191.84294 4294967295
625.56458 3829.0364 -191.93375 4294967295
583.14697 3832.634 -191.04213 4294967295
615.68231 3831.1846 -191.87625 4294967295
517.36945 3836.9148 -191.06468 4294967295
519.8205 3836.9307 -191.03227 4294967295
523.26483 3836.8174 -191.21034 4294967295
525.36548 3836.8428 -191.18277 4294967295
541.52539 3835.5916 -191.09999 4294967295
544.94745 3835.4988 -191.23885 4294967295
547.54584 3835.3962 -191.21552 4294967295
561.65912 3834.3469 -191.07372 4294967295
473.23212 3839.9067 -191.33414 4294967295
475.69415 3839.7336 -191.57785 4294967295
479.19708 3839.4255 -191.8752 4294967295
481.15909 3839.4487 -191.54158 4294967295
483.41891 3839.511 -191.3455 4294967295
484.96213 3839.5256 -191.51567 4294967295
487.30148 3839.531 -191.92818 4294967295
515.26483 3837.0632 -191.2368 4294967295
425.33295 3842.9512 -191.44461 4294967295
427.87418 3842.884 -191.30348 4294967295
431.3324 3842.6882 -191.05954 4294967295
433.33188 3842.4663 -191.54553 4294967295
435.02094 3842.3003 -191.78319 4294967295
437.27347 3842.0979 -191.63434 4294967295
451.41119 3841.5566 -191.01753 4294967295
453.89188 3841.3311 -191.39432 4294967295
461.36618 3840.7744 -191.31952 4294967295
465.17175 3840.5378 -191.41008 4294967295
471.68103 3840.2036 -191.09183 4294967295
387.3168 3845.4116 -191.71248 4294967295
389.64532 3845.3418 -191.4389 4294967295
393.33481 3845.0784 -191.48422 4294967295
397.14285 3844.6902 -191.87369 4294967295
398.61188 3844.6284 -191.44496 4294967295
401.37717 3844.4158 -191.42384 4294967295
417.95331 3843.3879 -191.69728 4294967295
421.11414 3843.1719 -191.17336 4294967295
337.56473 3848.7102 -191.83333 4294967295
340.59497 3848.7102 -191.05566 4294967295
350.87796 3848.312 -191.02838 4294967295
353.11252 3848.0769 -191.2336 4294967295
354.97787 3847.8606 -191.31812 4294967295
357.43686 3847.561 -191.60313 4294967295
359.45285 3847.4294 -191.18593 4294967295
363.74973 3846.9771 -191.52791 4294967295
365.12823 3846.8296 -191.84964 4294967295
367.61438 3846.7202 -191.43134 4294967295
369.56973 3846.6191 -191.18932 4294967295
371.89444 3846.4495 -191.38899 4294967295
373.25879 3846.3472 -191.55054 4294967295
375.51218 3846.2502 -191.36188 4294967295
376.8569 3846.1497 -191.3532 4294967295
303.72336 3851.6445 -191.18954 4294967295
612.61511 3806.6721 -190.63538 4294967295
615.67487 3806.697 -190.03404 4294967295
624.95905 3806.5535 -190.30688 4294967295
581.10028 3809.2605 -190.48795 4294967295
583.80133 3808.9832 -190.83937 4294967295
587.76849 3808.6487 -190.7934 4294967295
598.16528 3807.9104 -190.64381 4294967295
599.88373 3807.8225 -190.27792 4294967295
602.58087 3807.572 -190.7639 4294967295
608.49976 3807.1362 -190.00139 4294967295
627.47009 3807.866 -190.51126 4294967295
549.66095 3811.6025 -190.60474 4294967295
553.62781 3811.3906 -190.92322 4294967295
555.24518 3811.2737 -190.69308 4294967295
557.30194 3811.1028 -190.72479 4294967295
627.81024 3810.8589 -190.2403 4294967295
369.49213 3824.4358 -190.85178 4294967295
371.66693 3824.3252 -190.76541 4294967295
395.3006 3822.6563 -190.78857 4294967295
403.28458 3822.0654 -190.7449 4294967295
337.23004 3826.5806 -190.89162 4294967295
354.79633 3825.2444 -190.16977 4294967295
303.47626 3829.123 -190.82581 4294967295
307.26944 3828.8416 -190.80397 4294967295
621.66675 3830.1663 -190.67636 4294967295
623.64923 3829.4858 -190.67278 4294967295
575.51349 3833.4849 -190.81567 4294967295
579.69611 3832.74 -190.88222 4294967295
584.87354 3832.6116 -190.86708 4294967295
587.30365 3832.4858 -190.94786 4294967295
589.61853 3832.4531 -190.76263 4294967295
605.39496 3831.9663 -190.01328 4294967295
537.39697 3835.8821 -190.97331 4294967295
539.36908 3835.823 -190.98587 4294967295
543.30579 3835.5178 -190.97911 4294967295
549.37842 3835.3152 -190.97913 4294967295
553.02307 3835.0635 -190.90981 4294967295
559.06409 3834.5798 -190.8951 4294967295
476.61743 3839.8711 -190.3877 4294967295
463.8139 3840.7268 -190.86375 4294967295
467.8093 3840.4788 -190.80981 4294967295
469.25595 3840.4697 -190.82851 4294967295
394.74677 3845.0259 -190.74927 4294967295
618.18011 3806.1812 -189.90739 4294967295
619.76056 3806.2922 -189.72858 4294967295
621.8291 3806.3191 -189.7529 4294967295
596.37115 3808.1804 -189.06277 4294967295
611.09521 3807.1484 -189.02266 4294967295
623.25171 3807.0061 -189.26503 4294967295
625.7619 3808.7544 -189.25819 4294967295
625.59589 3811.1248 -189.15375 4294967295
515.43927 3813.9302 -189.21526 4294967295
403.65378 3821.9626 -189.13136 4294967295
399.51636 3822.3308 -189.09926 4294967295
623.6673 3823.7773 -189.08447 4294967295
341.2338 3826.1858 -189.00821 4294967295
623.83881 3826.8296 -189.46648 4294967295
617.52075 3830.7236 -189.90729 4294967295
621.4353 3829.2007 -189.26266 4294967295
623.80518 3828.1345 -189.88745 4294967295
609.63959 3831.7244 -189.77707 4294967295
611.77838 3831.1648 -189.97328 4294967295
613.88733 3831.2212 -189.77179 4294967295
615.48828 3831.0095 -189.6794 4294967295
531.96979 3836.8657 -189.09547 4294967295
479.85635 3839.8059 -189.56987 4294967295
463.71783 3841.094 -189.01895 4294967295
487.43616 3840.1477 -189.04538 4294967295
617.99927 3806.7473 -188.78209 4294967295
581.51819 3809.2285 -188.64613 4294967295
585.10864 3808.8965 -188.82666 4294967295
593.07196 3808.3149 -188.80383 4294967295
598.69214 3808.113 -188.59918 4294967295
601.01447 3808.1218 -188.06339 4294967295
603.26074 3807.9885 -188.0636 4294967295
605.54834 3807.6836 -188.84219 4294967295
609.62549 3807.5757 -188.09653 4294967295
613.43329 3807.1934 -188.74654 4294967295
615.02728 3807.6846 -188.00653 4294967295
619.62714 3807.356 -188.13983 4294967295
621.60846 3807.5125 -188.03854 4294967295
623.55212 3808.7078 -188.35431 4294967295
553.11536 3811.3989 -188.50296 4294967295
561.54901 3810.678 -188.92455 4294967295
521.12946 3813.6108 -188.66733 4294967295
441.34836 3819.2561 -188.96417 4294967295
363.77609 3824.7578 -188.55376 4294967295
373.17682 3824.1726 -188.64684 4294967295
395.43604 3822.6111 -188.75804 4294967295
397.64746 3822.4727 -188.92953 4294967295
621.39215 3822.9131 -188.04391 4294967295
332.57047 3826.9512 -188.66893 4294967295
343.55591 3825.8904 -188.96243 4294967295
621.58008 3826.7661 -188.23897 4294967295
301.45428 3829.0928 -188.5984 4294967295
303.63977 3828.9485 -188.64243 4294967295
305.84387 3828.8701 -188.54163 4294967295
309.06958 3828.6663 -188.58789 4294967295
613.93011 3830.502 -188.61787 4294967295
616.30273 3829.99 -188.51424 4294967295
619.54138 3829.5693 -188.52129 4294967295
621.50574 3828.1321 -188.62234 4294967295
573.59283 3833.967 -188.6236 4294967295
575.32617 3833.6995 -188.59381 4294967295
577.45142 3833.3904 -188.65804 4294967295
583.12842 3833.0437 -188.6846 4294967295
585.18237 3832.948 -188.78598 4294967295
587.31018 3832.8782 -188.63417 4294967295
589.56213 3832.8574 -188.27647 4294967295
591.50861 3832.781 -188.12047 4294967295
593.64374 3832.6157 -188.43594 4294967295
597.51904 3832.5984 -188.03371 4294967295
609.96814 3831.2241 -188.17569 4294967295
537.22742 3836.3538 -188.78621 4294967295
539.6814 3836.2 -188.83284 4294967295
540.99438 3836.0769 -188.75595 4294967295
544.97681 3835.9316 -188.55968 4294967295
559.53625 3835.1208 -188.63487 4294967295
561.60193 3835.0188 -188.67056 4294967295
563.54083 3834.7974 -188.86722 4294967295
515.55127 3837.4971 -188.85091 4294967295
519.65912 3837.3931 -188.93262 4294967295
523.5097 3837.3171 -188.88684 4294967295
435.5477 3842.7256 -188.99338 4294967295
465.45752 3840.9819 -188.93491 4294967295
468.07806 3840.8213 -188.94365 4294967295
471.20868 3840.5955 -188.8307 4294967295
473.11411 3840.4792 -188.84383 4294967295
475.48541 3840.272 -188.93411 4294967295
477.60864 3840.0701 -188.80649 4294967295
481.52036 3840.0354 -188.8997 4294967295
483.61438 3840.0596 -188.99451 4294967295
485.53976 3840.2229 -188.5555 4294967295
390.85745 3845.8203 -188.02408 4294967295
396.94366 3845.3169 -188.55461 4294967295
400.25061 3845.0798 -188.58987 4294967295
355.57993 3848.2571 -188.65182 4294967295
357.34744 3848.0786 -188.97568 4294967295
359.53296 3847.887 -188.72592 4294967295
361.52911 3847.6687 -188.76132 4294967295
367.38663 3847.1924 -188.86653 4294967295
371.75644 3846.8564 -188.80159 4294967295
301.60745 3852.2161 -188.54509 4294967295
589.28015 3808.5449 -187.09959 4294967295
607.96661 3807.9724 -187.57858 4294967295
610.97784 3807.8728 -187.54425 4294967295
612.49463 3807.8218 -187.66261 4294967295
613.86206 3807.8242 -187.63312 4294967295
614.56207 3808.1677 -187.29732 4294967295
615.47089 3808.6934 -187.04465 4294967295
617.10803 3808.0613 -187.85715 4294967295
618.93439 3809.8074 -187.09489 4294967295
621.41302 3811.0796 -187.45648 4294967295
623.66364 3811.7156 -187.88496 4294967295
516.61041 3813.9045 -187.96135 4294967295
480.22528 3816.5811 -187.11545 4294967295
619.6488 3820.8848 -187.06239 4294967295
393.94989 3822.6226 -187.17422 4294967295
619.75531 3823.0647 -187.24982 4294967295
345.41876 3825.7664 -187.08023 4294967295
619.60095 3825.6421 -187.49205 4294967295
301.44724 3829.1868 -187.00169 4294967295
616.67316 3828.7266 -187.42139 4294967295
595.63025 3832.6628 -187.84781 4294967295
599.22827 3832.5762 -187.81061 4294967295
601.5473 3832.4932 -187.71266 4294967295
603.68817 3832.3794 -187.6411 4294967295
605.66425 3832.2388 -187.38492 4294967295
607.6651 3831.8911 -187.69151 4294967295
481.0051 3840.373 -187.00682 4294967295
579.81915 3809.3459 -186.7798 4294967295
581.31573 3809.1746 -186.1394 4294967295
583.51318 3809.0403 -186.73441 4294967295
585.37646 3808.863 -186.14861 4294967295
591.78503 3808.3018 -186.54483 4294967295
593.27881 3808.4719 -186.54478 4294967295
594.79913 3808.5098 -186.69901 4294967295
596.28503 3808.4883 -186.81407 4294967295
597.64813 3808.5613 -186.76068 4294967295
599.3913 3808.5137 -186.76369 4294967295
602.59998 3808.8293 -186.00647 4294967295
604.49115 3808.4758 -186.59367 4294967295
606.26721 3808.5715 -186.47398 4294967295
609.96259 3808.7095 -186.58463 4294967295
612.00793 3808.9409 -186.62392 4294967295
613.87378 3808.8027 -186.84894 4294967295
616.79205 3809.6035 -186.7175 4294967295
553.88318 3811.2913 -186.6237 4294967295
557.70483 3811.0479 -186.75243 4294967295
559.18182 3810.9089 -186.35522 4294967295
561.55859 3810.6882 -186.87753 4294967295
563.22229 3810.4844 -186.64954 4294967295
565.25616 3810.2402 -186.47043 4294967295
615.29089 3810.0693 -186.27802 4294967295
616.87646 3811.2275 -186.1494 4294967295
519.55615 3813.6882 -186.92119 4294967295
618.45343 3813.9182 -186.29756 4294967295
477.08542 3816.8391 -186.61327 4294967295
482.86514 3816.2859 -186.33768 4294967295
618.51245 3817.9756 -186.33693 4294967295
619.5069 3817.6011 -186.82793 4294967295
401.57321 3821.9463 -186.90033 4294967295
403.6459 3821.6821 -186.28233 4294967295
405.64334 3821.6191 -186.85324 4294967295
409.77963 3821.3684 -186.80711 4294967295
421.75784 3820.488 -186.0824 4294967295
618.40771 3819.9243 -186.37088 4294967295
359.01767 3824.9731 -186.37907 4294967295
369.38293 3824.3877 -186.49983 4294967295
373.2825 3824.0925 -186.36801 4294967295
375.49554 3823.8582 -186.34134 4294967295
385.36304 3822.8928 -186.01299 4294967295
399.32553 3822.188 -186.73795 4294967295
617.17041 3824.5869 -186.12686 4294967295
618.23029 3822.5605 -186.4294 4294967295
325.12378 3827.3328 -186.73294 4294967295
327.63318 3827.2126 -186.54201 4294967295
330.90503 3827.1711 -186.20424 4294967295
333.36478 3827.0388 -186.3763 4294967295
335.11591 3826.9285 -186.16455 4294967295
343.43958 3825.8853 -186.45854 4294967295
615.37268 3827.5181 -186.20799 4294967295
617.41455 3827.0444 -186.89218 4294967295
303.39297 3829.0664 -186.1053 4294967295
305.70898 3828.873 -186.32625 4294967295
307.30191 3828.8367 -186.97052 4294967295
309.43146 3828.6709 -186.91275 4294967295
311.36386 3828.4973 -186.32309 4294967295
314.81958 3828.283 -186.25298 4294967295
609.18823 3830.9133 -186.70372 4294967295
611.57959 3830.1367 -186.96651 4294967295
614.33911 3829.168 -186.9791 4294967295
579.87622 3833.8428 -186.07442 4294967295
535.51801 3836.8738 -186.63213 4294967295
537.5744 3836.7178 -186.27278 4294967295
539.65222 3836.5645 -186.12186 4294967295
541.4585 3836.4482 -186.16739 4294967295
543.59625 3836.3533 -186.1622 4294967295
561.62372 3835.6348 -186.45686 4294967295
563.4256 3835.5393 -186.35614 4294967295
573.28375 3834.5322 -186.04245 4294967295
495.51929 3839.7644 -186.34302 4294967295
499.03345 3839.324 -186.3643 4294967295
501.71738 3839.1387 -186.61591 4294967295
509.32968 3838.4382 -186.0107 4294967295
512.70984 3838.0557 -186.18834 4294967295
517.40875 3837.7896 -186.70609 4294967295
521.38239 3837.7356 -186.50792 4294967295
527.23718 3837.5474 -186.34203 4294967295
529.39539 3837.4351 -186.33138 4294967295
531.81976 3837.2378 -186.3938 4294967295
439.22955 3842.9302 -186.08316 4294967295
451.21597 3842.2705 -186.20793 4294967295
463.33063 3841.5801 -186.28334 4294967295
465.02399 3841.5044 -186.2908 4294967295
468.92722 3841.3142 -186.30624 4294967295
471.28647 3841.1123 -186.32755 4294967295
473.57013 3840.9204 -186.41727 4294967295
475.33707 3840.8513 -186.07677 4294967295
476.83038 3840.7158 -186.18546 4294967295
479.88199 3840.5596 -186.1823 4294967295
483.77167 3840.5154 -186.21677 4294967295
491.53613 3840.3242 -186.47391 4294967295
493.3161 3840.1643 -186.09103 4294967295
394.84836 3845.7751 -186.43907 4294967295
405.63248 3845.1211 -186.03619 4294967295
425.52136 3843.9448 -186.00868 4294967295
431.46463 3843.4736 -186.3259 4294967295
433.79047 3843.2961 -186.29323 4294967295
436.77759 3843.0771 -186.13115 4294967295
357.68732 3848.4604 -186.00798 4294967295
359.35101 3848.2549 -186.26463 4294967295
361.76733 3847.9976 -186.45947 4294967295
363.71793 3847.8894 -186.16364 4294967295
367.24759 3847.5503 -186.45668 4294967295
373.2626 3847.2207 -186.19682 4294967295
375.76788 3847.0432 -186.21364 4294967295
382.76035 3846.5852 -186.2606 4294967295
385.30325 3846.4993 -186.00221 4294967295
387.49908 3846.2925 -186.40904 4294967295
301.51263 3852.4919 -186.03014 4294967295
304.09192 3852.2627 -186.26784 4294967295
600.68054 3808.8098 -185.94211 4294967295
604.16797 3809.5847 -185.07172 4294967295
605.29767 3809.4124 -185.32236 4294967295
606.47284 3809.7146 -185.09303 4294967295
608.13007 3809.3259 -185.68736 4294967295
609.79022 3810.197 -185.3118 4294967295
611.47089 3810.6118 -185.45836 4294967295
612.75671 3811.6841 -185.19154 4294967295
613.49249 3810.5857 -185.83904 4294967295
614.18115 3812.9268 -185.09425 4294967295
615.17328 3811.5227 -185.69987 4294967295
616.22754 3812.7434 -185.64551 4294967295
495.8317 3815.3555 -185.17033 4294967295
514.63043 3814.2532 -185.51653 4294967295
616.39203 3814.6313 -185.45499 4294967295
617.43127 3817.6787 -185.79727 4294967295
427.06952 3820.1882 -185.84213 4294967295
617.08722 3820.7178 -185.69743 4294967295
615.72205 3824.0105 -185.23694 4294967295
616.10358 3822.2144 -185.24684 4294967295
613.24939 3827.7163 -185.27106 4294967295
614.2843 3826.2004 -185.05685 4294967295
615.80786 3825.7092 -185.68825 4294967295
612.64093 3829.0083 -185.97067 4294967295
577.49066 3833.9751 -185.76543 4294967295
581.54346 3833.7754 -185.64742 4294967295
583.47632 3833.4722 -185.69058 4294967295
585.51099 3833.5403 -185.70399 4294967295
587.69 3833.407 -185.04095 4294967295
589.8656 3833.1006 -185.68173 4294967295
591.43268 3832.9849 -185.69531 4294967295
593.47089 3832.7542 -185.05472 4294967295
595.55365 3832.5813 -185.00264 4294967295
597.46442 3832.5046 -185.62534 4294967295
601.49377 3832.1516 -185.76912 4294967295
603.51959 3831.7041 -185.71432 4294967295
605.35657 3831.1196 -185.14311 4294967295
607.36078 3831.0789 -185.97115 4294967295
547.2984 3836.3464 -185.62379 4294967295
555.52679 3835.9851 -185.82243 4294967295
560.10681 3835.8154 -185.86748 4294967295
575.23694 3834.3823 -185.82144 4294967295
515.12463 3837.8979 -185.899 4294967295
393.23697 3845.9937 -185.78812 4294967295
398.62717 3845.7654 -185.09784 4294967295
401.4624 3845.4683 -185.84122 4294967295
355.43909 3848.7056 -185.9182 4294967295
389.69879 3846.2068 -185.84364 4294967295
569.34351 3809.6831 -184.37415 4294967295
571.58417 3809.5322 -184.42844 4294967295
593.22778 3809.0408 -184.32478 4294967295
596.21954 3809.1287 -184.94524 4294967295
598.91968 3809.5012 -184.6851 4294967295
601.26965 3809.7378 -184.49043 4294967295
558.17706 3810.9458 -184.90408 4294967295
559.22119 3810.8225 -184.02489 4294967295
563.72473 3810.3184 -184.31956 4294967295
603.08771 3810.3252 -184.14711 4294967295
607.47162 3810.5596 -184.52663 4294967295
608.87811 3810.8071 -184.66676 4294967295
610.40656 3812.2146 -184.32251 4294967295
612.27063 3812.7407 -184.62599 4294967295
497.71432 3815.2263 -184.20605 4294967295
504.6684 3815.0061 -184.10399 4294967295
509.539 3814.5859 -184.74379 4294967295
511.88602 3814.4285 -184.76694 4294967295
517.24469 3814.1306 -184.55269 4294967295
521.81067 3813.6052 -184.98734 4294967295
523.21875 3813.4333 -184.02646 4294967295
613.25684 3814.3679 -184.37595 4294967295
614.57257 3815.0281 -184.71921 4294967295
477.31076 3816.7593 -184.09668 4294967295
479.29733 3816.4497 -184.02106 4294967295
483.28064 3816.1624 -184.10921 4294967295
613.49554 3816.3547 -184.04729 4294967295
614.36725 3818.4324 -184.24678 4294967295
615.60864 3816.9539 -184.94016 4294967295
401.84717 3821.7261 -184.14153 4294967295
403.3653 3821.6108 -184.10258 4294967295
417.56793 3820.7195 -184.0163 4294967295
615.69879 3819.6191 -184.92084 4294967295
369.93051 3824.1667 -184.11357 4294967295
375.56232 3823.7151 -184.07973 4294967295
381.90427 3823.2192 -184.31596 4294967295
399.42249 3822.0305 -184.12041 4294967295
613.61926 3824.1338 -184.13336 4294967295
614.77759 3823.7922 -184.70367 4294967295
319.88928 3827.7778 -184.31601 4294967295
340.32767 3826.3755 -184.64391 4294967295
355.48877 3825.0422 -184.03413 4294967295
613.09308 3826.3816 -184.47339 4294967295
609.2533 3829.7705 -184.9679 4294967295
611.34076 3828.6196 -184.95085 4294967295
598.79858 3831.8105 -184.76796 4294967295
601.36969 3831.2615 -184.32976 4294967295
564.90259 3835.2375 -184.57292 4294967295
575.41217 3834.2224 -184.12355 4294967295
500.01443 3839.1738 -184.10242 4294967295
501.6106 3839.0586 -184.1501 4294967295
503.43869 3838.9739 -184.40807 4294967295
516.03986 3837.927 -184.01218 4294967295
429.99466 3843.688 -184.35074 4294967295
567.11584 3809.8452 -183.44073 4294967295
577.84174 3809.3091 -183.87585 4294967295
581.49261 3808.9983 -183.82019 4294967295
583.55145 3808.9695 -183.01353 4294967295
585.54004 3808.8806 -183.04755 4294967295
589.37292 3808.5176 -183.66396 4294967295
531.06024 3812.7964 -183.97302 4294967295
553.23572 3811.106 -183.22339 4294967295
555.18347 3811.0281 -183.81543 4294967295
561.51282 3810.5662 -183.67929 4294967295
565.30548 3810.0938 -183.70601 4294967295
597.16193 3810.3508 -183.16071 4294967295
600.1731 3810.7966 -183.28415 4294967295
601.737 3810.8901 -183.3652 4294967295
605.64679 3811.6765 -183.64726 4294967295
608.4458 3812.2834 -183.78503 4294967295
491.27112 3815.6208 -183.74777 4294967295
492.57047 3815.5127 -183.89908 4294967295
500.95053 3815.2668 -183.5016 4294967295
507.32471 3814.8801 -183.48775 4294967295
519.36896 3813.7258 -183.94696 4294967295
610.17126 3814.512 -183.32607 4294967295
611.88861 3814.5005 -183.8815 4294967295
447.13068 3818.9573 -183.80699 4294967295
451.65521 3818.4275 -183.6232 4294967295
455.35269 3818.0857 -183.63268 4294967295
457.85385 3817.821 -183.73457 4294967295
459.2901 3817.7251 -183.16679 4294967295
460.96078 3817.5842 -183.61771 4294967295
484.76752 3816.0413 -183.63838 4294967295
611.82855 3816.6614 -183.3078 4294967295
613.14209 3818.377 -183.63774 4294967295
405.06253 3821.5251 -183.88248 4294967295
407.32584 3821.5466 -183.75725 4294967295
409.70313 3821.3274 -183.5545 4294967295
412.87805 3821.2144 -183.04723 4294967295
419.57629 3820.5769 -183.52531 4294967295
421.2551 3820.4429 -183.55447 4294967295
423.16867 3820.4485 -183.90147 4294967295
425.20319 3820.3926 -183.45654 4294967295
427.42258 3820.124 -183.51085 4294967295
429.52805 3820.0149 -183.87048 4294967295
431.2034 3820.1047 -183.4994 4294967295
435.68292 3819.5544 -183.44507 4294967295
439.49283 3819.2063 -183.93703 4294967295
441.10168 3819.2588 -183.76414 4294967295
445.7937 3819.0239 -183.51808 4294967295
611.97882 3819.1226 -183.03879 4294967295
612.05957 3821.6228 -183.00392 4294967295
613.92261 3821.0352 -183.98677 4294967295
359.28223 3824.8423 -183.77325 4294967295
361.08972 3824.7463 -183.28004 4294967295
363.08148 3824.6116 -183.82741 4294967295
365.52618 3824.5122 -183.86755 4294967295
371.31485 3824.1826 -183.52278 4294967295
373.4469 3823.8931 -183.77412 4294967295
379.94 3823.3813 -183.85049 4294967295
385.27734 3822.8391 -183.70468 4294967295
387.27505 3822.6467 -183.46053 4294967295
611.94495 3823.9131 -183.1696 4294967295
613.08105 3823.0505 -183.64238 4294967295
323.19095 3827.4661 -183.35948 4294967295
325.41644 3827.2893 -183.80405 4294967295
327.32455 3827.3091 -183.38054 4294967295
328.99811 3827.2305 -183.73508 4294967295
331.19824 3827.2808 -183.59085 4294967295
333.13956 3827.0393 -183.58466 4294967295
335.52908 3827.0679 -183.1104 4294967295
341.51157 3826.2634 -183.75874 4294967295
343.61029 3826.0088 -183.86835 4294967295
345.07153 3825.905 -183.43645 4294967295
347.50568 3825.6516 -183.77017 4294967295
609.89136 3827.9763 -183.5425 4294967295
611.62036 3826.3962 -183.70953 4294967295
299.41916 3829.3877 -183.43114 4294967295
303.79178 3829.0603 -183.80478 4294967295
305.53943 3828.9758 -183.71373 4294967295
307.30472 3828.9954 -183.35999 4294967295
311.31641 3828.5071 -183.65904 4294967295
313.83154 3828.3171 -183.79573 4294967295
317.51764 3828.0671 -183.42253 4294967295
603.46228 3830.752 -183.916 4294967295
605.08051 3830.333 -183.7112 4294967295
606.86481 3829.9629 -183.98764 4294967295
608.37439 3828.6909 -183.2215 4294967295
577.84753 3833.9619 -183.78467 4294967295
579.47137 3833.7358 -183.67175 4294967295
589.91711 3832.8682 -183.71863 4294967295
591.41681 3832.7507 -183.78024 4294967295
595.55469 3832.3472 -183.93521 4294967295
597.10339 3831.1675 -183.17422 4294967295
537.35181 3836.9736 -183.02348 4294967295
539.95398 3836.7214 -183.18596 4294967295
545.10754 3836.3396 -183.03912 4294967295
553.77643 3835.8813 -183.6306 4294967295
561.57501 3835.6946 -183.86574 4294967295
497.36502 3839.3362 -183.40009 4294967295
506.52393 3838.7014 -183.77145 4294967295
508.81583 3838.5725 -183.95554 4294967295
510.80267 3838.2979 -183.55125 4294967295
513.78711 3837.9832 -183.15968 4294967295
521.35229 3838.4414 -183.58487 4294967295
529.74805 3837.8848 -183.00298 4294967295
532.15576 3837.6387 -183.25034 4294967295
533.27448 3837.5298 -183.0984 4294967295
443.23523 3842.8757 -183.18893 4294967295
451.37622 3842.4492 -183.10706 4294967295
455.78815 3842.272 -183.68228 4294967295
457.30621 3842.3132 -183.59372 4294967295
459.67224 3842.1248 -183.59174 4294967295
463.25217 3841.9727 -183.6169 4294967295
465.2926 3841.8904 -183.65195 4294967295
467.99063 3841.7407 -183.474 4294967295
470.92807 3841.5645 -183.48517 4294967295
473.60312 3841.3374 -183.69141 4294967295
480.80661 3840.8718 -183.84714 4294967295
483.77194 3840.7156 -183.60214 4294967295
485.05496 3840.845 -183.70277 4294967295
486.80765 3840.8376 -183.93288 4294967295
491.71078 3840.6345 -183.903 4294967295
493.37903 3840.4675 -183.63341 4294967295
495.43155 3840.146 -183.72986 4294967295
394.60025 3845.9414 -183.48817 4294967295
397.51108 3845.9551 -183.57751 4294967295
399.66904 3845.6438 -183.30525 4294967295
401.44727 3845.479 -183.03772 4294967295
404.03967 3845.3574 -183.12975 4294967295
415.0553 3844.4805 -183.0551 4294967295
417.66205 3844.4963 -183.68542 4294967295
425.76462 3844 -183.7383 4294967295
427.59937 3843.8635 -183.71341 4294967295
435.02722 3843.2761 -183.9559 4294967295
437.05511 3843.1121 -183.45883 4294967295
353.53 3848.8137 -183.72859 4294967295
355.5416 3848.6387 -183.59221 4294967295
358.63669 3848.5457 -183.45068 4294967295
361.62512 3848.3184 -183.54922 4294967295
363.61908 3847.9739 -183.60777 4294967295
367.38174 3847.887 -183.9514 4294967295
369.29111 3847.7705 -183.52943 4294967295
371.69763 3847.4856 -183.87285 4294967295
375.6636 3847.3904 -183.63261 4294967295
377.29245 3847.1504 -183.45648 4294967295
379.82684 3846.9792 -183.78575 4294967295
385.55157 3846.5688 -183.09157 4294967295
387.62393 3846.4656 -183.55388 4294967295
389.31427 3846.2671 -183.07552 4294967295
347.42706 3849.2598 -183.80298 4294967295
351.76773 3849.0359 -183.84952 4294967295
303.10049 3852.333 -183.16414 4294967295
579.2677 3809.3333 -182.72121 4294967295
555.45551 3811.4382 -182.00966 4294967295
557.24792 3811.2585 -182.17276 4294967295
