# .PCD v0.7 - Point Cloud Data file format
VERSION 0.7
FIELDS x y z rgba
SIZE 4 4 4 4
TYPE F F F U
COUNT 1 1 1 1
WIDTH 1147
HEIGHT 1
VIEWPOINT 0 0 0 1 0 0 0
POINTS 1147
DATA ascii
607.71985 2936.657 -374.5657 4294967295
612.82416 2936.8459 -374.85986 4294967295
614.53674 2936.3394 -374.83517 4294967295
596.42969 2941.1155 -374.98788 4294967295
617.11523 2933.9236 -373.33224 4294967295
607.12909 2936.7532 -373.13995 4294967295
610.0957 2936.9622 -373.05069 4294967295
612.53467 2936.8408 -373.51169 4294967295
596.81891 2939.8203 -373.18716 4294967295
598.91187 2937.0671 -373.08499 4294967295
616.93964 2926.7651 -372.98141 4294967295
617.34094 2929.7415 -372.5239 4294967295
617.3656 2932.6587 -372.77985 4294967295
602.18866 2936.3066 -372.82736 4294967295
615.69415 2935.9045 -372.87671 4294967295
616.70129 2922.729 -371.203 4294967295
604.90735 2936.6345 -371.10715 4294967295
617.17493 2934.0049 -371.27307 4294967295
597.39941 2938.2131 -371.13425 4294967295
598.88226 2937.0762 -371.29578 4294967295
610.3136 2937.1091 -371.24893 4294967295
596.7038 2941.0923 -371.35782 4294967295
616.75342 2917.3386 -370.96271 4294967295
617.34039 2929.5654 -370.84021 4294967295
617.41974 2932.6343 -370.8699 4294967295
607.2489 2936.8967 -370.64737 4294967295
615.68445 2936.0842 -370.80267 4294967295
601.42578 2936.4009 -369.23608 4294967295
614.56189 2936.7529 -369.19275 4294967295
596.74902 2939.7212 -369.18069 4294967295
612.64154 2937.3027 -369.13559 4294967295
596.61206 2941.0344 -369.0968 4294967295
616.95074 2926.9614 -368.99493 4294967295
617.44995 2932.5842 -368.97348 4294967295
599.57501 2936.8958 -368.65149 4294967295
605.24158 2936.7676 -368.81866 4294967295
615.73053 2936.1775 -368.87991 4294967295
616.9469 2935.1162 -368.87027 4294967295
617.38373 2934.0354 -368.75296 4294967295
597.05304 2938.4028 -368.61087 4294967295
598.81873 2937.1296 -368.60519 4294967295
607.33228 2937.0105 -368.6131 4294967295
610.40509 2937.28 -368.77777 4294967295
616.9574 2926.9712 -367.03952 4294967295
617.51556 2931.9629 -367.06985 4294967295
602.28461 2936.6055 -367.31854 4294967295
597.04462 2938.8508 -367.44849 4294967295
612.60199 2937.2795 -367.06848 4294967295
617.37854 2929.6853 -366.93689 4294967295
599.5011 2936.9751 -366.81796 4294967295
604.9798 2936.7529 -366.61182 4294967295
614.55499 2936.8752 -366.96066 4294967295
615.96692 2936.3115 -366.71991 4294967295
616.83136 2935.1023 -366.80487 4294967295
598.65277 2937.1545 -366.87466 4294967295
607.70465 2937.1272 -366.47333 4294967295
609.77826 2937.3291 -366.95627 4294967295
596.56158 2940.9338 -366.46375 4294967295
616.22754 2916.3652 -365.14587 4294967295
616.78448 2935.2273 -365.04269 4294967295
596.54388 2940.9265 -365.13794 4294967295
612.65741 2913.7988 -364.06122 4294967295
615.40393 2914.3486 -364.90369 4294967295
617.52649 2932.2566 -364.94791 4294967295
602.58594 2936.595 -364.79315 4294967295
605.57269 2936.9077 -364.54474 4294967295
615.8728 2936.2681 -364.72214 4294967295
596.70282 2939.7537 -364.55392 4294967295
597.44086 2938.2388 -364.64166 4294967295
598.76575 2937.1594 -364.82663 4294967295
609.98059 2937.4536 -364.78595 4294967295
616.57996 2919.1208 -363.31461 4294967295
615.63977 2915.7366 -362.37976 4294967295
617.23035 2932.3149 -362.92664 4294967295
600.06152 2936.936 -362.63818 4294967295
602.73108 2936.6831 -362.41284 4294967295
614.67188 2936.9893 -362.74203 4294967295
616.79749 2935.2275 -362.98962 4294967295
597.2738 2938.3721 -362.86011 4294967295
598.81372 2937.3113 -362.92319 4294967295
605.15509 2937.0229 -362.99054 4294967295
607.28589 2937.3235 -362.94434 4294967295
609.75708 2937.5347 -362.6965 4294967295
612.78381 2937.4612 -362.70575 4294967295
596.51422 2940.7842 -362.49854 4294967295
596.67401 2943.8921 -362.8923 4294967295
614.3808 2914.1965 -361.75122 4294967295
616.46393 2917.7839 -361.21671 4294967295
616.91595 2920.9329 -361.49319 4294967295
617.22205 2924.958 -361.79651 4294967295
617.39893 2928.551 -361.6283 4294967295
615.78394 2936.407 -361.22803 4294967295
598.0412 2937.7803 -361.23428 4294967295
612.8595 2913.7571 -360.96988 4294967295
614.28827 2914.0112 -360.74814 4294967295
615.4408 2915.0444 -360.52417 4294967295
616.2132 2916.5688 -360.39398 4294967295
617.45227 2926.7295 -360.5293 4294967295
617.31799 2932.0227 -360.62567 4294967295
600.33911 2936.9993 -360.54236 4294967295
616.71698 2934.468 -360.9187 4294967295
596.69189 2939.9121 -360.87088 4294967295
599.08752 2937.2981 -360.89352 4294967295
605.13245 2937.1165 -360.61945 4294967295
607.57648 2937.3962 -360.87982 4294967295
609.87109 2937.5972 -360.88388 4294967295
612.78174 2937.6528 -360.91711 4294967295
613.96136 2914.0386 -359.55457 4294967295
615.40936 2915.2043 -359.2222 4294967295
616.60144 2918.1123 -359.1441 4294967295
617.03406 2920.5503 -359.8244 4294967295
617.37592 2922.9478 -359.38806 4294967295
617.6217 2926.6387 -359.2951 4294967295
596.76721 2939.7883 -359.00226 4294967295
612.58972 2937.594 -359.23877 4294967295
596.54565 2940.9009 -359.38663 4294967295
611.55463 2913.6995 -358.81482 4294967295
613.22461 2913.9175 -358.10535 4294967295
614.32361 2914.3215 -358.30328 4294967295
615.04779 2915.0283 -358.01511 4294967295
617.71191 2930.052 -358.82312 4294967295
617.21802 2933.1975 -358.69516 4294967295
602.08557 2936.7461 -358.95575 4294967295
616.0603 2935.5112 -358.95682 4294967295
597.58313 2938.2891 -358.87418 4294967295
607.32794 2937.447 -358.91901 4294967295
614.56464 2937.1208 -358.91614 4294967295
610.76202 2913.6472 -357.30847 4294967295
612.20172 2913.759 -357.40948 4294967295
616.76971 2918.2742 -357.20883 4294967295
617.25635 2920.4146 -357.88382 4294967295
617.78296 2923.5591 -357.34802 4294967295
617.86761 2926.5649 -357.90338 4294967295
617.46655 2933.0837 -357.31091 4294967295
615.242 2936.2964 -357.04944 4294967295
598.88464 2937.4895 -357.21915 4294967295
609.86755 2937.7617 -357.0441 4294967295
596.53265 2943.3115 -357.55588 4294967295
610.16034 2913.6777 -356.49838 4294967295
611.52606 2913.7395 -356.34854 4294967295
613.57227 2914.3167 -356.54382 4294967295
615.74866 2916.2236 -356.86066 4294967295
617.45667 2920.1384 -356.24475 4294967295
618.14203 2926.4937 -356.57199 4294967295
618.07318 2928.4124 -356.97147 4294967295
617.9751 2931.2502 -356.44214 4294967295
616.75299 2934.6138 -356.83963 4294967295
596.77197 2939.7334 -356.60043 4294967295
597.62671 2938.314 -356.89441 4294967295
599.86206 2937.23 -356.63123 4294967295
602.87231 2937.0269 -356.2637 4294967295
612.76654 2937.832 -356.92123 4294967295
612.02362 2913.8677 -355.4585 4294967295
616.73926 2917.7271 -355.70468 4294967295
618.0741 2923.073 -355.7485 4294967295
618.38715 2926.3394 -355.32373 4294967295
618.37744 2929.2983 -355.24966 4294967295
617.57489 2933.2073 -355.98685 4294967295
614.758 2936.7395 -355.49045 4294967295
616.03949 2935.6892 -355.21069 4294967295
609.63562 2937.8481 -355.04254 4294967295
610.34607 2913.8064 -354.74225 4294967295
612.67871 2914.1431 -354.19913 4294967295
614.78308 2915.1689 -354.23114 4294967295
616.05426 2916.4106 -354.82794 4294967295
617.42487 2919.3015 -354.93842 4294967295
618.05371 2921.3206 -354.38272 4294967295
618.38409 2930.7463 -354.14734 4294967295
617.94513 2932.4666 -354.77924 4294967295
617.22107 2934.1641 -354.5513 4294967295
597.39441 2938.6106 -354.75595 4294967295
598.85406 2937.4785 -354.47067 4294967295
600.18414 2937.2739 -354.72363 4294967295
605.29156 2937.4189 -354.96255 4294967295
613.93561 2937.2053 -354.49203 4294967295
596.60785 2940.6863 -354.91354 4294967295
615.98096 2916.1804 -353.38214 4294967295
616.81897 2917.5525 -353.96008 4294967295
617.66113 2919.3831 -353.12274 4294967295
618.4953 2923.7185 -353.95676 4294967295
618.71399 2926.2332 -353.67343 4294967295
618.66174 2928.6057 -353.68048 4294967295
615.17206 2936.5083 -353.79291 4294967295
616.38348 2935.4443 -353.58978 4294967295
597.46729 2938.6313 -353.27658 4294967295
614.07153 2937.1355 -353.41971 4294967295
596.57751 2940.9341 -353.00443 4294967295
611.70569 2913.9758 -352.65192 4294967295
615.42102 2915.6467 -352.22592 4294967295
618.42413 2921.8547 -352.5173 4294967295
618.86072 2924.6741 -352.0676 4294967295
618.64246 2930.2698 -352.15891 4294967295
618.00861 2932.6521 -352.85907 4294967295
614.41333 2936.9158 -352.60049 4294967295
617.09583 2934.533 -352.6972 4294967295
598.57526 2937.6841 -352.79068 4294967295
599.60535 2937.4873 -352.91693 4294967295
602.24927 2937.1072 -352.70236 4294967295
605.53003 2937.5896 -352.82175 4294967295
607.42792 2937.7876 -352.94711 4294967295
609.72729 2937.9915 -352.63162 4294967295
612.448 2937.5659 -352.78558 4294967295
596.55658 2943.8442 -352.46304 4294967295
609.85687 2913.9216 -351.11255 4294967295
611.97272 2914.0403 -351.34872 4294967295
613.7215 2914.6169 -351.64178 4294967295
616.76636 2917.2722 -351.93747 4294967295
617.99243 2919.8042 -351.14151 4294967295
618.90912 2927.655 -351.82455 4294967295
618.34271 2931.9272 -351.06143 4294967295
614.14441 2936.9878 -351.24344 4294967295
615.83337 2935.9038 -351.77914 4294967295
599.86871 2937.4797 -351.03873 4294967295
610.44043 2937.7925 -351.22382 4294967295
611.92035 2937.6914 -351.04965 4294967295
615.79291 2916.0596 -350.38083 4294967295
618.78839 2922.6855 -350.52637 4294967295
619.06146 2925.9644 -350.00165 4294967295
617.42603 2934.0093 -350.86404 4294967295
597.685 2938.6094 -350.74765 4294967295
598.8739 2937.6841 -350.88708 4294967295
602.67651 2937.282 -350.70099 4294967295
596.58899 2941.2083 -350.62982 4294967295
612.42291 2914.1929 -349.8075 4294967295
617.26245 2917.9834 -349.79208 4294967295
618.32007 2920.5796 -349.10538 4294967295
618.81085 2929.9788 -349.47134 4294967295
618.15265 2932.5972 -349.70496 4294967295
614.9649 2936.5449 -349.91437 4294967295
616.30096 2935.5107 -349.70465 4294967295
612.58356 2937.4387 -349.1972 4294967295
595.44965 2912.9395 -348.78204 4294967295
607.52899 2914.1082 -348.34271 4294967295
609.82678 2913.886 -348.67606 4294967295
611.17737 2913.9248 -348.93277 4294967295
614.72522 2915.2944 -348.3974 4294967295
616.46643 2916.8035 -348.60995 4294967295
618.96796 2923.645 -348.42938 4294967295
618.24524 2932.4346 -348.33139 4294967295
617.26947 2934.2832 -348.34729 4294967295
599.26337 2937.8064 -348.92822 4294967295
600.26093 2937.5708 -348.55325 4294967295
602.50702 2937.3687 -348.57693 4294967295
605.1839 2937.6665 -348.73404 4294967295
608.13422 2937.8188 -348.91312 4294967295
596.9519 2940.0244 -348.73822 4294967295
596.43463 2943.6677 -348.40146 4294967295
594.5069 2911.6377 -347.30084 4294967295
595.75677 2913.2888 -347.00912 4294967295
598.57489 2914.7793 -347.16757 4294967295
609.54468 2913.9629 -347.15091 4294967295
610.86304 2913.9248 -347.63205 4294967295
612.58234 2914.2888 -347.4418 4294967295
617.5863 2918.6736 -347.83127 4294967295
618.46259 2921.3789 -347.04453 4294967295
619.10522 2926.9287 -347.71704 4294967295
618.56073 2931.5554 -347.32477 4294967295
615.36462 2936.2202 -347.87112 4294967295
597.66913 2939.0073 -347.05652 4294967295
614.05298 2937.0637 -347.03488 4294967295
596.48828 2944.0571 -347.16919 4294967295
610.98456 2914.1221 -346.00516 4294967295
614.0412 2914.9417 -346.58295 4294967295
616.51587 2917.1382 -346.85675 4294967295
618.94836 2924.4368 -346.25974 4294967295
618.87286 2929.708 -346.66492 4294967295
617.87885 2933.2578 -346.474 4294967295
599.06104 2938.0203 -346.94485 4294967295
600.36652 2937.594 -346.9881 4294967295
605.37073 2937.7703 -346.8558 4294967295
610.29504 2937.9209 -346.71429 4294967295
596.60114 2941.6597 -346.922 4294967295
599.97675 2915.0166 -345.55817 4294967295
615.31592 2916.0471 -345.53934 4294967295
616.71564 2917.7793 -345.10901 4294967295
617.62738 2919.3391 -345.87234 4294967295
618.94116 2927.4094 -345.40009 4294967295
618.36237 2931.7813 -345.43158 4294967295
614.90991 2936.6077 -345.83585 4294967295
616.46783 2935.2102 -345.62793 4294967295
612.88763 2937.4941 -345.6033 4294967295
594.67017 2912.0786 -344.61151 4294967295
596.89398 2914.3523 -344.95142 4294967295
608.49554 2914.1938 -344.93619 4294967295
611.09979 2914.3364 -344.07831 4294967295
613.14087 2914.8208 -344.90042 4294967295
618.33649 2922.0886 -344.95386 4294967295
618.66632 2925.0732 -344.10269 4294967295
618.63452 2929.9893 -344.43515 4294967295
617.41223 2933.718 -344.00644 4294967295
597.68536 2939.1653 -344.48727 4294967295
600.25177 2937.7068 -344.8013 4294967295
602.48267 2937.5496 -344.73865 4294967295
604.95166 2937.7966 -344.85211 4294967295
610.12408 2938.3711 -344.918 4294967295
596.59924 2941.8342 -344.95862 4294967295
596.58551 2944.0161 -344.88727 4294967295
593.9267 2910.1267 -343.42181 4294967295
597.78583 2914.668 -343.37769 4294967295
605.44092 2914.4919 -343.25006 4294967295
616.24921 2917.5769 -343.84415 4294967295
617.37964 2919.7646 -343.74115 4294967295
618.57227 2927.9182 -343.18997 4294967295
618.10333 2931.8977 -343.60403 4294967295
615.03485 2936.4141 -343.60712 4294967295
616.43756 2935.2034 -343.70682 4294967295
596.67249 2941.6184 -343.02597 4294967295
594.4519 2911.6924 -342.73734 4294967295
595.51477 2913.2388 -342.69812 4294967295
610.22186 2914.3167 -342.71381 4294967295
614.90521 2916.3906 -342.8797 4294967295
616.44897 2918.6187 -342.18866 4294967295
618.07111 2922.811 -342.88947 4294967295
618.27148 2925.6628 -342.01813 4294967295
618.138 2930.5549 -342.25085 4294967295
600.20526 2937.7444 -342.90714 4294967295
605.09436 2937.8936 -342.60147 4294967295
612.7348 2937.7217 -342.27313 4294967295
597.19916 2914.4382 -341.36926 4294967295
608.41992 2914.3386 -341.28488 4294967295
610.52289 2914.3584 -341.34363 4294967295
612.46686 2914.8896 -341.92542 4294967295
617.31964 2920.9597 -341.71152 4294967295
618.05505 2928.4463 -341.01862 4294967295
617.4834 2932.833 -341.94327 4294967295
616.40802 2934.9385 -341.98114 4294967295
602.30823 2937.4783 -341.14413 4294967295
607.24731 2938.2158 -341.0343 4294967295
595.24902 2912.9207 -340.93445 4294967295
600.47589 2915.0696 -340.0137 4294967295
605.40393 2914.5742 -340.05334 4294967295
610.11212 2914.333 -340.40222 4294967295
611.2052 2914.499 -340.38531 4294967295
613.42267 2915.4834 -340.42807 4294967295
614.22516 2916.0789 -340.99524 4294967295
615.56934 2917.8481 -340.33536 4294967295
616.63757 2919.7668 -340.66537 4294967295
617.73352 2923.5149 -340.95212 4294967295
617.81616 2926.1086 -340.0697 4294967295
616.96625 2933.7117 -340.61847 4294967295
614.63818 2936.7109 -340.69113 4294967295
616.27448 2934.9807 -340.03854 4294967295
597.76184 2939.2222 -340.94351 4294967295
604.71985 2937.9031 -340.93311 4294967295
610.20294 2938.5649 -340.93152 4294967295
613.36066 2937.6099 -340.77563 4294967295
596.59491 2941.678 -340.72046 4294967295
596.34961 2943.7224 -340.68326 4294967295
593.80988 2910.0615 -339.09088 4294967295
612.43231 2915.0249 -339.7081 4294967295
614.15253 2916.2551 -339.09302 4294967295
616.4176 2920.1143 -339.1691 4294967295
617.11066 2921.699 -339.96045 4294967295
617.37439 2923.9932 -339.10577 4294967295
617.67035 2928.4573 -339.30157 4294967295
616.88672 2933.719 -339.70764 4294967295
617.39569 2931.677 -339.38348 4294967295
612.88214 2937.8047 -339.34521 4294967295
596.30963 2943.6875 -339.00937 4294967295
595.30219 2912.9216 -338.86087 4294967295
596.71893 2914.0691 -338.58731 4294967295
607.35767 2914.4644 -338.82202 4294967295
610.23663 2914.5378 -338.51358 4294967295
615.46631 2918.189 -338.48608 4294967295
616.83197 2922.092 -338.22812 4294967295
617.40625 2926.6086 -338.03448 4294967295
617.42725 2929.3064 -338.08878 4294967295
614.54053 2936.9297 -338.97983 4294967295
615.60504 2935.8755 -338.76108 4294967295
616.62134 2934.2024 -338.70981 4294967295
598.18256 2938.8853 -338.74265 4294967295
602.14172 2937.5464 -338.75125 4294967295
605.21027 2938.0776 -338.70441 4294967295
607.48608 2938.335 -338.83194 4294967295
598.42163 2914.8879 -337.0094 4294967295
612.78003 2915.2605 -337.93384 4294967295
613.98254 2916.1248 -337.3475 4294967295
614.96637 2917.4836 -337.17923 4294967295
616.30835 2920.5386 -337.63303 4294967295
617.02856 2924.1304 -337.25015 4294967295
617.28119 2930.6355 -337.28796 4294967295
616.86713 2933.4602 -337.44547 4294967295
614.80255 2936.7776 -337.31433 4294967295
616.18268 2935.0288 -337.1084 4294967295
605.22687 2938.158 -337.12296 4294967295
612.6687 2938.4175 -337.08121 4294967295
596.99854 2940.5457 -337.00916 4294967295
594.46387 2911.7637 -336.9538 4294967295
595.36664 2913.1111 -336.78665 4294967295
600.67883 2915.2048 -336.94873 4294967295
607.6568 2914.5459 -336.56818 4294967295
612.04144 2914.939 -336.22626 4294967295
613.40729 2915.5996 -336.45428 4294967295
614.30133 2916.5015 -336.03107 4294967295
615.83362 2919.5195 -336.41284 4294967295
616.51855 2922.0933 -336.15305 4294967295
617.19763 2928.6182 -336.31293 4294967295
617.07568 2932.2134 -336.57538 4294967295
597.77502 2939.3152 -336.96707 4294967295
600.11127 2938.0173 -336.88272 4294967295
607.62903 2938.4429 -336.96442 4294967295
610.12006 2938.7227 -336.98645 4294967295
596.49091 2943.7544 -336.67386 4294967295
596.56171 2914.1934 -335.54938 4294967295
599.39807 2915.1633 -335.35767 4294967295
616.82568 2924.0784 -335.92688 4294967295
617.0011 2925.9204 -335.76828 4294967295
617.10828 2930.6917 -335.69122 4294967295
616.62683 2933.9148 -335.60275 4294967295
615.88666 2935.7512 -335.2034 4294967295
612.62573 2938.4663 -335.03113 4294967295
615.13733 2937.3174 -335.14618 4294967295
594.24609 2911.4534 -334.70782 4294967295
595.90436 2913.8818 -334.44168 4294967295
609.80322 2914.5881 -334.70944 4294967295
611.90601 2914.8774 -334.53546 4294967295
613.55322 2915.7915 -334.4574 4294967295
615.20422 2918.0498 -334.59201 4294967295
616.17529 2921.0994 -334.492 4294967295
616.63763 2923.9551 -334.43893 4294967295
616.98792 2927.5222 -334.88632 4294967295
598.37158 2938.8721 -334.86746 4294967295
602.20465 2937.7329 -334.8082 4294967295
605.23822 2938.1948 -334.75546 4294967295
607.42633 2938.5493 -334.93475 4294967295
610.22699 2938.7964 -334.4993 4294967295
614.18683 2937.9321 -334.65994 4294967295
596.59106 2941.7339 -334.87396 4294967295
597.04547 2940.4788 -334.8688 4294967295
594.14893 2911.8787 -333.05206 4294967295
598.12677 2915.1411 -333.81973 4294967295
616.77966 2926.3398 -333.69815 4294967295
616.92047 2929.1338 -333.85486 4294967295
616.82611 2932.3691 -333.98093 4294967295
616.37225 2934.6609 -333.70282 4294967295
595.08063 2913.2327 -332.87204 4294967295
601.21765 2915.5186 -332.62454 4294967295
611.84686 2914.7903 -332.19562 4294967295
614.01978 2915.7461 -332.3045 4294967295
614.92719 2916.9458 -332.61185 4294967295
615.48773 2918.2378 -332.58224 4294967295
615.96179 2920.2881 -332.50595 4294967295
616.42603 2923.3369 -332.86343 4294967295
615.66833 2936.8965 -332.74356 4294967295
599.94763 2938.2515 -332.81711 4294967295
607.29407 2938.5757 -332.99115 4294967295
609.83069 2938.8369 -332.78418 4294967295
612.81439 2938.4663 -332.49585 4294967295
614.14606 2937.9539 -332.98236 4294967295
597.05804 2940.542 -332.75238 4294967295
593.94934 2911.676 -331.03345 4294967295
595.74707 2914.2793 -331.12445 4294967295
598.46863 2915.5298 -331.12845 4294967295
608.85706 2914.4207 -331.02701 4294967295
614.21716 2915.1692 -331.01068 4294967295
616.29565 2923.0713 -331.18753 4294967295
616.76343 2931.3228 -331.34628 4294967295
616.414 2934.5767 -331.42017 4294967295
598.17126 2939.1631 -331.06195 4294967295
610.62292 2914.1714 -330.25177 4294967295
615.41895 2917.2241 -330.71564 4294967295
610.3786 2938.9473 -330.83279 4294967295
614.01733 2938.0334 -330.73444 4294967295
615.52502 2937.0642 -330.87976 4294967295
593.65649 2910.0828 -329.45029 4294967295
605.68811 2915.0554 -329.03656 4294967295
614.13062 2915.113 -329.09995 4294967295
616.03589 2920.6018 -329.0694 4294967295
598.53387 2939.0071 -329.10059 4294967295
594.22729 2912.0627 -328.31967 4294967295
594.91064 2913.2871 -328.77124 4294967295
596.71667 2915.0012 -328.94345 4294967295
611.4126 2914.2466 -328.6889 4294967295
615.25153 2916.4839 -328.71057 4294967295
616.67004 2934.9695 -328.85626 4294967295
612.70593 2938.6899 -328.59476 4294967295
615.40271 2937.1953 -328.94815 4294967295
611.02185 2914.3108 -327.2251 4294967295
613.77484 2938.2122 -327.1369 4294967295
607.55548 2914.7988 -326.65378 4294967295
612.72833 2914.603 -326.82364 4294967295
614.37701 2915.3384 -326.51031 4294967295
615.53955 2916.9243 -326.82867 4294967295
616.08978 2919.7502 -326.78174 4294967295
615.71765 2936.8604 -326.93866 4294967295
616.83807 2934.0337 -326.72665 4294967295
610.35321 2939.1064 -326.8844 4294967295
595.5993 2914.3049 -325.73477 4294967295
596.75787 2915.1641 -325.5155 4294967295
602.69391 2915.6633 -325.53543 4294967295
610.91193 2914.4131 -325.0827 4294967295
614.51575 2915.45 -325.17227 4294967295
616.01239 2919.7195 -325.0043 4294967295
616.55902 2935.0237 -325.13928 4294967295
597.71704 2939.7715 -325.06122 4294967295
593.91895 2911.8296 -324.75089 4294967295
594.59442 2913.1548 -324.78156 4294967295
598.3913 2915.8149 -324.95547 4294967295
608.60297 2914.7217 -324.89526 4294967295
615.58661 2917.4197 -324.68787 4294967295
616.73328 2931.7483 -324.71045 4294967295
602.19232 2938.1238 -324.75491 4294967295
610.16071 2939.1665 -324.94705 4294967295
612.4422 2938.7644 -324.85983 4294967295
614.03204 2938.1243 -324.95264 4294967295
607.97211 2914.8787 -323.54446 4294967295
615.26648 2916.9722 -323.08771 4294967295
616.30682 2935.7891 -323.00766 4294967295
594.73029 2913.2378 -322.63852 4294967295
595.80908 2914.5417 -322.82681 4294967295
611.31146 2914.6418 -322.71185 4294967295
614.18115 2915.3643 -322.90976 4294967295
615.93201 2919.7942 -322.96436 4294967295
616.64642 2931.6555 -322.86124 4294967295
616.68506 2934.0984 -322.71414 4294967295
600.14636 2938.6841 -322.98141 4294967295
602.40125 2938.3503 -322.927 4294967295
607.35559 2938.9907 -322.74878 4294967295
609.89557 2939.2402 -322.63245 4294967295
612.53778 2938.8022 -322.37613 4294967295
614.03864 2938.1655 -322.54138 4294967295
615.44611 2937.1235 -322.67316 4294967295
596.20032 2942.9243 -322.92844 4294967295
596.19983 2914.9026 -321.04678 4294967295
616.24213 2935.8269 -321.08453 4294967295
605.49628 2938.7737 -321.09128 4294967295
615.42017 2937.1589 -321.0145 4294967295
611.35315 2914.7585 -320.78308 4294967295
614.09375 2915.4277 -320.98978 4294967295
615.36963 2917.5532 -320.60703 4294967295
616.51904 2931.3684 -320.3992 4294967295
616.60559 2934.2053 -320.93558 4294967295
599.7478 2938.6799 -320.67072 4294967295
602.31183 2938.561 -320.77087 4294967295
610.25995 2939.3386 -320.99481 4294967295
613.84375 2938.2813 -320.93784 4294967295
597.46423 2940.147 -320.72586 4294967295
595.57977 2914.4504 -319.0881 4294967295
600.06995 2916.3108 -319.33896 4294967295
615.68817 2919.604 -319.13092 4294967295
615.4364 2937.1277 -319.01352 4294967295
594.68536 2913.2068 -318.67422 4294967295
597.10895 2915.5215 -318.79184 4294967295
607.98535 2915.075 -318.75958 4294967295
610.88135 2914.8572 -318.89587 4294967295
612.71625 2914.9678 -318.83667 4294967295
613.64587 2915.3577 -318.98563 4294967295
614.83997 2916.3179 -318.79929 4294967295
615.27216 2917.571 -318.85284 4294967295
616.51819 2931.6436 -318.83292 4294967295
616.43634 2934.8579 -318.8515 4294967295
602.30261 2938.5205 -318.83408 4294967295
610.36261 2939.4507 -318.814 4294967295
612.51556 2938.915 -318.75421 4294967295
613.87579 2938.3118 -318.96228 4294967295
596.46631 2942.9307 -318.93637 4294967295
597.44611 2940.2048 -318.98035 4294967295
595.77478 2914.6553 -317.07742 4294967295
597.81506 2915.8591 -317.54752 4294967295
614.1955 2915.6663 -317.22061 4294967295
616.20154 2935.8181 -317.08438 4294967295
613.81201 2938.3987 -317.06766 4294967295
594.75739 2913.333 -316.35767 4294967295
597.15991 2915.5989 -316.62283 4294967295
608.39703 2915.0615 -316.8345 4294967295
610.98389 2914.9036 -316.96622 4294967295
612.55249 2915.0779 -316.78561 4294967295
615.17108 2917.5034 -316.86621 4294967295
615.55664 2919.2229 -316.54822 4294967295
616.55121 2934.095 -316.91461 4294967295
599.99359 2938.7651 -316.87723 4294967295
607.60925 2939.3079 -316.79611 4294967295
610.42163 2939.5168 -316.90259 4294967295
615.52869 2937.0242 -316.77185 4294967295
596.53833 2942.2441 -316.79251 4294967295
597.33295 2940.2952 -316.93585 4294967295
614.17218 2915.7466 -315.01907 4294967295
603.20392 2916.0576 -315.00485 4294967295
615.10577 2917.4443 -315.0676 4294967295
615.58453 2919.5188 -315.07278 4294967295
616.43463 2931.6372 -315.01688 4294967295
599.0014 2939.3042 -315.16858 4294967295
615.36115 2937.2813 -315.03174 4294967295
596.18713 2942.7666 -315.13666 4294967295
593.62616 2909.7314 -314.67966 4294967295
595.70483 2914.5576 -314.89066 4294967295
597.19293 2915.6394 -314.68472 4294967295
608.2569 2915.1482 -314.84485 4294967295
610.29755 2915.0242 -314.59927 4294967295
612.48907 2915.0403 -314.95316 4294967295
598.06104 2916.0137 -314.10831 4294967295
600.59546 2916.4998 -314.54697 4294967295
614.45605 2916.0251 -314.61081 4294967295
616.52661 2934.0383 -314.82657 4294967295
605.48352 2939.0879 -314.57349 4294967295
610.1593 2939.5864 -314.91785 4294967295
612.51019 2939.0962 -314.99536 4294967295
597.32343 2940.3728 -314.8988 4294967295
594.58606 2912.9604 -313.44757 4294967295
597.44794 2915.9307 -313.06528 4294967295
600.36072 2916.4475 -313.22067 4294967295
607.66522 2939.4827 -313.04803 4294967295
614.79303 2937.9546 -313.37894 4294967295
594.07538 2911.5732 -312.85712 4294967295
595.78198 2914.6638 -312.89444 4294967295
608.10754 2915.2754 -312.59354 4294967295
610.96527 2915.1396 -312.78662 4294967295
614.22681 2915.8748 -312.97708 4294967295
615.26978 2918.3108 -312.6701 4294967295
615.75 2936.6936 -312.13586 4294967295
616.33704 2934.9248 -312.66895 4294967295
598.67133 2939.4421 -312.73816 4294967295
600.62921 2938.9324 -312.90048 4294967295
602.27539 2938.7122 -312.77048 4294967295
610.27783 2939.7043 -312.90094 4294967295
612.6098 2939.168 -312.9173 4294967295
596.60608 2941.311 -312.99265 4294967295
614.11023 2915.9951 -311.37366 4294967295
600.35413 2916.53 -311.03534 4294967295
613.74963 2938.675 -311.13129 4294967295
594.66577 2913.25 -310.94366 4294967295
595.92981 2914.9893 -310.68454 4294967295
597.29065 2915.8293 -310.97571 4294967295
611.59442 2915.2991 -310.69385 4294967295
612.35345 2915.4016 -310.36444 4294967295
602.89301 2916.2634 -310.01959 4294967295
614.69397 2917.0435 -310.58234 4294967295
616.33551 2931.4341 -310.9234 4294967295
616.64539 2934.1467 -310.72964 4294967295
599.21924 2939.2703 -310.69562 4294967295
602.86865 2938.8928 -310.60654 4294967295
605.4585 2939.3118 -310.95618 4294967295
607.7464 2939.6177 -310.88269 4294967295
610.52643 2939.8118 -310.91125 4294967295
615.41345 2937.2935 -310.89847 4294967295
597.10071 2940.47 -310.6015 4294967295
594.0799 2911.9128 -309.21838 4294967295
612.41205 2915.4749 -309.19037 4294967295
614.1308 2916.3892 -309.06223 4294967295
615.00671 2917.7808 -309.01212 4294967295
598.90363 2939.2366 -309.13547 4294967295
605.01508 2939.3208 -309.05768 4294967295
593.7193 2909.5076 -308.8284 4294967295
594.6684 2913.4614 -308.48355 4294967295
595.65002 2914.8796 -308.66217 4294967295
610.34161 2915.2002 -308.42502 4294967295
600.14978 2916.5752 -308.61246 4294967295
616.146 2935.9021 -308.95813 4294967295
600.3219 2938.9111 -308.93076 4294967295
610.55536 2939.8831 -308.84845 4294967295
612.38727 2939.3889 -308.96292 4294967295
615.36749 2937.4009 -308.89612 4294967295
597.11646 2915.947 -307.21967 4294967295
600.41211 2916.7612 -307.24176 4294967295
616.18933 2935.8123 -307.04388 4294967295
594.6073 2913.6694 -306.75613 4294967295
595.44641 2914.8696 -306.95728 4294967295
612.43048 2915.6362 -306.76697 4294967295
598.13348 2916.4009 -306.73236 4294967295
613.9895 2916.4863 -306.47995 4294967295
615.57104 2919.6563 -306.69159 4294967295
616.61749 2933.8291 -306.94046 4294967295
602.28485 2938.9141 -306.99088 4294967295
605.52393 2939.4082 -306.77698 4294967295
613.8894 2938.72 -306.79172 4294967295
615.45605 2937.3081 -306.76035 4294967295
594.05713 2912.0491 -305.06888 4294967295
598.53583 2916.5613 -305.14713 4294967295
616.19189 2935.7153 -305.08438 4294967295
600.07446 2939.2625 -305.20187 4294967295
615.2464 2937.6077 -305.00342 4294967295
595.54364 2915.2493 -304.88086 4294967295
596.63184 2915.9988 -304.65741 4294967295
607.88251 2915.6824 -304.41028 4294967295
612.40204 2915.7129 -304.82269 4294967295
600.32495 2916.8296 -304.992 4294967295
602.99176 2916.562 -304.77347 4294967295
605.49231 2916.0251 -304.79373 4294967295
614.0611 2916.6692 -304.83987 4294967295
615.36066 2919.48 -304.78772 4294967295
602.73541 2939.075 -304.75156 4294967295
594.01093 2912.2368 -303.0946 4294967295
595.3288 2915.2412 -303.0946 4294967295
603.3114 2916.4824 -303.25403 4294967295
613.74542 2916.5193 -303.09927 4294967295
594.4538 2913.9536 -302.70731 4294967295
608.29004 2915.6414 -302.61099 4294967295
596.87994 2916.2441 -302.896 4294967295
598.36462 2916.637 -302.48227 4294967295
605.7312 2916.1206 -302.74664 4294967295
615.48608 2919.6003 -302.85513 4294967295
600.54352 2939.2271 -302.68195 4294967295
615.60315 2937.3701 -302.85886 4294967295
594.29919 2913.8889 -301.10416 4294967295
600.51971 2916.9253 -301.32196 4294967295
602.49054 2939.1741 -301.01068 4294967295
608.72742 2915.6204 -300.90155 4294967295
610.82776 2915.616 -300.83267 4294967295
612.38409 2915.8625 -300.91434 4294967295
597.00653 2916.418 -300.73602 4294967295
603.37378 2916.5593 -300.68439 4294967295
605.34088 2916.2766 -300.62234 4294967295
613.90356 2916.7383 -300.55615 4294967295
614.72888 2917.8965 -300.66083 4294967295
597.117 2940.6289 -300.85129 4294967295
593.7467 2911.8782 -299.23523 4294967295
594.86334 2915.2441 -299.01318 4294967295
597.46143 2916.6672 -299.08658 4294967295
605.78345 2916.1968 -299.41119 4294967295
613.95105 2916.8516 -299.27719 4294967295
608.38708 2915.7656 -298.98163 4294967295
610.68488 2915.6702 -298.97839 4294967295
612.23547 2915.9431 -298.37286 4294967295
596.63068 2916.4707 -298.9639 4294967295
600.56305 2917.012 -298.94409 4294967295
603.23242 2916.6702 -298.74194 4294967295
614.73242 2918.0142 -298.80899 4294967295
593.72461 2912.7524 -297.00952 4294967295
603.34717 2916.8098 -297.06012 4294967295
607.4541 2916.0208 -297.13919 4294967295
593.97021 2913.9514 -296.99667 4294967295
594.50616 2915.0161 -296.99347 4294967295
610.87677 2915.6887 -296.61349 4294967295
595.6142 2916.2456 -296.38132 4294967295
597.74438 2916.8538 -296.98706 4294967295
600.71393 2917.0784 -296.67615 4294967295
613.948 2916.9729 -296.9826 4294967295
614.79633 2918.3262 -296.55035 4294967295
596.172 2942.0808 -296.87497 4294967295
593.5271 2911.9607 -295.55603 4294967295
593.81287 2913.917 -295.20029 4294967295
612.20099 2916.0933 -295.13681 4294967295
614.11017 2917.1431 -295.06009 4294967295
594.13757 2914.8914 -294.24036 4294967295
608.6485 2915.8962 -294.79547 4294967295
594.84302 2916.0154 -294.64545 4294967295
596.42615 2916.844 -294.83252 4294967295
598.57312 2917.1536 -294.99405 4294967295
605.37958 2916.4578 -294.75256 4294967295
615.53491 2920.8035 -294.76563 4294967295
595.86737 2942.9844 -294.53491 4294967295
596.14636 2942.0212 -294.76923 4294967295
597.32727 2940.4749 -294.73068 4294967295
610.81335 2915.9734 -293.17142 4294967295
600.58038 2917.27 -293.05936 4294967295
602.33533 2939.5747 -293.07733 4294967295
596.05115 2942.2451 -293.14328 4294967295
593.32593 2912.1199 -292.47803 4294967295
594.81128 2916.1777 -292.7215 4294967295
598.22382 2917.2717 -292.69025 4294967295
612.47736 2916.2471 -292.85034 4294967295
614.75671 2918.2883 -292.56671 4294967295
598.28253 2939.8772 -292.71735 4294967295
599.75342 2939.668 -292.49866 4294967295
605.47913 2939.9512 -292.8428 4294967295
596.95319 2940.6621 -292.79236 4294967295
607.62781 2940.3447 -292.93854 4294967295
598.75977 2917.501 -291.13882 4294967295
599.45282 2939.4922 -291.00632 4294967295
602.57141 2939.6802 -291.10416 4294967295
605.1825 2939.9749 -291.6572 4294967295
593.24377 2912.145 -290.94092 4294967295
594.09528 2915.1777 -290.92709 4294967295
595.11835 2916.4258 -290.86557 4294967295
596.1803 2917.0178 -290.32498 4294967295
612.44751 2916.325 -290.54449 4294967295
613.89374 2917.0532 -290.65063 4294967295
596.39514 2941.4316 -290.90985 4294967295
607.65814 2940.3538 -290.71246 4294967295
595.62402 2943.4839 -290.59692 4294967295
608.01691 2916.2151 -289.21869 4294967295
595.86774 2942.3625 -289.03931 4294967295
608.13885 2940.4053 -289.1701 4294967295
593.034 2912.0657 -288.89307 4294967295
593.50348 2914.1499 -288.90851 4294967295
594.07794 2915.4414 -288.87222 4294967295
595.04083 2916.5571 -288.36917 4294967295
596.33478 2917.1636 -288.88544 4294967295
598.53741 2917.5474 -288.95078 4294967295
610.82446 2916.0852 -288.95605 4294967295
615.44977 2920.7151 -288.95938 4294967295
615.67059 2926.9897 -288.86014 4294967295
599.51819 2939.5779 -288.91269 4294967295
601.69269 2939.7051 -288.52734 4294967295
597.20557 2940.551 -288.84164 4294967295
598.30072 2940.0286 -288.90311 4294967295
605.72064 2940.2017 -288.73801 4294967295
596.02435 2917.168 -287.02737 4294967295
605.17053 2940.2642 -287.10315 4294967295
607.54163 2940.4507 -287.47662 4294967295
593.03882 2912.2224 -286.91757 4294967295
593.60736 2914.6501 -286.68683 4294967295
595.1402 2916.8059 -286.40356 4294967295
600.75891 2917.5264 -286.97226 4294967295
608.49982 2916.2341 -286.65024 4294967295
610.54877 2916.1428 -286.94199 4294967295
613.80579 2917.0664 -286.96631 4294967295
615.0589 2918.9744 -286.90121 4294967295
615.66888 2921.9019 -286.67099 4294967295
599.75208 2939.8855 -286.95422 4294967295
595.80334 2942.4192 -286.94968 4294967295
596.89551 2940.8228 -286.85391 4294967295
603.13013 2940.0254 -286.76688 4294967295
595.27759 2944.5896 -286.77719 4294967295
592.8042 2911.7283 -285.02859 4294967295
593.25659 2914.1001 -285.15894 4294967295
594.94159 2916.708 -285.10815 4294967295
593.72247 2915.1846 -284.46426 4294967295
596.30267 2917.4001 -284.8978 4294967295
598.32153 2917.8765 -284.87674 4294967295
608.13873 2916.3757 -284.79324 4294967295
610.79437 2916.2336 -284.80045 4294967295
613.94031 2917.259 -284.66928 4294967295
615.52338 2924.1882 -284.76685 4294967295
600.15649 2939.9351 -284.59341 4294967295
596.56793 2941.0891 -284.66177 4294967295
598.46063 2940.1675 -284.82648 4294967295
602.82086 2940.0457 -284.91461 4294967295
605.46014 2940.365 -284.57407 4294967295
595.2774 2944.5703 -284.85248 4294967295
593.14777 2914.0811 -283.12128 4294967295
594.75061 2916.7134 -283.06265 4294967295
600.14539 2939.8062 -283.06769 4294967295
595.64612 2942.4146 -283.0257 4294967295
596.54297 2941.1223 -283.09668 4294967295
593.55133 2915.1489 -282.48114 4294967295
596.34058 2917.5051 -282.77911 4294967295
598.19519 2940.2969 -282.77936 4294967295
603.46637 2940.2192 -282.81287 4294967295
594.93689 2945.5242 -282.73987 4294967295
593.00183 2913.9556 -281.19046 4294967295
596.42206 2917.5974 -281.15076 4294967295
595.49896 2942.6462 -281.1987 4294967295
598.13019 2940.3772 -281.31964 4294967295
595.20258 2943.5164 -281.11969 4294967295
593.57574 2915.4258 -280.73431 4294967295
615.53522 2921.6194 -280.94434 4294967295
597.00043 2940.8418 -280.69412 4294967295
602.59851 2940.1934 -280.86722 4294967295
594.85217 2945.1748 -280.66864 4294967295
596.57623 2917.8667 -279.1488 4294967295
603.40338 2940.3679 -279.02356 4294967295
607.62903 2940.7026 -279.20352 4294967295
615.67059 2937.2075 -278.84848 4294967295
595.5058 2942.5759 -278.58667 4294967295
596.45068 2941.1597 -278.88919 4294967295
598.12128 2940.5061 -278.53775 4294967295
600.13849 2940.0044 -278.9855 4294967295
594.77679 2945.0229 -278.94254 4294967295
596.6861 2941.1511 -277.03806 4294967295
592.72449 2914.1362 -276.97147 4294967295
614.69373 2939.0623 -276.87119 4294967295
615.56061 2937.626 -276.80835 4294967295
598.03149 2940.5906 -276.77972 4294967295
612.70404 2940.5471 -276.93347 4294967295
594.69427 2945.0117 -276.69104 4294967295
595.05731 2943.5925 -276.80328 4294967295
602.73273 2940.4302 -275.18817 4294967295
612.68689 2940.4097 -275.07321 4294967295
594.62799 2945.2629 -275.19278 4294967295
596.48077 2918.0632 -274.72339 4294967295
616.04413 2933.7942 -274.93015 4294967295
615.94751 2936.1387 -274.55646 4294967295
615.58032 2937.6692 -274.89478 4294967295
595.36279 2942.6682 -274.62018 4294967295
596.35052 2941.2913 -274.66299 4294967295
598.38281 2940.5664 -274.65945 4294967295
600.39618 2940.186 -274.78162 4294967295
607.42181 2940.8203 -274.85056 4294967295
610.5567 2940.8428 -274.97815 4294967295
592.44031 2914.0295 -273.10257 4294967295
615.88037 2933.5918 -273.16989 4294967295
614.64233 2939.2771 -273.83173 4294967295
599.95496 2940.2031 -273.01465 4294967295
612.7851 2940.4019 -273.03979 4294967295
614.57239 2939.282 -272.85449 4294967295
615.46393 2937.8557 -272.75586 4294967295
595.41339 2942.46 -272.70493 4294967295
597.26843 2940.9231 -272.72446 4294967295
598.0777 2940.6646 -272.70477 4294967295
608.12555 2940.9329 -272.845 4294967295
610.77063 2940.9812 -272.72311 4294967295
594.51978 2945.2512 -272.80911 4294967295
594.96552 2948.1387 -272.80792 4294967295
592.86267 2915.3677 -271.14075 4294967295
597.00574 2941.1121 -271.02252 4294967295
600.33252 2940.3015 -271.0582 4294967295
594.65387 2945.4194 -271.31543 4294967295
593.85394 2916.615 -270.96255 4294967295
596.14038 2918.1936 -270.93634 4294967295
611.51892 2917.2456 -270.17242 4294967295
615.64117 2933.5774 -270.85181 4294967295
615.67755 2936.0356 -270.60016 4294967295
614.59906 2939.136 -270.67148 4294967295
615.32098 2937.9468 -270.82794 4294967295
595.63953 2942.0938 -270.80774 4294967295
608.08795 2941.0247 -270.79062 4294967295
610.44489 2941.0347 -270.70346 4294967295
613.36072 2940.0908 -270.48901 4294967295
594.86298 2943.7017 -270.68188 4294967295
598.32977 2918.3992 -269.15192 4294967295
615.43024 2933.4153 -269.04419 4294967295
615.49536 2936.3379 -269.02002 4294967295
595.4765 2942.2886 -269.05817 4294967295
592.49817 2914.7266 -268.86484 4294967295
594.20428 2917.1746 -268.75562 4294967295
596.22034 2918.3389 -268.91611 4294967295
601.01605 2918.1467 -268.5105 4294967295
615.15216 2921.5815 -268.52271 4294967295
615.01733 2924.3254 -268.79425 4294967295
614.36377 2939.2209 -268.76181 4294967295
615.17261 2937.8862 -268.91623 4294967295
597.02795 2941.1848 -268.87537 4294967295
598.22058 2940.8257 -268.94186 4294967295
610.77368 2941.0251 -268.99292 4294967295
594.33972 2945.1328 -268.80869 4294967295
592.76483 2915.4241 -267.12469 4294967295
593.64044 2916.8347 -267.04034 4294967295
596.37732 2918.238 -267.00769 4294967295
611.25732 2917.3425 -267.30844 4294967295
614.82733 2929.1846 -267.09854 4294967295
615.0672 2937.668 -267.22034 4294967295
611.42609 2940.9382 -267.13977 4294967295
594.61047 2947.8489 -267.08618 4294967295
598.49518 2918.4583 -266.73276 4294967295
601.2774 2918.1777 -266.89926 4294967295
611.6297 2917.5066 -266.37488 4294967295
613.67139 2918.7634 -266.70239 4294967295
614.2807 2919.7617 -266.8988 4294967295
614.81866 2926.5557 -266.8161 4294967295
614.95874 2931.083 -266.8739 4294967295
615.24115 2933.5208 -266.62299 4294967295
615.31555 2936.0767 -266.69266 4294967295
595.4624 2942.3513 -266.9086 4294967295
596.97205 2941.2786 -266.76892 4294967295
600.35797 2940.5808 -266.8819 4294967295
594.48511 2944.4341 -266.67657 4294967295
592.11279 2913.9524 -265.06348 4294967295
598.27411 2918.5332 -265.17587 4294967295
603.40503 2917.9512 -265.18668 4294967295
615.08453 2933.0972 -265.05884 4294967295
615.21027 2936.1836 -265.11707 4294967295
594.54059 2947.9512 -265.04062 4294967295
592.67407 2915.53 -264.87076 4294967295
596.50787 2918.3235 -264.98828 4294967295
605.84351 2917.5029 -264.90567 4294967295
608.42249 2917.0701 -264.40543 4294967295
611.72821 2917.593 -264.47168 4294967295
613.28839 2918.5215 -264.73642 4294967295
614.67841 2921.521 -264.87827 4294967295
614.87787 2924.085 -264.70172 4294967295
614.68756 2928.7646 -264.85062 4294967295
614.09003 2939.5283 -264.79532 4294967295
615.03436 2937.9126 -264.99823 4294967295
595.24402 2942.6418 -264.96286 4294967295
598.23981 2941.0374 -264.78201 4294967295
605.66406 2941.2617 -264.71777 4294967295
607.66907 2941.2954 -264.95657 4294967295
611.04773 2941.0894 -264.70721 4294967295
594.43347 2944.9866 -264.74683 4294967295
592.69598 2915.7173 -263.25784 4294967295
601.54462 2918.2153 -263.08087 4294967295
614.78644 2924.2644 -263.01419 4294967295
600.3786 2940.8157 -263.00961 4294967295
592.01123 2913.7947 -262.19342 4294967295
593.65759 2917.0403 -262.95404 4294967295
595.12616 2917.998 -262.96005 4294967295
596.52911 2918.4995 -262.99506 4294967295
598.26184 2918.7375 -262.97177 4294967295
603.31464 2918.0305 -262.93536 4294967295
610.45947 2917.1868 -262.9064 4294967295
611.74603 2917.7195 -262.81247 4294967295
613.23834 2918.8337 -262.78656 4294967295
613.94629 2919.9436 -262.67001 4294967295
614.59869 2926.8589 -262.99103 4294967295
614.69177 2930.8259 -262.65939 4294967295
615.03979 2933.7217 -262.86057 4294967295
615.07642 2936.1599 -262.80487 4294967295
613.67822 2939.5859 -262.81387 4294967295
614.75665 2937.7556 -262.73712 4294967295
595.32294 2942.5129 -262.95038 4294967295
597.1543 2941.4109 -262.74585 4294967295
608.039 2941.4607 -262.66492 4294967295
610.54449 2941.0896 -262.88266 4294967295
594.50281 2944.4216 -262.9342 4294967295
597.26288 2918.5491 -261.64798 4294967295
597.80121 2941.2954 -261.34207 4294967295
594.36963 2948.042 -261.16995 4294967295
591.69983 2911.4978 -260.8454 4294967295
591.88708 2914.3369 -260.73724 4294967295
593.74512 2917.2834 -260.92044 4294967295
595.2406 2918.1501 -260.83469 4294967295
600.95544 2918.4456 -260.58405 4294967295
603.73621 2917.9873 -260.79535 4294967295
605.39197 2917.8049 -260.47498 4294967295
608.73462 2917.094 -260.78137 4294967295
611.62006 2917.9077 -260.58398 4294967295
613.07678 2918.9934 -260.8942 4294967295
614.55237 2923.8533 -260.89114 4294967295
615.17035 2936.1614 -260.72961 4294967295
613.81036 2939.2935 -260.81711 4294967295
614.61304 2937.9097 -260.82343 4294967295
595.29047 2942.6169 -260.95645 4294967295
596.65875 2941.6494 -260.8725 4294967295
600.46155 2940.9441 -260.67841 4294967295
610.58411 2941.2502 -260.54514 4294967295
594.07941 2944.9207 -260.69083 4294967295
592.3595 2915.925 -259.16122 4294967295
596.37567 2918.5413 -259.2384 4294967295
598.92505 2918.751 -259.00717 4294967295
613.69843 2920.248 -259.11118 4294967295
613.84265 2939.1279 -259.03723 4294967295
600.38855 2941.061 -259.03049 4294967295
594.19867 2947.8098 -259.13464 4294967295
591.66577 2912.1606 -258.77728 4294967295
593.33875 2917.176 -258.56421 4294967295
610.2486 2917.553 -258.68021 4294967295
612.82953 2919.0222 -258.89716 4294967295
614.50122 2924.2598 -258.75705 4294967295
614.34088 2928.6921 -258.37552 4294967295
595.3891 2942.5652 -258.7435 4294967295
596.8985 2941.5244 -258.70032 4294967295
611.88715 2940.7458 -258.97906 4294967295
594.565 2943.8853 -258.87735 4294967295
592.26172 2915.7727 -257.02069 4294967295
594.8974 2918.3035 -257.12131 4294967295
599.19922 2918.7373 -257.06052 4294967295
608.4751 2917.3667 -257.24094 4294967295
614.96655 2936.0513 -257.04599 4294967295
591.88409 2914.5054 -256.83353 4294967295
593.2251 2917.4758 -256.99368 4294967295
612.67297 2918.9971 -256.81018 4294967295
613.10492 2939.8 -256.99393 4294967295
595.28162 2942.8118 -256.95285 4294967295
596.89276 2941.6365 -256.85205 4294967295
601.13226 2941.1689 -256.4129 4294967295
611.80603 2940.6414 -256.91965 4294967295
594.01544 2944.8613 -256.85107 4294967295
593.92029 2947.0054 -256.54196 4294967295
591.67352 2911.5745 -255.10992 4294967295
593.10992 2917.4028 -255.07524 4294967295
594.96448 2918.4397 -255.06273 4294967295
599.07422 2918.8218 -255.01079 4294967295
611.20819 2917.9348 -255.87274 4294967295
596.99182 2941.8022 -255.00162 4294967295
611.74994 2940.6665 -255.05939 4294967295
594.49426 2944.1116 -255.10205 4294967295
591.84369 2914.605 -254.74115 4294967295
592.19751 2915.9158 -254.88583 4294967295
596.17023 2918.7769 -254.66245 4294967295
603.50854 2918.2139 -254.82516 4294967295
605.94446 2917.8364 -254.98769 4294967295
609.12067 2917.3135 -254.79868 4294967295
612.49524 2918.656 -254.77234 4294967295
613.57898 2920.7524 -254.75484 4294967295
614.23883 2924.0486 -254.87071 4294967295
613.68866 2939.2056 -254.66959 4294967295
595.65948 2942.593 -254.86058 4294967295
598.41699 2941.3994 -254.97139 4294967295
608.00476 2941.7629 -254.84996 4294967295
594.0932 2945.5549 -254.80418 4294967295
593.86542 2947.168 -254.94084 4294967295
592.03351 2915.8738 -253.04716 4294967295
598.9696 2918.905 -253.34291 4294967295
595.33765 2943.0339 -253.08582 4294967295
593.76416 2947.4446 -253.01129 4294967295
591.50513 2914.1274 -252.87218 4294967295
592.97925 2917.5103 -252.71295 4294967295
595.7254 2918.9592 -252.60672 4294967295
603.70807 2918.1582 -252.79572 4294967295
606.00714 2917.8145 -252.60716 4294967295
609.55383 2917.4243 -252.69495 4294967295
610.35956 2917.6833 -252.5242 4294967295
613.53101 2920.666 -252.83936 4294967295
614.67871 2936.2422 -252.93375 4294967295
613.46198 2939.4365 -252.74551 4294967295
614.17865 2937.8672 -252.84137 4294967295
597.12158 2941.8889 -252.89603 4294967295
598.45996 2941.5107 -252.85959 4294967295
600.62012 2941.2559 -252.70938 4294967295
608.29102 2941.8547 -252.93044 4294967295
611.83154 2940.6785 -252.54185 4294967295
594.28644 2944.8826 -252.77914 4294967295
591.51001 2911.4204 -251.3385 4294967295
594.62762 2918.6526 -251.11504 4294967295
606.51715 2917.7383 -251.23625 4294967295
596.14374 2919.1272 -251.12025 4294967295
598.8302 2919.0254 -251.20772 4294967295
614.28918 2933.6123 -251.60059 4294967295
613.35327 2939.4016 -251.11586 4294967295
600.58429 2941.374 -251.07379 4294967295
608.396 2941.9509 -251.16199 4294967295
610.41846 2941.426 -251.01154 4294967295
594.43054 2944.4617 -251.28085 4294967295
594.33557 2950.1226 -251.02934 4294967295
591.45233 2914.7373 -250.9418 4294967295
591.89685 2916.0012 -250.89041 4294967295
601.26111 2918.7119 -250.2964 4294967295
603.19598 2918.3484 -250.86327 4294967295
609.15521 2917.645 -250.69026 4294967295
610.6767 2917.6213 -250.61931 4294967295
612.3811 2918.5862 -250.8616 4294967295
613.47235 2920.7227 -250.90663 4294967295
613.98236 2931.2456 -250.61681 4294967295
614.36023 2936.2473 -250.75804 4294967295
614.09723 2937.9167 -250.8226 4294967295
598.62958 2941.5596 -250.89836 4294967295
611.80176 2940.7522 -250.6721 4294967295
595.44385 2943.0208 -250.76617 4294967295
593.96295 2947.8296 -250.78731 4294967295
591.42456 2914.0684 -249.07153 4294967295
603.2605 2918.4158 -249.02971 4294967295
596.25769 2919.1184 -249.08635 4294967295
613.71942 2925.9275 -249.30815 4294967295
614.30859 2936.0422 -249.04106 4294967295
593.91022 2947.7581 -249.28702 4294967295
591.80579 2916.0396 -248.82271 4294967295
592.61432 2917.5486 -248.83435 4294967295
594.35583 2918.7295 -248.92722 4294967295
606.86298 2917.7942 -248.69385 4294967295
609.59253 2917.76 -248.70641 4294967295
610.79639 2917.8337 -248.7045 4294967295
612.54163 2918.7322 -248.45479 4294967295
598.61792 2919.1387 -248.92322 4294967295
613.81738 2923.0164 -248.82605 4294967295
614.12732 2933.5168 -248.71445 4294967295
613.49292 2939.1243 -248.85466 4294967295
614.06036 2937.8479 -248.87666 4294967295
597.16296 2942.0625 -248.97256 4294967295
598.27881 2941.7502 -248.78061 4294967295
600.51343 2941.373 -248.76511 4294967295
608.26733 2942.0361 -248.89928 4294967295
610.66388 2941.3918 -248.92235 4294967295
612.03516 2940.6667 -248.84148 4294967295
595.27332 2943.1729 -248.85126 4294967295
591.49792 2914.896 -247.12613 4294967295
598.91522 2919.1667 -247.05951 4294967295
608.70245 2942.0613 -247.0934 4294967295
593.96857 2945.7061 -247.36824 4294967295
593.20441 2918.2803 -246.96288 4294967295
594.36023 2918.8699 -246.74153 4294967295
603.41022 2918.4641 -246.76025 4294967295
606.37421 2918.0405 -246.61993 4294967295
609.37518 2917.895 -246.83995 4294967295
612.46576 2918.9285 -246.7585 4294967295
596.38177 2919.2314 -246.86469 4294967295
613.22198 2920.8059 -246.75688 4294967295
