# .PCD v0.7 - Point Cloud Data file format
VERSION 0.7
FIELDS x y z rgba
SIZE 4 4 4 4
TYPE F F F U
COUNT 1 1 1 1
WIDTH 1148
HEIGHT 1
VIEWPOINT 0 0 0 1 0 0 0
POINTS 1148
DATA ascii
449.43979 3614.6096 -711.81396 4294967295
451.14703 3614.541 -711.48932 4294967295
453.50204 3614.3447 -711.59583 4294967295
475.24063 3612.8506 -711.81525 4294967295
476.96378 3612.8394 -711.90479 4294967295
479.64081 3612.4543 -711.56274 4294967295
403.45148 3617.9041 -711.60443 4294967295
411.65851 3617.2593 -711.68457 4294967295
413.23633 3617.1401 -711.79944 4294967295
419.66129 3616.9258 -711.64246 4294967295
423.5899 3616.5774 -711.70319 4294967295
427.14886 3616.0405 -711.99146 4294967295
434.30435 3615.5156 -711.88116 4294967295
439.8248 3615.311 -711.59955 4294967295
443.37988 3615.0432 -711.79065 4294967295
366.99997 3620.5359 -711.76788 4294967295
381.72913 3619.3828 -711.51172 4294967295
383.34741 3619.3335 -711.81989 4294967295
387.53983 3619.0581 -711.74677 4294967295
389.64258 3618.95 -711.53729 4294967295
393.82339 3618.6216 -711.6969 4294967295
399.31 3618.291 -711.62531 4294967295
351.54962 3622.0415 -711.80658 4294967295
359.74069 3621.281 -711.35443 4294967295
361.46304 3621.053 -711.54663 4294967295
285.70331 3626.9124 -711.94611 4294967295
291.26614 3626.2512 -711.84674 4294967295
295.68451 3625.8923 -711.76886 4294967295
241.33299 3629.8687 -711.88672 4294967295
243.88818 3629.5625 -711.52374 4294967295
245.2906 3629.468 -711.63434 4294967295
249.53514 3629.1196 -711.68469 4294967295
251.40009 3629.0039 -711.39105 4294967295
253.65077 3629.0439 -711.54388 4294967295
255.54108 3629.0525 -711.57037 4294967295
265.81232 3628.3918 -711.6438 4294967295
271.35178 3627.9849 -711.99664 4294967295
275.31467 3627.5676 -711.96643 4294967295
277.8118 3627.4641 -711.64465 4294967295
279.37622 3627.3193 -711.98785 4294967295
281.42441 3627.2253 -711.91614 4294967295
283.27695 3627.0784 -711.92865 4294967295
201.61583 3632.7546 -711.94525 4294967295
203.77625 3632.5984 -711.96613 4294967295
205.88116 3632.4492 -711.97363 4294967295
207.42926 3632.3018 -711.9798 4294967295
213.53572 3631.7085 -711.87103 4294967295
233.98834 3630.2578 -711.7984 4294967295
239.93655 3630.075 -711.18475 4294967295
155.31364 3637.7034 -711.62177 4294967295
159.15535 3637.4126 -711.65985 4294967295
163.25507 3636.9102 -711.46936 4294967295
165.60477 3636.585 -711.10217 4294967295
607.61115 3580.6736 -710.10492 4294967295
563.74744 3584.2039 -710.19525 4294967295
615.2793 3582.345 -710.89612 4294967295
617.56 3583.4851 -710.35791 4294967295
519.65723 3586.6917 -710.01556 4294967295
545.5271 3585.2151 -710.17407 4294967295
465.66165 3590.1816 -710.00891 4294967295
469.47681 3589.9744 -710.13263 4294967295
477.64407 3589.52 -710.06073 4294967295
479.36896 3589.4089 -710.31506 4294967295
383.58273 3595.2285 -710.0722 4294967295
388.96524 3595.2283 -710.28009 4294967295
405.35587 3594.709 -710.88147 4294967295
413.35532 3594.4055 -710.95538 4294967295
415.17258 3594.2888 -710.96002 4294967295
619.89587 3597.7534 -710.25275 4294967295
295.22769 3602.2974 -710.02057 4294967295
617.44293 3602.9509 -710.87408 4294967295
619.54083 3600.1172 -710.5379 4294967295
610.01239 3605.8506 -710.12109 4294967295
614.12701 3604.8472 -710.64697 4294967295
231.30287 3607.0303 -710.29694 4294967295
235.59332 3606.343 -710.77283 4294967295
571.28448 3606.5559 -710.23303 4294967295
591.4295 3606.1282 -710.98804 4294967295
608.0567 3606.1492 -710.53058 4294967295
157.17564 3611.4363 -710.05432 4294967295
186.29259 3610.395 -710.60199 4294967295
189.47598 3610.23 -710.6521 4294967295
191.55226 3610.1436 -710.46716 4294967295
194.01103 3610.0142 -710.16278 4294967295
197.26074 3609.6602 -710.64471 4294967295
202.42203 3609.4287 -710.83069 4294967295
455.3147 3614.3579 -710.97784 4294967295
457.73511 3614.2305 -710.82867 4294967295
461.048 3613.8706 -710.65112 4294967295
412.60794 3617.7383 -710.27252 4294967295
415.72189 3617.5491 -710.37109 4294967295
416.29715 3617.271 -710.90009 4294967295
417.34378 3617.53 -710.30951 4294967295
421.62793 3617.2813 -710.3681 4294967295
425.6528 3616.8882 -710.58685 4294967295
427.45465 3616.696 -710.45538 4294967295
431.72839 3616.5657 -710.20654 4294967295
439.41235 3615.9924 -710.0072 4294967295
441.04318 3615.6604 -710.15143 4294967295
447.46432 3615.3562 -710.16235 4294967295
449.11349 3615.2002 -710.1026 4294967295
381.30847 3620.2637 -710.02936 4294967295
385.63013 3619.6836 -710.66388 4294967295
387.45358 3619.605 -710.39575 4294967295
389.30173 3619.4985 -710.43799 4294967295
391.22604 3619.2195 -710.67542 4294967295
393.4021 3619.0125 -710.39886 4294967295
395.11646 3618.9084 -710.4198 4294967295
397.35559 3618.9463 -710.46552 4294967295
354.96619 3622.2063 -710.77014 4294967295
359.20279 3621.7046 -710.3736 4294967295
361.10144 3621.4905 -710.58929 4294967295
363.32956 3621.3899 -710.35974 4294967295
365.12753 3621.1582 -710.5022 4294967295
296.98224 3626.3462 -710.83215 4294967295
313.65475 3625.2073 -710.38141 4294967295
259.79688 3629.5142 -710.28046 4294967295
261.49527 3629.3269 -710.4433 4294967295
263.49353 3629.2898 -710.23126 4294967295
265.23639 3629.2012 -710.07849 4294967295
269.38486 3628.7732 -710.32367 4294967295
275.69379 3628.3938 -710.06104 4294967295
281.30557 3627.7932 -710.52399 4294967295
229.10071 3631.0251 -710.03906 4294967295
173.23647 3635.7253 -710.93732 4294967295
175.59723 3635.4297 -710.61182 4294967295
179.19165 3635.0081 -710.87543 4294967295
181.69382 3634.6589 -710.58008 4294967295
183.55547 3634.4033 -710.61548 4294967295
187.03056 3633.9675 -710.1601 4294967295
191.1162 3633.5286 -710.1897 4294967295
194.49657 3633.2683 -710.43842 4294967295
162.40767 3637.0537 -710.17798 4294967295
166.85631 3636.4219 -710.57318 4294967295
169.49979 3636.1572 -710.7771 4294967295
611.93842 3580.8503 -709.93451 4294967295
613.59375 3580.7288 -709.36755 4294967295
615.62476 3581.1965 -709.66882 4294967295
549.80457 3584.9646 -709.85516 4294967295
617.52313 3582.1362 -709.72565 4294967295
619.63281 3583.8367 -709.55359 4294967295
505.20819 3587.6792 -709.67969 4294967295
507.29938 3587.5168 -709.49084 4294967295
509.54108 3587.5754 -709.52332 4294967295
511.36591 3587.2935 -709.43451 4294967295
515.26459 3587.2051 -709.60852 4294967295
523.59308 3586.553 -709.67816 4294967295
535.30017 3585.8706 -709.61316 4294967295
537.59979 3585.7373 -709.78149 4294967295
539.66272 3585.6677 -709.97034 4294967295
543.3631 3585.3569 -709.94556 4294967295
453.38635 3590.9109 -709.52307 4294967295
457.55121 3590.7593 -709.57001 4294967295
459.45605 3590.5425 -709.71735 4294967295
461.43225 3590.4585 -709.87158 4294967295
463.60361 3590.3342 -709.91742 4294967295
473.34418 3589.7173 -709.93616 4294967295
483.15457 3588.9802 -709.69751 4294967295
493.237 3588.6194 -709.02155 4294967295
413.55209 3593.9487 -709.69775 4294967295
414.68585 3593.9255 -709.91687 4294967295
417.25677 3593.7341 -709.61334 4294967295
421.06366 3593.502 -709.67554 4294967295
423.12009 3593.3818 -709.69391 4294967295
425.16037 3593.311 -709.97705 4294967295
429.02002 3593.0051 -709.75262 4294967295
431.48212 3592.8096 -709.71906 4294967295
433.32907 3592.7104 -709.71918 4294967295
435.37509 3592.541 -709.81934 4294967295
441.24832 3592.1028 -709.84808 4294967295
443.54169 3591.9031 -709.79834 4294967295
451.41425 3591.0967 -709.60406 4294967295
377.76404 3595.0034 -709.80048 4294967295
379.75995 3594.8108 -709.47607 4294967295
381.28897 3594.9487 -709.65375 4294967295
387.57611 3594.6882 -709.14893 4294967295
391.74228 3595.041 -709.96698 4294967295
393.64206 3595.0037 -709.90869 4294967295
397.08054 3594.8799 -709.63116 4294967295
399.54156 3594.7905 -709.53754 4294967295
403.35629 3594.6609 -709.53259 4294967295
406.9053 3594.4631 -709.76031 4294967295
323.67627 3599.9609 -709.96936 4294967295
325.55939 3599.7695 -709.78577 4294967295
327.54282 3599.6121 -709.7735 4294967295
331.29312 3599.2349 -709.65179 4294967295
333.37177 3599.0747 -709.53082 4294967295
335.47473 3598.9565 -709.57361 4294967295
336.91992 3598.8101 -709.4588 4294967295
339.77786 3598.7378 -709.57379 4294967295
341.88568 3598.8103 -709.664 4294967295
343.7435 3598.6384 -709.69489 4294967295
347.56436 3598.0193 -709.50989 4294967295
351.53928 3597.521 -709.66431 4294967295
353.46109 3597.4917 -709.48376 4294967295
355.86877 3597.292 -709.45831 4294967295
357.6185 3597.2898 -709.57947 4294967295
359.39081 3597.1331 -709.29706 4294967295
361.58411 3597.291 -709.45551 4294967295
621.87097 3597.7468 -709.23438 4294967295
285.39499 3602.8394 -709.65045 4294967295
289.32184 3602.7117 -709.79596 4294967295
293.51419 3602.1843 -709.78131 4294967295
297.66241 3601.748 -709.70154 4294967295
301.52051 3601.385 -709.68658 4294967295
304.26804 3601.1492 -709.65784 4294967295
307.23367 3600.8713 -709.48804 4294967295
311.05908 3600.6946 -709.8736 4294967295
315.23523 3600.5354 -709.38684 4294967295
319.43701 3600.238 -709.75885 4294967295
321.26898 3600.0935 -709.70673 4294967295
621.62921 3601.6831 -709.23962 4294967295
237.77248 3605.032 -709.26776 4294967295
263.20602 3604.53 -709.86969 4294967295
265.83786 3604.3159 -709.68793 4294967295
273.36316 3603.8745 -709.92847 4294967295
275.71555 3603.5791 -709.50171 4294967295
278.77808 3603.376 -709.88416 4294967295
281.78436 3603.0566 -709.47333 4294967295
593.29608 3605.9207 -709.03644 4294967295
599.36658 3605.9961 -709.2619 4294967295
615.96075 3604.5171 -709.94891 4294967295
619.53546 3603.1118 -709.52496 4294967295
208.06013 3608.8569 -709.70752 4294967295
211.23563 3608.365 -709.84857 4294967295
213.9397 3608.2007 -709.6936 4294967295
215.86223 3608.0691 -709.39508 4294967295
219.29695 3607.8831 -709.63171 4294967295
221.08476 3607.8337 -709.91376 4294967295
227.69783 3607.4758 -709.76477 4294967295
557.24481 3606.8989 -709.71484 4294967295
561.39514 3606.7654 -709.70453 4294967295
565.46881 3606.8047 -709.69788 4294967295
567.28979 3606.7368 -709.8786 4294967295
601.74384 3606.0168 -709.38916 4294967295
603.72064 3606.073 -709.72906 4294967295
605.74597 3606.1487 -709.84161 4294967295
159.80055 3611.4998 -709.17853 4294967295
199.67311 3609.6563 -709.91022 4294967295
202.93803 3609.4695 -709.82928 4294967295
205.80307 3609.0144 -709.76563 4294967295
497.63416 3611.5269 -709.77112 4294967295
501.41501 3611.2344 -709.50342 4294967295
503.21307 3611.0156 -709.64001 4294967295
511.50192 3610.4426 -709.88934 4294967295
513.9682 3610.3 -709.85889 4294967295
517.17426 3610.0344 -709.86279 4294967295
519.62598 3609.8306 -709.84747 4294967295
538.7514 3609.4641 -709.43604 4294967295
455.23962 3614.7996 -709.56104 4294967295
471.46503 3613.6465 -709.75403 4294967295
476.87466 3613.2776 -709.77246 4294967295
479.62125 3613.0894 -709.61725 4294967295
485.34225 3612.5325 -709.76929 4294967295
491.50842 3612.0767 -709.81989 4294967295
493.39084 3612.009 -709.72296 4294967295
443.42981 3615.7136 -709.98029 4294967295
451.26596 3615.0979 -709.88733 4294967295
385.66409 3620.7896 -709.1441 4294967295
388.89636 3620.2522 -709.38226 4294967295
391.53174 3620.4661 -709.04199 4294967295
393.36386 3620.2017 -709.19568 4294967295
395.51129 3620.1902 -709.06818 4294967295
401.35941 3619.2625 -709.64075 4294967295
403.60071 3619.354 -709.39282 4294967295
405.75885 3619.0627 -709.55115 4294967295
407.62732 3618.6787 -709.75061 4294967295
410.85013 3618.8271 -709.13275 4294967295
414.99118 3618.2788 -709.29749 4294967295
417.52484 3618.3696 -709.08142 4294967295
421.38968 3618.2258 -709.03143 4294967295
353.30423 3623.0432 -709.98035 4294967295
355.47589 3623.0447 -709.5321 4294967295
357.64841 3622.6062 -709.4975 4294967295
359.5343 3622.1655 -709.65063 4294967295
363.27963 3622.2249 -709.20544 4294967295
365.70776 3622.2512 -709.00415 4294967295
383.21896 3621.1853 -709.04785 4294967295
351.69174 3624.6096 -709.18402 4294967295
249.66103 3629.8125 -709.89819 4294967295
254.99182 3629.9709 -709.38434 4294967295
258.80328 3629.9536 -709.42542 4294967295
203.82188 3632.9622 -709.66888 4294967295
207.30118 3632.8535 -709.56854 4294967295
209.51358 3632.5842 -709.87335 4294967295
211.5842 3632.5088 -709.7464 4294967295
215.45752 3632.2141 -709.78406 4294967295
216.65665 3632.489 -709.23413 4294967295
221.42589 3631.6104 -709.81372 4294967295
230.92982 3631.177 -709.56964 4294967295
233.9482 3630.8459 -709.77472 4294967295
237.46275 3630.5354 -709.44769 4294967295
239.51671 3630.4758 -709.80621 4294967295
241.73178 3630.3831 -709.70862 4294967295
243.4882 3630.2207 -709.86432 4294967295
245.42909 3630.1448 -709.77661 4294967295
247.40631 3630.2356 -709.34247 4294967295
198.24637 3633.1982 -709.79645 4294967295
199.58577 3633.3511 -709.65131 4294967295
201.76646 3633.28 -709.5401 4294967295
205.44113 3633.0066 -709.64935 4294967295
619.62134 3581.9727 -708.79443 4294967295
547.62817 3584.6787 -708.09174 4294967295
503.52133 3587.6912 -708.01154 4294967295
449.24307 3590.9771 -708.4707 4294967295
453.45074 3590.4197 -708.38489 4294967295
455.64081 3590.3137 -708.3797 4294967295
457.58813 3590.2065 -708.44977 4294967295
459.41528 3590.0645 -708.46997 4294967295
461.49271 3589.9573 -708.49384 4294967295
463.6951 3589.8218 -708.60309 4294967295
467.29858 3589.6143 -708.68683 4294967295
469.87579 3589.4373 -708.59485 4294967295
471.42709 3589.3665 -708.59589 4294967295
475.32208 3589.0608 -708.40942 4294967295
477.30753 3588.9541 -708.53186 4294967295
481.13266 3588.8596 -708.61877 4294967295
485.397 3588.5264 -708.21222 4294967295
487.33786 3588.887 -708.89532 4294967295
491.47922 3588.7029 -708.8219 4294967295
419.22537 3592.7363 -708.01447 4294967295
421.15607 3592.6946 -708.06708 4294967295
425.81186 3592.7383 -708.67749 4294967295
427.51352 3592.6475 -708.68994 4294967295
429.52942 3592.4282 -708.46674 4294967295
432.90839 3592.2722 -708.56213 4294967295
435.38254 3592.02 -708.54907 4294967295
437.48755 3591.842 -708.71069 4294967295
439.25534 3591.2578 -708.06036 4294967295
447.24939 3591.1619 -708.57281 4294967295
349.80148 3596.55 -708.09943 4294967295
355.12012 3596.4397 -708.23199 4294967295
357.5621 3596.3315 -708.08167 4294967295
359.15311 3596.4675 -708.31219 4294967295
363.35864 3596.3701 -708.0896 4294967295
365.43616 3596.2664 -708.20166 4294967295
381.50061 3594.3223 -708.61725 4294967295
383.56931 3594.3713 -708.64001 4294967295
385.29962 3594.2556 -708.41974 4294967295
393.4368 3594.2517 -708.52557 4294967295
395.46338 3594.3352 -708.56995 4294967295
397.04019 3594.4285 -708.69885 4294967295
401.37793 3594.45 -708.68927 4294967295
407.53275 3594.1309 -708.43048 4294967295
313.49976 3599.9539 -708.22961 4294967295
319.595 3599.5527 -708.09558 4294967295
323.67538 3599.0027 -708.18219 4294967295
329.56342 3598.5042 -708.11346 4294967295
333.58151 3598.2922 -708.22375 4294967295
337.23605 3598.3474 -708.52014 4294967295
341.14713 3598.1321 -708.1181 4294967295
343.66989 3598.0698 -708.45935 4294967295
623.51819 3597.6782 -708.35968 4294967295
275.37836 3602.8755 -708.01563 4294967295
279.00409 3602.9509 -708.66687 4294967295
281.27963 3602.7009 -708.54865 4294967295
283.47675 3602.4773 -708.42657 4294967295
285.27701 3602.3923 -708.53809 4294967295
287.77689 3602.2185 -708.66846 4294967295
291.31201 3601.8528 -708.52979 4294967295
294.91998 3601.7566 -708.74249 4294967295
297.64407 3600.9207 -708.24158 4294967295
299.19107 3600.7173 -708.13184 4294967295
301.60089 3600.5837 -708.17896 4294967295
307.6792 3600.0996 -708.11517 4294967295
309.2912 3600.2861 -708.66962 4294967295
621.20105 3602.9414 -708.79865 4294967295
623.98975 3600.0349 -708.28741 4294967295
261.6474 3604.1572 -708.53613 4294967295
271.05084 3603.6978 -708.63745 4294967295
273.61856 3603.3528 -708.63116 4294967295
585.25385 3605.9915 -708.58191 4294967295
587.30322 3605.9023 -708.31488 4294967295
616.28223 3605.0173 -708.09283 4294967295
211.12843 3608.1421 -708.18616 4294967295
219.17688 3607.6743 -708.09222 4294967295
224.52618 3607.3828 -708.61047 4294967295
227.53563 3607.0383 -708.09674 4294967295
229.6877 3607.0615 -708.92181 4294967295
551.39691 3607.9871 -708.33264 4294967295
575.02417 3606.4617 -708.05682 4294967295
503.65799 3611.6736 -708.50409 4294967295
505.42834 3611.5461 -708.55469 4294967295
510.52585 3610.9456 -708.77911 4294967295
514.05072 3611.1841 -708.28815 4294967295
517.67139 3610.8096 -708.35681 4294967295
540.62195 3610.6951 -708.04047 4294967295
543.60663 3610.364 -708.05646 4294967295
545.60767 3609.1743 -708.70416 4294967295
457.55484 3614.9456 -708.88916 4294967295
461.60748 3614.7549 -708.46118 4294967295
473.23273 3614.2646 -708.1651 4294967295
481.25687 3613.4192 -708.59137 4294967295
487.55557 3613.3242 -708.10938 4294967295
489.45697 3613.1367 -708.21478 4294967295
491.30295 3612.9197 -708.38062 4294967295
493.3678 3612.9258 -708.22882 4294967295
495.48148 3612.8169 -708.1604 4294967295
497.24429 3612.5313 -708.29163 4294967295
431.56134 3617.8208 -708.77771 4294967295
433.49637 3617.5779 -708.75024 4294967295
437.55615 3616.8918 -708.91351 4294967295
439.33655 3616.8979 -708.85773 4294967295
443.48312 3616.8618 -708.57025 4294967295
445.35077 3616.5281 -708.72449 4294967295
449.45148 3616.1389 -708.60565 4294967295
451.32602 3615.8047 -708.71606 4294967295
452.92197 3615.4883 -708.87585 4294967295
455.65067 3615.4609 -708.47473 4294967295
533.86743 3617.0793 -708.22772 4294967295
399.4397 3620.1335 -708.95471 4294967295
401.0784 3620.7244 -708.55695 4294967295
403.77692 3620.6997 -708.47424 4294967295
405.65842 3620.6006 -708.46765 4294967295
409.1102 3620.3281 -708.38818 4294967295
413.17096 3619.9465 -708.15302 4294967295
418.01553 3620.061 -708.13892 4294967295
419.76398 3619.4014 -708.4248 4294967295
423.36438 3619.105 -708.47131 4294967295
425.31458 3619.1362 -708.44647 4294967295
429.43335 3618.3921 -708.55737 4294967295
435.73965 3618.7031 -708.02014 4294967295
358.98221 3623.9446 -708.61554 4294967295
361.31207 3623.8611 -708.30334 4294967295
365.68863 3623.6404 -708.22797 4294967295
380.439 3621.9194 -708.78271 4294967295
383.4494 3623.658 -708.16888 4294967295
385.71594 3622.1089 -708.44592 4294967295
387.53262 3623.7744 -708.1087 4294967295
389.37128 3623.7468 -708.07446 4294967295
390.0079 3621.8572 -708.39606 4294967295
391.27625 3621.9119 -708.32562 4294967295
394.83676 3621.833 -708.29779 4294967295
397.57629 3621.9336 -708.20313 4294967295
399.65741 3622.0688 -708.14203 4294967295
400.65942 3621.8701 -708.20093 4294967295
403.41534 3621.9578 -708.1004 4294967295
316.97729 3625.9634 -708.97437 4294967295
352.8541 3626.0359 -708.43341 4294967295
354.82172 3624.6863 -708.73822 4294967295
355.46738 3625.657 -708.43909 4294967295
357.38907 3624.3994 -708.60999 4294967295
358.6106 3626.396 -708.16754 4294967295
361.48074 3625.678 -708.16553 4294967295
387.36533 3625.8184 -708.15082 4294967295
391.42923 3626.002 -708.18134 4294967295
395.05054 3626.2852 -708.28101 4294967295
397.35199 3626.4941 -708.3092 4294967295
399.78842 3626.2522 -708.22827 4294967295
401.37039 3626.2405 -708.2229 4294967295
403.15152 3626.3323 -708.24524 4294967295
271.90396 3629.3081 -708.9621 4294967295
273.4881 3629.2761 -708.86212 4294967295
275.5101 3629.2844 -708.77051 4294967295
277.44778 3629.0483 -708.91711 4294967295
279.5632 3628.907 -708.9635 4294967295
281.82852 3628.9268 -708.80988 4294967295
283.19177 3628.7197 -708.9137 4294967295
297.19797 3627.8149 -708.87042 4294967295
305.49457 3627.9385 -708.35748 4294967295
308.75262 3627.9507 -708.10681 4294967295
311.3996 3627.2439 -708.38031 4294967295
313.31207 3627.1321 -708.3609 4294967295
315.15732 3627.7102 -708.00641 4294967295
355.39896 3628.4236 -708.35596 4294967295
358.82428 3628.2156 -708.1969 4294967295
397.64297 3628.5815 -708.6084 4294967295
227.26169 3631.874 -708.64606 4294967295
231.87924 3631.729 -708.367 4294967295
233.19328 3631.4958 -708.58026 4294967295
235.00331 3631.5325 -708.31824 4294967295
237.29915 3631.3137 -708.42957 4294967295
241.40512 3631.0583 -708.61792 4294967295
243.26086 3631.0186 -708.5387 4294967295
245.57343 3630.9561 -708.52039 4294967295
249.86691 3630.6372 -708.54761 4294967295
251.40512 3630.7795 -708.37195 4294967295
253.55 3630.4458 -708.68378 4294967295
257.79657 3630.7476 -708.56433 4294967295
262.02753 3630.8357 -708.37317 4294967295
263.22729 3630.3391 -708.7309 4294967295
309.56107 3632.2305 -708.07599 4294967295
311.29745 3632.1763 -708.10608 4294967295
313.41275 3632.0459 -708.08844 4294967295
315.3277 3632.269 -708.1391 4294967295
171.39539 3635.9243 -708.92407 4294967295
173.31743 3635.666 -708.67731 4294967295
175.61526 3635.4241 -708.66174 4294967295
177.62288 3635.2043 -708.7337 4294967295
178.9433 3635.0515 -708.28784 4294967295
181.67424 3634.6987 -708.16168 4294967295
189.79324 3633.9602 -708.03436 4294967295
193.68929 3633.9998 -708.10266 4294967295
197.96089 3633.7478 -708.26093 4294967295
201.03418 3633.8574 -708.37122 4294967295
209.6413 3633.2581 -708.4411 4294967295
211.28635 3633.0679 -708.6853 4294967295
213.40202 3633.2156 -708.2373 4294967295
165.76823 3636.552 -708.78589 4294967295
169.44876 3636.1428 -708.90234 4294967295
609.69397 3580.3604 -707.6546 4294967295
611.74615 3580.3875 -707.9787 4294967295
615.79053 3580.291 -707.78131 4294967295
619.59467 3580.8164 -707.77344 4294967295
621.64392 3581.3311 -707.30566 4294967295
545.8349 3584.7334 -707.94562 4294967295
547.65479 3584.2786 -707.07886 4294967295
549.67786 3584.6367 -707.85803 4294967295
563.45905 3584.05 -707.90723 4294967295
565.56927 3583.8484 -707.9646 4294967295
505.5025 3587.3506 -707.83539 4294967295
507.34509 3587.197 -707.73016 4294967295
509.40283 3587.1284 -707.80872 4294967295
511.17673 3586.9617 -707.55048 4294967295
513.78949 3586.832 -707.46161 4294967295
517.4248 3586.5713 -707.55798 4294967295
519.698 3586.365 -707.7652 4294967295
535.20691 3585.4922 -707.36993 4294967295
537.50305 3585.4072 -707.6098 4294967295
541.40259 3585.0676 -707.89819 4294967295
435.44064 3590.9824 -707.25549 4294967295
437.57138 3590.6521 -707.25177 4294967295
441.54742 3590.7559 -707.77875 4294967295
445.38565 3589.7734 -707.06488 4294967295
461.25665 3588.9719 -707.04498 4294967295
463.98181 3588.7954 -707.13525 4294967295
467.23105 3588.5347 -707.09753 4294967295
471.65018 3588.4692 -707.13916 4294967295
473.38721 3588.3245 -707.0108 4294967295
476.88251 3588.156 -707.07855 4294967295
377.68561 3593.0388 -707.37042 4294967295
381.45807 3593.0215 -707.40387 4294967295
383.50009 3593.0178 -707.4032 4294967295
385.36542 3592.8999 -707.39502 4294967295
387.53424 3593.4031 -707.82379 4294967295
391.17679 3593.2688 -707.67786 4294967295
395.32535 3593.2166 -707.46936 4294967295
397.43848 3593.4045 -707.35602 4294967295
399.25452 3593.7117 -707.50275 4294967295
401.54218 3593.4937 -707.32996 4294967295
405.70746 3593.303 -707.46606 4294967295
409.64618 3592.9473 -707.40411 4294967295
411.42877 3592.5125 -707.44232 4294967295
413.1701 3592.9888 -707.94763 4294967295
415.16748 3592.8071 -707.87903 4294967295
417.63086 3592.1025 -707.49896 4294967295
421.59833 3591.3855 -707.02667 4294967295
423.48776 3592.4004 -707.8858 4294967295
425.60883 3591.4485 -707.177 4294967295
427.56989 3591.3616 -707.18982 4294967295
429.40961 3591.3406 -707.17365 4294967295
431.423 3591.2891 -707.18713 4294967295
433.46039 3591.0808 -707.16669 4294967295
341.41367 3596.7441 -707.32635 4294967295
343.80753 3596.5178 -707.41925 4294967295
345.38876 3596.6545 -707.51379 4294967295
347.4465 3595.9287 -707.36188 4294967295
351.48331 3595.8452 -707.55762 4294967295
353.45483 3595.2102 -707.34424 4294967295
355.68152 3595.0251 -707.26141 4294967295
357.72379 3595.2627 -707.3689 4294967295
361.53433 3595.106 -707.34222 4294967295
363.5994 3595.1528 -707.41302 4294967295
623.7027 3594.9226 -707.64539 4294967295
299.20419 3599.3618 -707.06232 4294967295
301.21402 3599.1929 -707.11304 4294967295
303.32446 3599.198 -707.17139 4294967295
307.22906 3599.0881 -707.29669 4294967295
309.75824 3599.1726 -707.46771 4294967295
311.5329 3598.3982 -707.08386 4294967295
315.19736 3598.2891 -707.15369 4294967295
321.19821 3599.0571 -707.9519 4294967295
323.17892 3597.709 -707.03802 4294967295
327.46353 3598.5266 -707.98474 4294967295
331.31085 3597.1785 -707.26135 4294967295
333.38556 3597.1782 -707.32123 4294967295
335.51349 3597.4856 -707.60876 4294967295
271.27026 3602.6033 -707.36151 4294967295
274.03955 3602.3 -707.22595 4294967295
277.64139 3602.489 -707.78528 4294967295
281.38016 3601.5129 -707.11249 4294967295
285.47263 3601.2988 -707.13501 4294967295
287.55042 3601.3669 -707.35016 4294967295
289.4071 3600.5642 -707.00519 4294967295
291.53796 3600.4172 -707.11603 4294967295
293.31232 3600.7974 -707.54633 4294967295
295.25793 3600.4014 -707.42395 4294967295
231.57991 3605.5579 -707.10541 4294967295
233.82678 3605.0615 -707.586 4294967295
237.59435 3603.7278 -707.84735 4294967295
261.55508 3603.1716 -707.05408 4294967295
269.7363 3603.1863 -707.91205 4294967295
597.24396 3605.7173 -707.00592 4294967295
601.44073 3605.7715 -707.15515 4294967295
603.33801 3605.7446 -707.28473 4294967295
605.68909 3605.897 -707.737 4294967295
612.0415 3605.8401 -707.77173 4294967295
613.67505 3605.5171 -707.98492 4294967295
617.99744 3604.5437 -707.99512 4294967295
619.80463 3604.1589 -707.83679 4294967295
621.62238 3603.9114 -707.35828 4294967295
623.26074 3603.062 -707.63226 4294967295
203.77377 3608.9438 -707.68988 4294967295
205.61481 3608.7891 -707.91962 4294967295
208.02319 3607.9954 -707.1463 4294967295
213.96887 3607.8008 -707.73761 4294967295
217.49191 3607.7119 -707.98962 4294967295
223.58867 3607.3713 -707.99292 4294967295
559.224 3607.5295 -707.76862 4294967295
561.33295 3607.397 -707.70911 4294967295
565.3905 3607.1584 -707.92841 4294967295
567.29095 3607.1438 -707.84137 4294967295
569.19354 3607.0703 -707.82715 4294967295
571.48047 3606.9729 -707.78229 4294967295
573.2514 3606.8386 -707.72144 4294967295
539.5058 3611.1665 -707.61646 4294967295
545.16809 3610.5154 -707.36395 4294967295
549.3009 3609.2651 -707.24121 4294967295
479.28708 3614.4648 -707.7218 4294967295
491.27286 3614.4727 -707.09778 4294967295
493.63873 3614.4827 -707.06769 4294967295
495.63007 3614.4373 -707.00989 4294967295
501.28445 3612.5908 -707.70587 4294967295
504.9895 3612.3682 -707.44672 4294967295
508.9418 3612.0164 -707.513 4294967295
513.26025 3612.1042 -707.19696 4294967295
449.57806 3617.9351 -707.54175 4294967295
451.04843 3616.7551 -707.95416 4294967295
454.13272 3616.8643 -707.72424 4294967295
455.73502 3617.7161 -707.38055 4294967295
456.03036 3616.5527 -707.71942 4294967295
457.55609 3617.7358 -707.34039 4294967295
459.26147 3616.4358 -707.6618 4294967295
461.19693 3617.7676 -707.34766 4294967295
462.94769 3617.6362 -707.3667 4294967295
465.15701 3616.5662 -707.43958 4294967295
467.32388 3616.239 -707.43744 4294967295
477.5759 3615.8784 -707.11206 4294967295
534.4411 3617.0913 -707.48761 4294967295
535.62817 3617.6233 -707.71875 4294967295
536.85565 3617.6062 -707.85114 4294967295
537.82007 3616.9995 -707.23889 4294967295
538.52899 3617.3535 -707.29236 4294967295
439.88016 3619.9546 -707.49738 4294967295
440.28247 3618.4993 -707.85919 4294967295
441.28793 3618.4851 -707.81824 4294967295
443.54785 3619.6707 -707.44067 4294967295
445.38562 3619.5693 -707.39923 4294967295
446.92664 3618.0786 -707.6936 4294967295
447.06866 3619.6833 -707.3855 4294967295
449.41821 3619.0535 -707.3678 4294967295
451.25797 3619.0178 -707.3205 4294967295
453.43552 3618.9141 -707.30103 4294967295
455.39304 3620.364 -707.1579 4294967295
457.5188 3620.0681 -707.24341 4294967295
459.38245 3619.9021 -707.17194 4294967295
461.54022 3619.9751 -707.20496 4294967295
463.07956 3620.4624 -707.26691 4294967295
537.32196 3619.0759 -707.09015 4294967295
393.1922 3623.7253 -707.88763 4294967295
397.1814 3623.7375 -707.86322 4294967295
400.57877 3623.9878 -707.83875 4294967295
403.66187 3623.7981 -707.94019 4294967295
407.3302 3622.896 -707.92578 4294967295
408.86929 3621.8945 -707.97931 4294967295
411.83896 3621.7219 -707.94226 4294967295
412.03766 3623.9021 -707.85944 4294967295
415.81461 3621.3435 -707.73993 4294967295
419.58264 3621.6838 -707.82153 4294967295
437.42868 3621.8845 -707.47827 4294967295
439.66724 3621.9326 -707.48816 4294967295
441.45132 3621.6638 -707.29919 4294967295
443.36282 3622.0508 -707.39514 4294967295
445.87674 3621.7261 -707.42834 4294967295
453.36417 3621.9292 -707.41046 4294967295
362.93777 3625.4539 -707.97058 4294967295
381.94733 3624.2017 -707.97778 4294967295
405.32956 3624.0271 -707.97571 4294967295
409.30798 3624.0134 -707.82788 4294967295
306.09729 3629.8289 -707.81531 4294967295
309.20761 3629.4678 -707.76416 4294967295
311.19263 3629.5181 -707.74957 4294967295
313.2912 3629.5518 -707.73596 4294967295
315.05472 3629.6746 -707.7453 4294967295
317.18726 3628.9883 -707.75348 4294967295
320.57208 3628.1565 -707.94452 4294967295
225.55217 3632.6201 -707.91248 4294967295
235.1759 3632.6948 -707.3645 4294967295
237.28876 3632.6816 -707.33081 4294967295
239.36188 3632.5635 -707.43359 4294967295
242.90442 3632.573 -707.45801 4294967295
246.93771 3632.729 -707.47241 4294967295
249.70233 3632.3875 -707.56421 4294967295
253.24541 3632.5115 -707.565 4294967295
255.6774 3632.5393 -707.5412 4294967295
257.37064 3632.3555 -707.62744 4294967295
263.22635 3632.1096 -707.6955 4294967295
265.54965 3631.7874 -707.6413 4294967295
267.41907 3630.8296 -707.75171 4294967295
268.71799 3631.3264 -707.51099 4294967295
275.26892 3630.6565 -707.89868 4294967295
277.44305 3631.1008 -707.73035 4294967295
280.28668 3630.3691 -707.99139 4294967295
281.74106 3630.3384 -707.92603 4294967295
183.95107 3634.4194 -707.96545 4294967295
187.32596 3634.2539 -707.94043 4294967295
191.43591 3634.0103 -707.80798 4294967295
195.15706 3634.0879 -707.89447 4294967295
203.81854 3634.5554 -707.24628 4294967295
205.47211 3634.5396 -707.17505 4294967295
208.98729 3634.4353 -707.14008 4294967295
218.15752 3633.3589 -707.81213 4294967295
228.80919 3633.2979 -707.21198 4294967295
239.38895 3633.6406 -707.06067 4294967295
241.69873 3633.688 -707.11224 4294967295
242.78142 3633.6809 -707.1554 4294967295
245.81763 3634.5586 -707.11719 4294967295
249.28029 3633.7949 -707.07361 4294967295
252.28435 3633.7551 -707.26929 4294967295
253.27403 3633.6328 -707.27637 4294967295
257.61145 3633.8135 -707.32654 4294967295
261.59354 3633.9668 -707.1701 4294967295
263.37399 3633.238 -707.43976 4294967295
267.18124 3633.0015 -707.33557 4294967295
242.98827 3636.0388 -707.05011 4294967295
597.42084 3581.05 -706.91962 4294967295
537.42493 3584.9666 -706.5705 4294967295
539.53741 3584.7661 -706.66534 4294967295
541.4787 3584.561 -706.78577 4294967295
545.62146 3583.9839 -706.28247 4294967295
549.43805 3583.6714 -706.13843 4294967295
551.41711 3583.7468 -706.25305 4294967295
567.42371 3582.9233 -706.10162 4294967295
419.24564 3587.8142 -706.23804 4294967295
437.40771 3587.9519 -706.14172 4294967295
441.31274 3587.8892 -706.06854 4294967295
451.31146 3587.9155 -706.12177 4294967295
455.67838 3587.7986 -706.0705 4294967295
457.42001 3587.9202 -706.15479 4294967295
461.33801 3587.7505 -706.21942 4294967295
463.33362 3587.4404 -706.14044 4294967295
465.54016 3587.3206 -706.17841 4294967295
469.13071 3587.2358 -706.13184 4294967295
471.37311 3587.2427 -706.1026 4294967295
475.42078 3587.5867 -706.3786 4294967295
477.40497 3586.9946 -706.09375 4294967295
479.47736 3587.5476 -706.58789 4294967295
481.52454 3587.47 -706.54498 4294967295
483.49222 3587.4688 -706.39594 4294967295
487.43008 3587.5999 -706.42841 4294967295
489.36795 3587.5305 -706.37549 4294967295
497.54636 3587.0461 -706.52869 4294967295
503.37195 3586.7622 -706.51984 4294967295
507.23413 3586.6377 -706.56342 4294967295
511.01117 3586.4028 -706.32214 4294967295
513.98798 3586.2217 -706.21271 4294967295
515.51617 3586.3237 -706.61157 4294967295
517.67444 3586.1594 -706.64526 4294967295
357.51807 3589.4731 -706.677 4294967295
359.70941 3589.4832 -706.68463 4294967295
375.81598 3589.7327 -706.5274 4294967295
377.34955 3589.5393 -706.48627 4294967295
379.50064 3589.9119 -706.54163 4294967295
381.2731 3589.9185 -706.53003 4294967295
383.47217 3590.1177 -706.55133 4294967295
385.48331 3589.7285 -706.44946 4294967295
397.28183 3590.1306 -706.36169 4294967295
405.49478 3590.8052 -706.58533 4294967295
409.74164 3590.72 -706.47864 4294967295
411.72787 3590.031 -706.41681 4294967295
415.2934 3590.0891 -706.57843 4294967295
417.35959 3590.1567 -706.55884 4294967295
419.67328 3590.2158 -706.53125 4294967295
421.34381 3589.0583 -706.33612 4294967295
423.49658 3590.0715 -706.50714 4294967295
427.68484 3589.9839 -706.51813 4294967295
431.37506 3590.0703 -706.5517 4294967295
433.52722 3589.0259 -706.30621 4294967295
435.66269 3588.9312 -706.36078 4294967295
437.20084 3589.5874 -706.62903 4294967295
439.56223 3589.3408 -706.65808 4294967295
443.59528 3589.2192 -706.59045 4294967295
447.45251 3588.7793 -706.55701 4294967295
449.27267 3589.4575 -706.88373 4294967295
451.51004 3589.4609 -706.93573 4294967295
453.46991 3588.6289 -706.49121 4294967295
457.2518 3589.0186 -706.82263 4294967295
459.27249 3588.9314 -706.84717 4294967295
349.65088 3593.908 -706.70428 4294967295
351.3725 3591.7852 -706.63037 4294967295
353.49261 3592.9956 -706.68219 4294967295
355.53729 3592.8979 -706.72577 4294967295
357.25156 3592.0027 -706.60596 4294967295
359.77695 3592.0481 -706.60809 4294967295
361.51776 3591.7993 -706.62048 4294967295
365.4332 3593.9871 -706.86731 4294967295
367.65521 3591.8203 -706.61804 4294967295
373.5296 3591.916 -706.88159 4294967295
375.26328 3591.4644 -706.79315 4294967295
379.53925 3591.6821 -706.90167 4294967295
381.64008 3591.8623 -706.90424 4294967295
383.30695 3591.8313 -706.86456 4294967295
387.15833 3591.707 -706.94165 4294967295
391.34637 3591.7432 -706.94556 4294967295
393.74249 3591.9626 -706.93488 4294967295
395.53964 3592.0364 -706.90314 4294967295
397.47354 3592.1135 -706.86981 4294967295
399.02869 3592.0205 -706.83154 4294967295
401.5654 3592.2144 -706.87732 4294967295
403.18829 3592.2175 -706.87073 4294967295
407.51187 3592.0176 -706.92157 4294967295
415.79633 3591.3276 -706.98779 4294967295
625.43231 3592.7769 -706.21338 4294967295
291.81946 3595.8125 -706.05426 4294967295
297.37888 3595.8704 -706.25897 4294967295
305.52313 3596.1477 -706.42834 4294967295
307.33627 3596.1025 -706.3017 4294967295
317.56464 3596.0654 -706.40009 4294967295
321.41528 3596.0762 -706.46838 4294967295
323.86359 3596.1138 -706.65247 4294967295
327.5459 3596.1218 -706.72467 4294967295
329.24948 3596.0759 -706.75684 4294967295
331.84436 3596.1094 -706.80591 4294967295
333.31525 3595.0173 -706.70135 4294967295
335.38617 3595.0474 -706.72681 4294967295
337.75613 3596.1736 -706.76288 4294967295
339.45163 3595.2026 -706.71057 4294967295
343.30774 3594.175 -706.7334 4294967295
345.70905 3594.4509 -706.76434 4294967295
357.32495 3594.0261 -706.90515 4294967295
359.5495 3594.0598 -706.94177 4294967295
363.3718 3594.0593 -706.9765 4294967295
625.55713 3595.0908 -706.68579 4294967295
277.68314 3599.876 -706.23309 4294967295
279.78824 3597.9749 -706.04456 4294967295
281.48645 3598.9741 -706.20374 4294967295
285.27884 3598.0103 -706.08148 4294967295
287.82639 3598.7649 -706.28302 4294967295
291.4451 3598.0671 -706.27753 4294967295
293.54062 3598.6287 -706.54236 4294967295
295.35187 3599.3362 -706.85083 4294967295
297.35004 3598.575 -706.71619 4294967295
300.14047 3598.2852 -706.6698 4294967295
301.71606 3598.0361 -706.63269 4294967295
305.74347 3598.0093 -706.73877 4294967295
309.35382 3597.906 -706.85797 4294967295
319.43896 3597.8667 -706.88171 4294967295
325.56815 3597.3533 -706.94794 4294967295
259.07159 3601.6084 -706.04718 4294967295
261.70752 3601.7585 -706.18933 4294967295
265.38312 3602.6606 -706.88837 4294967295
269.82028 3601.3086 -706.50549 4294967295
271.24109 3600.0508 -706.14783 4294967295
273.12064 3601.1858 -706.37958 4294967295
275.39142 3600.7476 -706.45532 4294967295
277.70468 3601.1475 -706.73865 4294967295
279.51379 3600.7222 -706.65771 4294967295
283.30978 3600.1187 -706.24963 4294967295
257.44519 3603.0012 -706.67535 4294967295
589.19983 3605.7219 -706.34448 4294967295
591.45959 3605.6489 -706.5697 4294967295
593.41498 3605.655 -706.71625 4294967295
595.35107 3605.6572 -706.62817 4294967295
599.40015 3605.6531 -706.78003 4294967295
619.82281 3604.8567 -706.17719 4294967295
203.7332 3608.5063 -706.74927 4294967295
212.06848 3606.9456 -706.49884 4294967295
215.43246 3606.8767 -706.49738 4294967295
217.1241 3606.8025 -706.50629 4294967295
221.79684 3606.7104 -706.6286 4294967295
555.18994 3608.4624 -706.67761 4294967295
557.45959 3608.7915 -706.22058 4294967295
559.50684 3608.5698 -706.22742 4294967295
561.33972 3608.2305 -706.42261 4294967295
563.3103 3607.9338 -706.59131 4294967295
565.25098 3607.7637 -706.63562 4294967295
567.55078 3607.5298 -706.84509 4294967295
571.4389 3607.5955 -706.26349 4294967295
577.26593 3606.7422 -706.15894 4294967295
173.97856 3611.3279 -706.69714 4294967295
177.47086 3611.1885 -706.26141 4294967295
517.42419 3611.9473 -706.96069 4294967295
523.36469 3611.6484 -706.82007 4294967295
537.79413 3611.5139 -706.97546 4294967295
547.06903 3610.5703 -706.59412 4294967295
501.83215 3614.0039 -706.71082 4294967295
507.70233 3613.3413 -706.6344 4294967295
511.8129 3613.106 -706.5965 4294967295
512.00275 3614.1848 -706.23352 4294967295
513.35754 3613.8333 -706.24817 4294967295
515.70233 3612.3936 -706.7276 4294967295
516.97943 3613.9829 -706.03558 4294967295
536.03864 3612.4355 -706.11029 4294967295
538.71747 3614.1777 -706.13672 4294967295
540.83746 3614.2644 -706.90161 4294967295
541.46442 3613.5134 -706.74774 4294967295
543.3501 3613.4492 -706.41223 4294967295
545.44843 3612.7595 -706.02643 4294967295
473.76941 3617.7881 -706.95648 4294967295
475.23688 3616.1384 -706.94983 4294967295
477.68488 3617.6267 -706.66614 4294967295
479.42551 3617.9199 -706.82788 4294967295
481.3609 3615.8184 -706.79175 4294967295
483.62451 3617.5547 -706.55334 4294967295
491.55463 3616.8857 -706.62036 4294967295
493.41739 3616.7534 -706.53918 4294967295
506.9967 3615.6213 -706.18292 4294967295
511.65314 3615.6018 -706.07355 4294967295
534.25977 3617.2166 -706.63715 4294967295
535.53992 3616.9802 -706.43951 4294967295
539.22638 3615.842 -706.95563 4294967295
541.49554 3616.54 -706.23132 4294967295
543.09906 3616.4854 -706.06427 4294967295
531.54004 3618.0696 -706.42175 4294967295
540.41693 3619.7725 -706.56104 4294967295
541.54895 3618.2932 -706.30371 4294967295
171.56824 3635.8462 -706.79047 4294967295
173.39136 3635.6274 -706.56647 4294967295
175.43469 3635.3997 -706.46686 4294967295
187.05156 3634.769 -706.22998 4294967295
190.2859 3634.8225 -706.24945 4294967295
191.32161 3634.803 -706.39783 4294967295
195.39905 3634.7734 -706.61505 4294967295
197.49841 3634.8035 -706.77783 4294967295
198.87881 3634.8271 -706.95111 4294967295
201.65373 3634.8994 -706.94415 4294967295
205.21725 3635.9521 -706.43811 4294967295
207.34007 3635.9534 -706.42578 4294967295
209.21733 3635.7776 -706.51935 4294967295
211.82101 3635.8669 -706.53674 4294967295
212.92528 3635.9431 -706.52435 4294967295
216.30801 3635.1899 -706.83624 4294967295
218.71506 3635.7207 -706.49274 4294967295
221.0368 3634.731 -706.82306 4294967295
227.75674 3635.7896 -706.52826 4294967295
229.62488 3635.7522 -706.52777 4294967295
230.9675 3633.9265 -706.79431 4294967295
231.34122 3635.616 -706.55402 4294967295
233.30266 3634.8655 -706.59015 4294967295
235.37706 3635.5737 -706.79065 4294967295
237.73004 3635.6343 -706.83124 4294967295
239.638 3635.7266 -706.93683 4294967295
241.7592 3635.6553 -706.99646 4294967295
165.58295 3636.5869 -706.79126 4294967295
169.39009 3636.1211 -706.90906 4294967295
201.42868 3636.2959 -706.17816 4294967295
204.06711 3636.0593 -706.28369 4294967295
205.46857 3637.6677 -706.15216 4294967295
207.53542 3637.48 -706.21899 4294967295
209.24727 3637.1716 -706.29102 4294967295
212.87781 3637.655 -706.16095 4294967295
215.68642 3636.158 -706.54083 4294967295
217.28882 3637.9531 -706.24335 4294967295
221.0434 3637.8003 -706.39093 4294967295
231.30949 3638.2405 -706.90479 4294967295
205.11806 3640.0176 -706.18738 4294967295
611.83472 3580.0059 -705.13306 4294967295
613.72345 3579.7585 -705.53217 4294967295
615.87915 3579.5835 -705.94641 4294967295
617.73157 3579.502 -705.96539 4294967295
619.8446 3579.5532 -705.81281 4294967295
625.45251 3581.5796 -705.43774 4294967295
447.57526 3583.2874 -705.87524 4294967295
449.19403 3583.4487 -705.82971 4294967295
451.55392 3583.4128 -705.77832 4294967295
453.13522 3583.1848 -705.75372 4294967295
455.42838 3583.8562 -705.60834 4294967295
457.6037 3583.4492 -705.54413 4294967295
459.4866 3583.7488 -705.43109 4294967295
461.47589 3583.7173 -705.36798 4294967295
463.29691 3584.074 -705.45453 4294967295
465.36148 3583.8157 -705.41064 4294967295
467.37885 3583.9451 -705.35748 4294967295
469.52112 3584.0098 -705.31836 4294967295
471.36569 3583.7925 -705.24463 4294967295
473.41718 3584.303 -705.00739 4294967295
477.42371 3584.2161 -705.02301 4294967295
479.44067 3584.1829 -705.0329 4294967295
481.61978 3584.3618 -705.05389 4294967295
493.66898 3584.6606 -705.03436 4294967295
499.55304 3584.0227 -705.08502 4294967295
501.33185 3584.0439 -705.09106 4294967295
503.64505 3584.0579 -705.02808 4294967295
505.35226 3584.033 -705.0116 4294967295
519.16333 3584.8748 -705.43854 4294967295
521.47974 3584.7131 -705.54749 4294967295
533.48193 3584.6824 -705.68524 4294967295
535.37482 3584.3828 -705.40961 4294967295
539.37195 3583.4316 -705.04498 4294967295
541.38849 3583.3083 -705.14587 4294967295
545.19403 3582.7371 -705.0213 4294967295
547.57483 3583.072 -705.37463 4294967295
437.72229 3585.7371 -705.87067 4294967295
439.64655 3587.5918 -705.97095 4294967295
441.44144 3585.7844 -705.8186 4294967295
443.23618 3585.8955 -705.93854 4294967295
445.6622 3585.9685 -705.7146 4294967295
447.44571 3585.9678 -705.68207 4294967295
449.71094 3586.979 -705.80981 4294967295
451.37714 3586.0352 -705.59125 4294967295
453.47717 3586.4041 -705.57446 4294967295
455.49664 3586.0144 -705.64948 4294967295
457.79971 3586.0173 -705.63904 4294967295
461.41132 3585.9614 -705.61884 4294967295
463.40964 3585.76 -705.59894 4294967295
465.65533 3585.9873 -705.64453 4294967295
467.50989 3585.834 -705.59717 4294967295
469.50568 3585.8726 -705.53827 4294967295
471.65649 3586.1187 -705.57782 4294967295
473.79596 3585.9951 -705.53693 4294967295
475.30338 3585.1162 -705.31689 4294967295
476.10834 3586.1221 -705.6037 4294967295
479.40329 3585.8948 -705.63214 4294967295
481.19678 3585.8943 -705.64563 4294967295
483.32437 3585.8279 -705.60022 4294967295
485.48984 3585.9678 -705.37109 4294967295
489.32556 3586.1165 -705.51868 4294967295
495.30859 3585.6755 -705.49817 4294967295
497.81882 3585.4907 -705.54639 4294967295
501.69299 3585.2651 -705.4834 4294967295
505.12564 3585.3438 -705.47723 4294967295
507.41122 3585.2581 -705.45581 4294967295
509.67368 3585.166 -705.39349 4294967295
511.43607 3585.2229 -705.35077 4294967295
513.85712 3585.0928 -705.26685 4294967295
515.41534 3585.4717 -705.48242 4294967295
429.41479 3588.2302 -705.97803 4294967295
627.67334 3594.979 -705.44171 4294967295
273.48038 3598.2888 -705.76172 4294967295
275.2695 3597.9683 -705.79144 4294967295
277.43475 3597.9919 -705.94653 4294967295
283.31757 3598.1553 -705.90533 4294967295
627.94208 3597.6919 -705.89703 4294967295
207.4313 3605.7363 -705.37451 4294967295
211.47807 3603.8406 -705.0343 4294967295
213.05052 3605.2542 -705.43494 4294967295
215.31914 3605.4661 -705.65735 4294967295
217.68303 3603.9778 -705.20062 4294967295
221.51012 3604.7664 -705.23962 4294967295
201.32071 3608.3667 -705.78003 4294967295
205.23204 3606.7961 -705.42084 4294967295
206.89482 3606.822 -705.70709 4294967295
210.04477 3606.114 -705.7793 4294967295
565.47009 3608.9573 -705.38037 4294967295
567.30481 3608.5461 -705.51324 4294967295
569.5545 3608.6406 -705.26093 4294967295
579.31024 3606.6604 -705.85498 4294967295
583.38391 3606.3311 -705.86902 4294967295
183.88205 3610.7278 -705.67053 4294967295
549.21832 3611.5332 -705.49951 4294967295
551.25482 3611.8108 -705.14655 4294967295
553.01794 3611.7029 -705.20355 4294967295
555.69482 3610.4172 -705.2688 4294967295
559.09918 3610.1909 -705.26874 4294967295
561.36133 3609.9465 -705.02869 4294967295
563.61658 3609.4868 -705.25134 4294967295
515.13135 3613.8743 -705.97064 4294967295
519.7002 3613.6426 -705.87177 4294967295
545.10992 3614.5566 -705.76678 4294967295
547.44916 3612.5469 -705.45282 4294967295
537.39563 3615.0525 -705.89008 4294967295
545.33777 3617.9099 -705.67316 4294967295
547.1507 3616.2161 -705.26263 4294967295
179.3419 3635.0029 -705.93945 4294967295
182.01817 3634.8662 -705.73969 4294967295
191.12944 3635.7346 -705.08008 4294967295
164.37285 3636.7292 -705.86298 4294967295
194.02025 3636.4648 -705.00262 4294967295
198.03346 3636.394 -705.85596 4294967295
199.60338 3637.7744 -705.45624 4294967295
201.73705 3637.6106 -705.8916 4294967295
197.61705 3639.8794 -705.20044 4294967295
199.0179 3640.1558 -705.43323 4294967295
201.86644 3639.7971 -705.80756 4294967295
509.62903 3580.7451 -704.62573 4294967295
511.9599 3581.884 -704.43054 4294967295
527.21411 3580.6851 -704.17456 4294967295
537.44214 3581.8523 -704.2215 4294967295
539.68311 3581.7649 -704.25433 4294967295
541.45929 3581.9629 -704.40442 4294967295
547.7135 3581.2571 -704.23901 4294967295
549.31506 3581.2363 -704.20905 4294967295
553.21973 3581.5037 -704.38232 4294967295
555.55316 3581.7893 -704.51495 4294967295
561.39252 3581.8701 -704.42303 4294967295
625.5647 3580.3562 -704.62897 4294967295
507.69147 3582.0527 -704.57471 4294967295
509.00598 3583.9731 -704.93665 4294967295
511.82886 3584.2437 -704.92963 4294967295
513.3941 3582.0596 -704.49841 4294967295
515.52228 3582.0078 -704.44855 4294967295
516.07922 3584.1177 -704.85754 4294967295
517.5509 3583.063 -704.54688 4294967295
531.60596 3582.0625 -704.15881 4294967295
533.62671 3583.2817 -704.70605 4294967295
535.45233 3582.7007 -704.46948 4294967295
537.13562 3583.5027 -704.91449 4294967295
543.66046 3582.7437 -704.8158 4294967295
549.52252 3582.3774 -704.81543 4294967295
551.81067 3582.4097 -704.97058 4294967295
563.58197 3582.4429 -704.90729 4294967295
627.80878 3583.4199 -704.52264 4294967295
629.54492 3594.9773 -704.14813 4294967295
200.92241 3600.9307 -704.53455 4294967295
205.82936 3601.8389 -704.76532 4294967295
201.61002 3604.2012 -704.2785 4294967295
204.15463 3604.2161 -704.505 4294967295
207.93944 3603.9976 -704.98474 4294967295
589.11597 3605.8909 -704.26959 4294967295
593.22137 3605.4973 -704.16351 4294967295
597.33551 3605.3877 -704.35065 4294967295
601.43372 3605.3896 -704.66766 4294967295
603.31488 3605.4214 -704.77966 4294967295
605.65533 3605.5159 -704.70605 4294967295
201.53662 3606.3677 -704.58813 4294967295
203.45036 3606.1736 -704.73285 4294967295
571.37421 3608.7336 -704.96588 4294967295
573.40656 3608.3862 -704.86542 4294967295
575.87811 3608.2571 -704.44525 4294967295
579.31836 3607.4976 -704.50104 4294967295
581.30768 3607.1609 -704.54291 4294967295
583.38202 3606.9946 -704.35742 4294967295
585.15204 3606.7661 -704.04633 4294967295
587.05701 3606.4326 -704.0448 4294967295
170.32323 3611.7751 -704.25031 4294967295
175.31055 3611.3503 -704.23206 4294967295
183.9588 3610.2539 -704.17249 4294967295
559.34131 3611.7781 -704.76459 4294967295
561.30823 3611.6531 -704.83118 4294967295
563.58594 3611.4692 -704.71942 4294967295
565.32184 3610.7759 -704.74451 4294967295
567.19104 3610.8057 -704.54883 4294967295
569.3786 3610.0139 -704.50903 4294967295
571.42938 3609.8132 -704.29187 4294967295
549.25531 3614.1106 -704.99329 4294967295
555.31268 3614.1121 -704.89417 4294967295
557.30988 3613.9324 -704.83337 4294967295
559.31262 3614.0859 -704.83929 4294967295
561.3183 3613.928 -704.78455 4294967295
563.45728 3614.363 -704.80444 4294967295
171.50182 3635.7852 -704.20636 4294967295
173.68718 3635.5225 -704.05597 4294967295
185.13051 3635.2271 -704.95874 4294967295
187.11241 3635.615 -704.58337 4294967295
189.49757 3635.6064 -704.99182 4294967295
167.12404 3636.4175 -704.80792 4294967295
169.50636 3636.054 -704.20178 4294967295
194.93869 3637.928 -704.66479 4294967295
