# .PCD v0.7 - Point Cloud Data file format
VERSION 0.7
FIELDS x y z rgba
SIZE 4 4 4 4
TYPE F F F U
COUNT 1 1 1 1
WIDTH 1148
HEIGHT 1
VIEWPOINT 0 0 0 1 0 0 0
POINTS 1148
DATA ascii
175.6468 1355.0239 -76.910278 4294967295
181.50165 1354.5303 -76.953156 4294967295
197.78133 1353.4736 -76.949463 4294967295
439.35068 1355.3821 -76.192894 4294967295
441.60776 1353.9917 -76.219368 4294967295
443.69797 1354.1106 -76.709579 4294967295
134.96028 1357.916 -76.401688 4294967295
161.37622 1356.0526 -76.66526 4294967295
430.45114 1358.3075 -76.661957 4294967295
431.50739 1358.05 -76.497131 4294967295
433.36469 1357.8412 -76.74366 4294967295
435.70056 1356.9326 -76.271484 4294967295
437.58902 1356.384 -76.319443 4294967295
439.24921 1356.7638 -76.991615 4294967295
88.471237 1361.0146 -76.396156 4294967295
93.208954 1360.6708 -76.842247 4294967295
95.48037 1360.5793 -76.794807 4294967295
109.6414 1359.6227 -76.889343 4294967295
111.23819 1359.4865 -76.676704 4294967295
113.36613 1359.3276 -76.696587 4294967295
115.48817 1359.1876 -76.829956 4294967295
119.65671 1359.0111 -76.899323 4294967295
387.90076 1361.7368 -76.837227 4294967295
393.55362 1361.437 -76.575325 4294967295
395.61191 1361.2671 -76.755516 4294967295
397.81662 1361.1671 -76.983345 4294967295
399.64731 1361.2451 -76.100113 4294967295
355.58926 1364.1002 -76.930351 4294967295
361.35895 1363.7765 -76.664421 4294967295
379.56946 1362.4115 -76.840149 4294967295
315.13727 1367.171 -76.57988 4294967295
317.57785 1366.9987 -76.7827 4294967295
321.02374 1366.7866 -76.690231 4294967295
331.39767 1365.9175 -76.790062 4294967295
335.60788 1365.6362 -76.919777 4294967295
339.66962 1365.395 -76.933319 4294967295
285.45605 1369.0951 -76.84655 4294967295
295.08444 1368.3026 -76.968826 4294967295
235.22661 1372.5901 -76.877258 4294967295
206.88943 1374.8827 -76.895737 4294967295
217.20325 1374.1113 -76.852104 4294967295
173.44958 1377.587 -76.832848 4294967295
131.60983 1381.1442 -76.880203 4294967295
85.928749 1385.2306 -76.489555 4294967295
89.431435 1384.9604 -76.359146 4294967295
91.670021 1384.6726 -76.76403 4294967295
93.179077 1384.6708 -76.201904 4294967295
405.60144 1337.446 -75.714096 4294967295
409.76486 1337.0809 -75.956429 4294967295
411.75885 1336.9561 -75.890175 4294967295
413.5459 1336.832 -75.668526 4294967295
415.37799 1336.8115 -75.73542 4294967295
417.31699 1336.6458 -75.740479 4294967295
419.91745 1336.5066 -75.692543 4294967295
425.452 1336.2864 -75.73024 4294967295
427.49515 1336.2305 -75.820816 4294967295
433.51917 1337.0354 -75.135864 4294967295
435.73914 1336.6921 -75.444046 4294967295
439.80161 1337.8936 -75.851524 4294967295
435.59808 1349.0883 -75.061111 4294967295
437.42358 1349.1936 -75.401131 4294967295
439.81479 1349.0626 -75.848495 4294967295
437.38495 1351.6217 -75.113205 4294967295
439.73721 1351.8982 -75.629082 4294967295
435.50754 1355.6519 -75.433754 4294967295
437.53165 1354.118 -75.377327 4294967295
439.366 1354.0176 -75.742897 4294967295
431.55652 1357.137 -75.213829 4294967295
83.709343 1361.178 -75.741646 4294967295
413.43268 1360.4988 -75.91748 4294967295
415.5741 1360.2444 -75.034576 4294967295
417.86334 1359.9094 -75.423096 4294967295
419.57043 1359.5443 -75.910027 4294967295
421.44022 1359.2527 -75.588554 4294967295
423.64587 1359.0918 -75.650101 4294967295
81.635895 1385.793 -75.412537 4294967295
407.81512 1337.3855 -74.481102 4294967295
422.40765 1336.8815 -74.336685 4294967295
423.86728 1336.8474 -74.489754 4294967295
425.53937 1337.0787 -74.215363 4294967295
429.30258 1337.2758 -74.397224 4294967295
431.26682 1336.9861 -74.867699 4294967295
433.32974 1337.9316 -74.592628 4294967295
435.45377 1337.9816 -74.888649 4294967295
369.28171 1340.5126 -74.653534 4294967295
385.45099 1338.9911 -74.050835 4294967295
389.55487 1338.7671 -74.000046 4294967295
391.71313 1338.7164 -74.163254 4294967295
431.25922 1338.0659 -74.192299 4294967295
433.21674 1339.5305 -74.13208 4294967295
437.75638 1339.5281 -74.890579 4294967295
323.66599 1343.9666 -74.654449 4294967295
337.34195 1342.8865 -74.265404 4294967295
433.60614 1341.8304 -74.087173 4294967295
285.37213 1346.8877 -74.631348 4294967295
291.16669 1346.4572 -74.426468 4294967295
311.29288 1344.9674 -74.561356 4294967295
313.41376 1344.827 -74.839561 4294967295
315.51282 1344.6418 -74.72007 4294967295
319.16461 1344.3025 -74.559158 4294967295
430.97006 1346.8409 -74.033211 4294967295
431.82794 1344.5826 -74.051788 4294967295
435.1976 1344.7439 -74.940239 4294967295
245.14549 1349.8427 -74.63945 4294967295
249.26166 1349.5591 -74.591927 4294967295
253.46404 1349.2682 -74.536331 4294967295
431.31152 1348.9955 -74.140633 4294967295
433.77579 1348.8304 -74.723846 4294967295
201.0713 1352.985 -74.548271 4294967295
431.75586 1351.6741 -74.0242 4294967295
433.59906 1351.714 -74.42395 4294967295
159.31023 1355.993 -74.478271 4294967295
163.37411 1355.6594 -74.210091 4294967295
165.3954 1355.5112 -74.375374 4294967295
167.36713 1355.3566 -74.235062 4294967295
169.47638 1355.2406 -74.579559 4294967295
175.13571 1354.8048 -74.152542 4294967295
177.194 1354.7085 -74.759193 4294967295
179.32382 1354.4755 -74.259918 4294967295
181.42673 1354.313 -74.081367 4294967295
183.71941 1354.2592 -74.926971 4294967295
185.3886 1354.0778 -74.280609 4294967295
195.66969 1353.4258 -74.737015 4294967295
431.55536 1355.0046 -74.285675 4294967295
433.54828 1354.3292 -74.581345 4294967295
435.65515 1354.1823 -74.998688 4294967295
117.48629 1358.9685 -74.326271 4294967295
139.64447 1357.4385 -74.741623 4294967295
147.39554 1356.8593 -74.305649 4294967295
157.48172 1356.0767 -74.059349 4294967295
421.69458 1358.8589 -74.509125 4294967295
423.38745 1358.3196 -74.034492 4294967295
429.60434 1357.1958 -74.499756 4294967295
89.411995 1360.7627 -74.126816 4294967295
95.395515 1360.3934 -74.112434 4294967295
97.354935 1360.2567 -74.221336 4294967295
109.3437 1359.5326 -74.143486 4294967295
111.54808 1359.3677 -74.305977 4294967295
113.48654 1359.2214 -74.463905 4294967295
355.7854 1364.5149 -74.696091 4294967295
357.4245 1364.3522 -74.56044 4294967295
359.1871 1364.2887 -74.261589 4294967295
361.42459 1364.1638 -74.137413 4294967295
363.55405 1364.0231 -74.04921 4294967295
365.86371 1363.7904 -74.386551 4294967295
381.60791 1362.6705 -74.126228 4294967295
385.47043 1362.4406 -74.004608 4294967295
311.2373 1367.7867 -74.498352 4294967295
313.38437 1367.6876 -74.323654 4294967295
315.25961 1367.569 -74.39238 4294967295
317.94141 1367.4014 -74.721977 4294967295
321.4939 1367.2389 -74.492256 4294967295
327.4487 1366.6038 -74.7873 4294967295
331.83533 1366.4442 -74.134071 4294967295
335.23578 1366.1241 -74.35643 4294967295
281.48022 1369.736 -74.608368 4294967295
293.57199 1368.8011 -74.873009 4294967295
295.46051 1368.6923 -74.680923 4294967295
297.53259 1368.5494 -74.884575 4294967295
301.39462 1368.2885 -74.873642 4294967295
305.44159 1368.1417 -74.55423 4294967295
233.15099 1373.0172 -74.857811 4294967295
237.11206 1372.7289 -74.628754 4294967295
239.3709 1372.5079 -74.771828 4294967295
196.70111 1375.9492 -74.537521 4294967295
199.76314 1375.7603 -74.801537 4294967295
201.06818 1375.7228 -74.43689 4294967295
205.19064 1375.4161 -74.239555 4294967295
213.46591 1374.5924 -74.75412 4294967295
215.51505 1374.3246 -74.932159 4294967295
161.16794 1379.1073 -74.334755 4294967295
163.78041 1378.8657 -74.772781 4294967295
115.2019 1382.915 -74.094383 4294967295
119.04474 1382.5986 -74.280838 4294967295
131.59889 1381.5479 -74.769394 4294967295
132.87456 1381.4637 -74.446297 4294967295
135.60524 1381.0494 -74.872887 4294967295
89.802086 1385.1514 -74.185829 4294967295
401.34198 1337.979 -73.803818 4294967295
405.23535 1337.7369 -73.700249 4294967295
411.42542 1337.3378 -73.851135 4294967295
417.32999 1337.1451 -73.812195 4294967295
419.89633 1337.083 -73.762856 4294967295
375.01236 1339.9563 -73.947075 4294967295
395.48187 1338.412 -73.67411 4294967295
397.14249 1338.3203 -73.730644 4294967295
399.53406 1338.1257 -73.629433 4294967295
427.60345 1338.5583 -73.309059 4294967295
429.41919 1339.0854 -73.481323 4294967295
431.22491 1339.7615 -73.684776 4294967295
347.17899 1342.11 -73.605293 4294967295
429.25131 1341.7634 -73.084862 4294967295
431.61108 1341.9822 -73.688087 4294967295
427.21732 1346.7781 -73.146049 4294967295
429.6272 1345.7252 -73.588318 4294967295
427.60846 1348.775 -73.282921 4294967295
429.62628 1348.9869 -73.766624 4294967295
429.54041 1351.52 -73.526733 4294967295
429.59604 1354.0809 -73.559387 4294967295
121.33475 1358.6659 -73.828873 4294967295
133.51703 1357.8074 -73.812202 4294967295
425.13721 1358.0172 -73.84285 4294967295
75.742805 1361.9768 -73.822433 4294967295
84.223251 1361.1753 -73.634155 4294967295
87.628448 1360.8481 -73.700218 4294967295
91.666908 1360.748 -73.639206 4294967295
99.047913 1360.0985 -73.56797 4294967295
103.08646 1359.7882 -73.465126 4294967295
115.11267 1359.0863 -73.98069 4294967295
393.6752 1361.8794 -73.894089 4294967295
395.61868 1361.9408 -73.489563 4294967295
397.76431 1361.7839 -73.388458 4294967295
399.91287 1361.444 -73.763123 4294967295
401.56906 1361.2996 -73.63279 4294967295
403.27493 1361.1157 -73.471947 4294967295
413.19885 1360.1422 -73.639084 4294967295
416.00143 1359.7737 -73.956421 4294967295
417.56256 1359.4894 -73.987045 4294967295
419.32269 1359.0607 -73.869728 4294967295
379.58463 1362.8557 -73.9114 4294967295
383.75687 1362.5575 -73.890854 4294967295
389.83884 1362.2065 -73.813416 4294967295
391.28305 1362.0052 -73.860336 4294967295
318.79279 1367.5259 -73.673805 4294967295
307.28363 1368.2723 -73.434433 4294967295
168.92786 1378.4716 -73.729561 4294967295
82.282539 1385.629 -73.604515 4294967295
84.409935 1385.4591 -73.135727 4294967295
87.159088 1385.2775 -73.630615 4294967295
91.226212 1385.1171 -73.771759 4294967295
93.694954 1385.092 -73.862198 4294967295
95.374916 1384.8304 -73.659439 4294967295
97.547211 1384.7029 -73.941376 4294967295
99.567841 1384.4329 -73.831169 4294967295
413.66165 1337.8158 -72.712891 4294967295
415.42426 1337.8253 -72.585815 4294967295
417.4682 1337.7905 -72.50798 4294967295
419.63559 1337.7041 -72.684067 4294967295
383.58624 1339.4929 -72.163147 4294967295
385.30576 1339.3926 -72.043205 4294967295
403.05579 1338.4263 -72.067795 4294967295
405.8139 1338.3691 -72.234314 4294967295
409.82327 1338.1166 -72.647255 4294967295
421.56314 1338.4867 -72.186325 4294967295
423.53214 1338.205 -72.678116 4294967295
425.42181 1339.1843 -72.567032 4294967295
427.83438 1339.5831 -72.944427 4294967295
427.51532 1341.8004 -72.608192 4294967295
291.52725 1346.1963 -72.030632 4294967295
311.53455 1344.772 -72.141533 4294967295
313.45764 1344.6016 -72.076981 4294967295
315.49771 1344.4261 -72.233391 4294967295
425.63174 1345.5226 -72.560226 4294967295
427.64236 1344.7095 -72.971878 4294967295
249.55478 1349.2635 -72.176743 4294967295
251.43459 1349.1194 -72.080765 4294967295
257.61124 1348.7523 -72.061302 4294967295
275.54318 1347.4586 -72.189018 4294967295
279.58359 1347.0295 -72.140892 4294967295
423.88736 1348.8448 -72.404778 4294967295
425.59015 1349.0497 -72.812332 4294967295
423.77692 1351.6005 -72.166107 4294967295
425.55728 1351.4474 -72.581421 4294967295
423.60373 1354.2765 -72.087936 4294967295
425.38062 1353.8844 -72.393036 4294967295
427.95923 1354.2 -72.942696 4294967295
417.35065 1358.4214 -72.193504 4294967295
419.55081 1357.7509 -72.34433 4294967295
421.49472 1357.6639 -72.791122 4294967295
423.45288 1356.6292 -72.681816 4294967295
425.54779 1356.0355 -72.919029 4294967295
79.164986 1361.9113 -72.022278 4294967295
92.208626 1360.9384 -72.084305 4294967295
407.74652 1360.7712 -72.999115 4294967295
411.68323 1359.9946 -72.516731 4294967295
317.98199 1367.7604 -72.112862 4294967295
323.98389 1367.468 -72.042267 4294967295
339.70132 1366.3097 -72.03643 4294967295
280.04044 1370.3231 -72.091164 4294967295
285.63248 1370.0118 -72.106445 4294967295
301.4917 1368.8555 -72.004196 4294967295
225.29121 1373.9528 -72.033875 4294967295
229.55161 1373.631 -72.017784 4294967295
233.36409 1373.3479 -72.039139 4294967295
235.74231 1373.0997 -72.349045 4294967295
241.63104 1372.6819 -72.239487 4294967295
243.349 1372.532 -72.279938 4294967295
245.48495 1372.3804 -72.187622 4294967295
249.56949 1372.0825 -72.645515 4294967295
251.49361 1372.087 -72.037163 4294967295
257.39551 1371.7273 -72.120087 4294967295
263.48697 1371.2765 -72.149803 4294967295
189.66113 1376.8129 -72.103951 4294967295
200.31413 1375.9883 -72.456505 4294967295
201.20436 1375.917 -72.041389 4294967295
205.67818 1375.6853 -72.092964 4294967295
213.73625 1374.8632 -72.28215 4294967295
217.47493 1374.5717 -72.235733 4294967295
221.59779 1374.2705 -72.108231 4294967295
159.41962 1379.4847 -72.289719 4294967295
163.71732 1379.0774 -72.009857 4294967295
165.65022 1379.0078 -72.039688 4294967295
183.19746 1377.3601 -72.054466 4294967295
136.05965 1381.3895 -72.002617 4294967295
152.34671 1380.0625 -72.638176 4294967295
83.568428 1385.1665 -72.421013 4294967295
85.096512 1385.2305 -72.264122 4294967295
361.26566 1340.9574 -71.539368 4294967295
363.54578 1340.9337 -71.904816 4294967295
365.48767 1340.6559 -71.602608 4294967295
367.34998 1340.6379 -71.673874 4294967295
369.30072 1340.4747 -71.81559 4294967295
371.21204 1340.3684 -71.758469 4294967295
373.74759 1340.0414 -71.930206 4294967295
375.1377 1340.0005 -71.458214 4294967295
379.43707 1339.8336 -71.909195 4294967295
389.30106 1339.2217 -71.758942 4294967295
391.78641 1339.0457 -71.800217 4294967295
393.50027 1338.9836 -71.704758 4294967295
395.29205 1338.8116 -71.878555 4294967295
397.28192 1338.5884 -71.811462 4294967295
399.49884 1338.8969 -71.255249 4294967295
401.26917 1338.4418 -71.847534 4294967295
407.71179 1339.1001 -71.271637 4294967295
409.04068 1339.0503 -71.34684 4294967295
411.17493 1338.8036 -71.567513 4294967295
413.31323 1339.0664 -71.264755 4294967295
415.72946 1338.9407 -71.421478 4294967295
419.46399 1339.2708 -71.44339 4294967295
421.28793 1339.8062 -71.476532 4294967295
423.43054 1339.7544 -71.901176 4294967295
321.3656 1343.9171 -71.764137 4294967295
323.71017 1343.7498 -71.96553 4294967295
325.37085 1343.6251 -71.727943 4294967295
327.32504 1343.4895 -71.877876 4294967295
329.45209 1343.3114 -71.938652 4294967295
333.50201 1343.0977 -71.601746 4294967295
335.09488 1342.9491 -71.642105 4294967295
337.24347 1342.8231 -71.987656 4294967295
339.70038 1342.6976 -71.975418 4294967295
343.18625 1342.4823 -71.65229 4294967295
345.23203 1342.1841 -71.852966 4294967295
347.57474 1342.025 -71.835266 4294967295
349.40973 1341.8489 -71.796547 4294967295
353.5361 1341.4714 -71.811768 4294967295
421.34003 1341.6062 -71.20916 4294967295
423.63165 1341.4919 -71.704613 4294967295
283.42337 1346.9156 -71.878693 4294967295
285.44766 1346.7694 -71.907234 4294967295
289.00711 1346.3964 -71.517906 4294967295
295.17426 1345.9541 -71.676292 4294967295
297.48468 1345.8099 -71.976601 4294967295
309.31052 1344.9738 -71.969666 4294967295
317.32248 1344.2534 -71.837898 4294967295
319.43808 1344.2173 -71.717461 4294967295
421.62024 1345.5315 -71.549477 4294967295
423.07205 1344.3466 -71.75946 4294967295
247.42709 1349.4102 -71.961731 4294967295
253.46254 1349.0775 -71.876183 4294967295
255.22433 1348.9996 -71.864319 4294967295
269.1409 1347.7765 -71.616013 4294967295
271.41876 1347.6016 -71.495789 4294967295
273.27408 1347.4689 -71.764458 4294967295
421.30423 1348.9904 -71.79644 4294967295
203.06059 1352.6697 -71.462074 4294967295
205.28801 1352.5411 -71.965385 4294967295
419.87299 1351.3599 -71.320786 4294967295
421.48553 1351.4503 -71.667961 4294967295
157.70398 1355.9978 -71.907501 4294967295
161.4003 1355.8776 -71.931053 4294967295
163.30873 1355.6068 -71.915115 4294967295
165.3112 1355.6276 -71.940285 4294967295
168.90703 1355.2268 -71.659271 4294967295
175.44008 1354.8474 -71.75708 4294967295
179.4091 1354.5259 -71.889336 4294967295
181.26239 1354.3829 -71.849525 4294967295
183.43298 1354.2604 -71.630386 4294967295
187.2011 1353.8289 -71.769012 4294967295
189.49541 1353.7894 -71.873299 4294967295
191.35995 1353.7076 -71.72509 4294967295
195.67188 1353.4111 -71.799614 4294967295
199.19081 1353.0171 -71.850502 4294967295
418.15341 1355.9584 -71.20549 4294967295
419.75192 1355.9512 -71.569031 4294967295
421.56659 1354.1792 -71.445396 4294967295
115.39951 1358.9899 -71.934006 4294967295
123.07165 1358.4891 -71.681107 4294967295
125.40687 1358.3192 -71.958504 4294967295
128.92593 1358.0929 -71.602531 4294967295
132.21603 1357.9849 -71.972984 4294967295
135.08476 1357.6372 -71.596771 4294967295
137.54961 1357.3898 -71.687248 4294967295
139.18124 1357.2684 -71.654663 4294967295
145.56145 1356.8837 -71.693733 4294967295
147.43529 1356.7196 -71.740776 4294967295
149.56795 1356.6749 -71.713882 4294967295
151.4326 1356.4235 -71.991966 4294967295
153.47928 1356.3993 -71.905083 4294967295
159.41116 1356.0011 -71.881172 4294967295
415.44434 1358.38 -71.679955 4294967295
421.70557 1356.1016 -71.978539 4294967295
85.058563 1361.4329 -71.496361 4294967295
92.969727 1361.0112 -71.463356 4294967295
95.566711 1360.7899 -71.746674 4294967295
97.731155 1360.5752 -71.942192 4294967295
101.20586 1360.2352 -71.365616 4294967295
109.50077 1359.4438 -71.452339 4294967295
111.43356 1359.3251 -71.942329 4294967295
113.10097 1359.2559 -71.359032 4294967295
117.38274 1359.0636 -71.432297 4294967295
389.38751 1361.9989 -71.747795 4294967295
391.22107 1361.8916 -71.834877 4294967295
393.67996 1361.6689 -71.615334 4294967295
397.55692 1361.3988 -71.739418 4294967295
399.52386 1361.2072 -71.769569 4294967295
401.45062 1360.9506 -71.750679 4294967295
403.40311 1360.7666 -71.849655 4294967295
413.19156 1359.2711 -71.741547 4294967295
80.6511 1362.0603 -71.414322 4294967295
353.5509 1364.9224 -71.894394 4294967295
355.97998 1364.9449 -71.609505 4294967295
357.49664 1364.7104 -71.706757 4294967295
363.91409 1364.2076 -71.276657 4294967295
367.61679 1364.1188 -71.371277 4294967295
379.70313 1362.8795 -71.210197 4294967295
385.54092 1362.3613 -71.55114 4294967295
387.01321 1362.1368 -71.190369 4294967295
319.35822 1367.7576 -71.666504 4294967295
321.73755 1367.6685 -71.641129 4294967295
329.58942 1366.9368 -71.778343 4294967295
330.93314 1366.8207 -71.699272 4294967295
333.12561 1366.6466 -71.641243 4294967295
335.46564 1366.5172 -71.624977 4294967295
337.83615 1366.2949 -71.482834 4294967295
345.20438 1365.8333 -71.156494 4294967295
351.82788 1365.3323 -71.152397 4294967295
283.38062 1370.1848 -71.855408 4294967295
287.60004 1369.736 -71.84465 4294967295
291.72775 1369.5219 -71.997246 4294967295
295.64127 1369.2657 -71.863525 4294967295
297.68192 1369.1472 -71.705345 4294967295
298.93985 1369.0437 -71.829948 4294967295
303.30969 1368.7355 -71.862144 4294967295
307.60132 1368.3331 -71.916771 4294967295
309.15839 1368.467 -71.609299 4294967295
311.0538 1368.1393 -71.828812 4294967295
313.54016 1368.1023 -71.746368 4294967295
237.09357 1373.0376 -71.95787 4294967295
239.45708 1372.8767 -71.928146 4294967295
247.11656 1372.3077 -71.974922 4294967295
252.64653 1372.0615 -71.800331 4294967295
255.5695 1371.884 -71.971054 4294967295
261.31216 1371.4767 -71.894638 4294967295
267.4212 1371.0811 -71.883232 4294967295
193.21936 1376.4888 -71.793343 4294967295
197.13254 1376.4066 -71.783806 4294967295
203.46159 1375.8987 -71.943878 4294967295
207.68491 1375.5161 -71.866753 4294967295
210.01338 1375.2484 -71.890457 4294967295
185.23003 1377.2151 -71.943268 4294967295
117.00212 1382.9227 -71.177185 4294967295
121.60713 1382.7628 -71.919922 4294967295
123.16589 1382.7404 -71.12043 4294967295
125.09285 1382.6584 -71.16188 4294967295
127.85179 1382.452 -71.576927 4294967295
131.39655 1382.0698 -71.57132 4294967295
133.3625 1381.8737 -71.685425 4294967295
137.55484 1381.2772 -71.766235 4294967295
139.55458 1381.3026 -71.58812 4294967295
142.11125 1381.0555 -71.799286 4294967295
88.380325 1384.9341 -71.740799 4294967295
91.456001 1384.926 -71.801018 4294967295
93.140434 1384.8364 -71.781906 4294967295
97.70594 1384.4774 -71.570824 4294967295
379.5397 1340.3237 -70.277695 4294967295
381.4697 1340.1724 -70.537285 4294967295
385.06183 1339.9602 -70.617661 4294967295
387.46082 1339.748 -70.708366 4294967295
389.17078 1339.7244 -70.551399 4294967295
391.63052 1339.4341 -70.954796 4294967295
393.48138 1339.5747 -70.406799 4294967295
395.55484 1339.3011 -70.763962 4294967295
397.16989 1339.517 -70.297905 4294967295
400.23386 1339.7552 -70.015182 4294967295
401.79788 1339.2317 -70.702782 4294967295
405.24417 1339.3727 -70.863731 4294967295
407.27979 1339.9368 -70.550171 4294967295
409.36603 1340.4739 -70.36145 4294967295
411.27692 1340.4769 -70.479683 4294967295
413.20728 1340.1118 -70.629471 4294967295
415.46124 1340.0135 -70.80349 4294967295
417.55637 1339.8469 -70.984184 4294967295
327.39688 1343.9764 -70.040474 4294967295
411.66559 1341.8508 -70.038849 4294967295
414.96756 1341.7297 -70.329033 4294967295
417.3801 1341.8186 -70.572685 4294967295
419.56177 1341.694 -70.735817 4294967295
311.26666 1345.1169 -70.12645 4294967295
313.59845 1345.0031 -70.188644 4294967295
415.23199 1344.0176 -70.180595 4294967295
417.55011 1345.4747 -70.707977 4294967295
419.38898 1344.2064 -70.923622 4294967295
251.61163 1349.2722 -70.079529 4294967295
277.5687 1347.5647 -70.146484 4294967295
207.5287 1352.7183 -70.086739 4294967295
165.52861 1355.9978 -70.266434 4294967295
167.42007 1355.9452 -70.14045 4294967295
171.50743 1355.6461 -70.059052 4294967295
173.50748 1355.4305 -70.043274 4294967295
189.38557 1354.2069 -70.010735 4294967295
197.37697 1353.583 -70.113007 4294967295
201.23494 1353.3241 -70.008286 4294967295
413.64508 1355.995 -70.17598 4294967295
417.47479 1353.6791 -70.68895 4294967295
143.55103 1357.2939 -70.04232 4294967295
159.42447 1356.3816 -70.23349 4294967295
161.50874 1356.2899 -70.345322 4294967295
163.33081 1356.2166 -70.030396 4294967295
411.4707 1358.9717 -70.982346 4294967295
413.34256 1357.8857 -70.736397 4294967295
415.78452 1356.1919 -70.7202 4294967295
87.750923 1361.5201 -70.526527 4294967295
93.356064 1361.4103 -70.476593 4294967295
95.508224 1361.2572 -70.483231 4294967295
98.135643 1361.0382 -70.438858 4294967295
99.368439 1360.9904 -70.265099 4294967295
387.21173 1361.8131 -70.170662 4294967295
389.49512 1361.5623 -70.277283 4294967295
391.14987 1361.4706 -70.448128 4294967295
393.6113 1361.2936 -70.545364 4294967295
395.37048 1361.1494 -70.552612 4294967295
397.11011 1361.0204 -70.656136 4294967295
399.23645 1360.443 -70.040894 4294967295
401.56577 1360.2782 -70.369537 4294967295
403.40799 1360.1472 -70.565285 4294967295
407.49545 1359.1696 -70.3508 4294967295
409.4657 1359.2139 -70.700813 4294967295
73.281013 1364.478 -70.284103 4294967295
75.696144 1364.4352 -70.249588 4294967295
77.364136 1363.0521 -70.938507 4294967295
79.77211 1362.8551 -70.177223 4294967295
83.232071 1362.1105 -70.281898 4294967295
359.31091 1364.541 -70.893005 4294967295
361.65552 1364.4238 -70.951416 4294967295
365.75851 1364.0562 -70.940865 4294967295
377.68317 1363.0797 -70.894775 4294967295
381.69788 1362.7087 -70.793373 4294967295
340.95633 1366.0747 -70.897469 4294967295
343.66272 1365.9491 -70.766563 4294967295
347.44244 1365.5518 -70.533142 4294967295
349.4248 1365.337 -70.381035 4294967295
283.87454 1369.9175 -70.077271 4294967295
154.23006 1379.8439 -70.013206 4294967295
161.47327 1379.2008 -70.029747 4294967295
177.75125 1377.4856 -70.220963 4294967295
119.15367 1382.8043 -70.971497 4294967295
81.212997 1383.7844 -70.467239 4294967295
83.53553 1383.6289 -70.260338 4294967295
84.957863 1384.3816 -70.798561 4294967295
87.734886 1384.1322 -70.102715 4294967295
89.103645 1384.4255 -70.356567 4294967295
91.786148 1384.5751 -70.786949 4294967295
93.182632 1384.4269 -70.480659 4294967295
95.811966 1384.3253 -70.530174 4294967295
98.940971 1383.9283 -70.161285 4294967295
101.42822 1383.7792 -70.391861 4294967295
114.11513 1383.0649 -70.6231 4294967295
371.34818 1340.7246 -69.740555 4294967295
373.39621 1340.6912 -69.677399 4294967295
377.53937 1340.5104 -69.957825 4294967295
385.98346 1340.9105 -69.057938 4294967295
387.58057 1340.8468 -69.097511 4294967295
389.44653 1340.9155 -69.017303 4294967295
391.6394 1340.8608 -69.088791 4294967295
395.23471 1340.5752 -69.355476 4294967295
398.07199 1340.4058 -69.517761 4294967295
401.32434 1340.2476 -69.622398 4294967295
405.00418 1340.5441 -69.973213 4294967295
333.28293 1343.4559 -69.861572 4294967295
335.36258 1343.2698 -69.813881 4294967295
341.52026 1342.8956 -69.876961 4294967295
343.388 1342.8107 -69.772049 4294967295
346.74179 1342.6528 -69.531296 4294967295
349.54517 1342.3145 -69.983795 4294967295
351.24454 1342.2275 -69.822632 4294967295
353.86316 1342.3921 -69.059746 4294967295
359.207 1341.6085 -69.792007 4294967295
363.39832 1341.3308 -69.648766 4294967295
365.14249 1341.2062 -69.633362 4294967295
367.37256 1341.0212 -69.635063 4294967295
399.72992 1341.5436 -69.056915 4294967295
402.05502 1341.7948 -69.176422 4294967295
403.69229 1341.6827 -69.342735 4294967295
405.47876 1342.7185 -69.324181 4294967295
407.40976 1342.8638 -69.519012 4294967295
409.56601 1342.8826 -69.695862 4294967295
287.39734 1346.9137 -69.938339 4294967295
291.3215 1346.692 -69.74604 4294967295
293.51385 1346.5026 -69.862564 4294967295
313.70026 1345.2778 -69.323509 4294967295
319.40802 1344.5608 -69.812386 4294967295
321.16916 1344.4581 -69.682739 4294967295
323.66028 1344.2838 -69.801735 4294967295
411.44217 1344.0975 -69.644859 4294967295
413.76584 1344.0514 -69.969101 4294967295
249.0361 1349.7576 -69.90033 4294967295
253.43141 1349.3423 -69.910271 4294967295
255.2106 1349.2566 -69.850441 4294967295
257.26709 1349.1588 -69.705734 4294967295
265.76239 1348.4965 -69.847786 4294967295
267.37811 1348.3556 -69.820236 4294967295
275.19971 1347.7969 -69.94149 4294967295
281.457 1347.3561 -69.973488 4294967295
283.358 1347.2286 -69.819054 4294967295
405.27936 1348.4464 -69.211533 4294967295
407.63266 1348.2874 -69.447441 4294967295
177.47885 1354.9835 -69.87281 4294967295
179.42148 1354.9133 -69.873779 4294967295
183.46115 1354.594 -69.965324 4294967295
185.22498 1354.5315 -69.883957 4294967295
193.28133 1354.066 -69.940262 4294967295
204.9334 1353.0526 -69.714928 4294967295
407.73648 1353.8535 -69.189758 4294967295
409.59323 1353.8607 -69.396164 4294967295
411.30753 1353.9592 -69.619621 4294967295
413.57507 1353.7391 -69.993576 4294967295
123.31245 1358.9988 -69.65979 4294967295
127.71763 1358.67 -69.997276 4294967295
131.23044 1358.5193 -69.748924 4294967295
137.42226 1358.0076 -69.857826 4294967295
139.43237 1357.8573 -69.876183 4294967295
145.79031 1357.3488 -69.79464 4294967295
149.3056 1357.083 -69.803474 4294967295
153.36063 1356.7925 -69.989601 4294967295
155.35684 1356.7251 -69.86554 4294967295
405.32288 1357.9089 -69.346497 4294967295
407.65607 1357.1722 -69.5 4294967295
409.36398 1357.9209 -69.941147 4294967295
411.41254 1356.3385 -69.607925 4294967295
104.76133 1360.4304 -69.477676 4294967295
107.44408 1360.0535 -69.660034 4294967295
110.82903 1360.1257 -69.472809 4294967295
115.76585 1359.9658 -69.245529 4294967295
121.18307 1359.1438 -69.81955 4294967295
391.48795 1360.6558 -69.15136 4294967295
393.57779 1360.3724 -69.138145 4294967295
395.1459 1359.9985 -69.004829 4294967295
397.51938 1359.6515 -69.081154 4294967295
399.51584 1359.2756 -69.15377 4294967295
401.38226 1359.1487 -69.375626 4294967295
403.12378 1359.2162 -69.702454 4294967295
85.598007 1362.3256 -69.458832 4294967295
87.478485 1362.8075 -69.155731 4294967295
89.779671 1362.601 -69.075813 4294967295
353.30783 1364.8607 -69.671921 4294967295
355.79053 1364.696 -69.797729 4294967295
357.08536 1364.5176 -69.427475 4294967295
359.5434 1364.4415 -69.583313 4294967295
364.20477 1364.0319 -69.653488 4294967295
369.35321 1363.4823 -69.596329 4294967295
371.53879 1363.3412 -69.722794 4294967295
375.15845 1363.0844 -69.587196 4294967295
377.73306 1362.9036 -69.662201 4294967295
379.30908 1362.7344 -69.642708 4294967295
383.06482 1362.4014 -69.768311 4294967295
75.29425 1365.584 -69.585014 4294967295
77.284119 1365.5643 -69.370712 4294967295
79.315857 1366.8644 -69.104774 4294967295
313.91211 1367.8947 -69.897743 4294967295
316.62299 1367.3932 -69.370789 4294967295
325.91122 1367.048 -69.968231 4294967295
329.3208 1366.7771 -69.70224 4294967295
331.07706 1366.6775 -69.690788 4294967295
333.75043 1366.4968 -69.777733 4294967295
337.78091 1366.1246 -69.773575 4294967295
343.58295 1365.7391 -69.400253 4294967295
344.65948 1365.6825 -69.408051 4294967295
74.968193 1368.1385 -69.26091 4294967295
79.400154 1370.5964 -69.514473 4294967295
81.645042 1370.5676 -69.395302 4294967295
83.411781 1370.5586 -69.256355 4294967295
85.107712 1370.9342 -69.155594 4294967295
269.50925 1370.9264 -69.53714 4294967295
279.67276 1370.2537 -69.859467 4294967295
287.26956 1369.6906 -69.910988 4294967295
289.61929 1369.4985 -69.997849 4294967295
291.34201 1369.3257 -69.824608 4294967295
292.72269 1369.1859 -69.695137 4294967295
295.7962 1369.0709 -69.841789 4294967295
297.18854 1368.9164 -69.533508 4294967295
299.39453 1368.832 -69.679794 4294967295
301.40872 1368.6364 -69.722557 4294967295
305.84021 1368.3773 -69.906944 4294967295
309.77795 1368.083 -69.932755 4294967295
79.559021 1373.1393 -69.639046 4294967295
81.264381 1372.7588 -69.526962 4294967295
83.68187 1372.6906 -69.348312 4294967295
224.96405 1373.9589 -69.414803 4294967295
229.9333 1373.5756 -69.352425 4294967295
231.22311 1373.6 -69.557259 4294967295
233.66125 1373.3582 -69.085678 4294967295
237.52577 1373.0928 -69.16227 4294967295
243.34509 1372.6539 -69.011879 4294967295
245.49544 1372.4893 -69.112328 4294967295
247.56967 1372.3387 -69.007729 4294967295
249.61194 1372.2804 -69.571014 4294967295
251.36119 1372.3961 -69.426682 4294967295
253.40292 1372.0852 -69.539978 4294967295
255.46155 1371.9692 -69.526299 4294967295
257.42081 1372.0164 -69.587334 4294967295
259.78055 1371.6447 -69.862518 4294967295
261.18173 1371.5273 -69.420868 4294967295
265.12869 1371.2845 -69.589417 4294967295
267.56348 1371.0388 -69.23838 4294967295
81.336266 1374.8392 -69.487549 4294967295
83.168053 1374.8348 -69.352737 4294967295
85.70488 1374.4893 -69.174538 4294967295
185.57953 1376.9774 -69.632065 4294967295
187.57854 1376.8118 -69.816307 4294967295
193.23061 1376.3044 -69.690109 4294967295
196.0126 1376.1398 -69.887398 4294967295
199.12808 1375.8966 -69.796486 4294967295
201.57542 1375.7465 -69.900558 4294967295
203.81921 1375.5415 -69.923149 4294967295
207.4303 1375.3536 -69.831238 4294967295
208.98798 1375.2291 -69.795128 4294967295
213.07817 1374.8999 -69.569809 4294967295
221.66859 1374.1749 -69.694237 4294967295
227.33249 1374.0542 -69.283836 4294967295
81.589294 1378.3466 -69.183807 4294967295
159.71996 1379.1211 -69.64151 4294967295
163.24236 1378.8406 -69.704857 4294967295
165.46567 1378.6897 -69.816872 4294967295
169.09218 1378.2589 -69.729614 4294967295
181.51384 1377.1975 -69.556427 4294967295
83.920845 1382.0723 -69.213028 4294967295
87.478554 1382.1261 -69.027718 4294967295
115.92522 1382.8422 -69.745499 4294967295
119.52164 1382.6234 -69.530579 4294967295
123.64288 1382.2942 -69.581902 4294967295
131.58791 1381.6094 -69.682289 4294967295
133.60583 1381.425 -69.637535 4294967295
136.02249 1381.2327 -69.952271 4294967295
139.30365 1380.9396 -69.711868 4294967295
141.06122 1380.7937 -69.64695 4294967295
86.288506 1383.2452 -69.701378 4294967295
89.949669 1383.2881 -69.357628 4294967295
91.267433 1383.2997 -69.249809 4294967295
93.354424 1383.4872 -69.207558 4294967295
111.18791 1383.1733 -69.757385 4294967295
337.46674 1343.4974 -68.618614 4294967295
341.35727 1343.448 -68.290871 4294967295
343.46017 1343.4932 -68.331253 4294967295
347.40305 1343.3258 -68.205147 4294967295
357.36365 1342.7548 -68.083 4294967295
359.58316 1342.3508 -68.116165 4294967295
361.72815 1341.9786 -68.575134 4294967295
363.78882 1341.6343 -68.959549 4294967295
365.1795 1341.7195 -68.577736 4294967295
367.00839 1341.4739 -68.494141 4294967295
369.58243 1341.3221 -68.781258 4294967295
371.2998 1341.5117 -68.274887 4294967295
373.25735 1341.359 -68.278748 4294967295
375.66699 1341.2543 -68.650917 4294967295
377.58279 1341.6965 -68.124649 4294967295
379.5325 1341.1982 -68.817337 4294967295
381.84894 1341.6455 -68.368568 4294967295
383.48514 1341.0735 -68.830246 4294967295
387.58972 1342.0522 -68.169708 4294967295
391.30692 1342.0284 -68.380867 4294967295
393.61932 1341.8682 -68.488914 4294967295
395.30927 1342.7374 -68.493958 4294967295
397.36725 1342.8091 -68.626785 4294967295
399.8165 1343.6759 -68.634911 4294967295
403.15881 1343.6108 -68.90979 4294967295
298.88104 1346.7719 -68.614357 4294967295
315.63391 1345.3701 -68.783012 4294967295
317.38837 1345.261 -68.712334 4294967295
319.65222 1345.0115 -68.789108 4294967295
321.36734 1345.2891 -68.027046 4294967295
325.59454 1345.1992 -68.002106 4294967295
327.88455 1344.4406 -68.890968 4294967295
329.46799 1344.7107 -68.310547 4294967295
331.33026 1344.6215 -68.210709 4294967295
333.46655 1344.2673 -68.329941 4294967295
395.3494 1346.142 -68.090515 4294967295
397.67776 1346.318 -68.392342 4294967295
399.47855 1346.556 -68.590904 4294967295
401.5195 1346.0524 -68.769951 4294967295
403.34802 1346.4658 -68.988251 4294967295
255.45459 1349.7196 -68.60936 4294967295
258.99814 1349.549 -68.432442 4294967295
261.94025 1349.2057 -68.764458 4294967295
263.38477 1349.1884 -68.522438 4294967295
265.66492 1348.9816 -68.582634 4294967295
267.34396 1348.9103 -68.454475 4294967295
271.46967 1348.5217 -68.688438 4294967295
275.32056 1348.3143 -68.74733 4294967295
277.25418 1348.1945 -68.711449 4294967295
281.49973 1347.8514 -68.703148 4294967295
283.61816 1347.7129 -68.627815 4294967295
287.12164 1347.4786 -68.531357 4294967295
289.29343 1347.2722 -68.718979 4294967295
291.46686 1347.1534 -68.664825 4294967295
293.43112 1347.0427 -68.629303 4294967295
295.48923 1347.3213 -68.110725 4294967295
397.68039 1348.6051 -68.37159 4294967295
401.832 1348.7914 -68.856186 4294967295
227.28726 1351.8917 -68.464279 4294967295
229.44965 1351.6119 -68.706093 4294967295
247.50841 1350.2749 -68.687065 4294967295
249.26801 1350.2327 -68.638092 4294967295
251.3941 1350.0907 -68.506851 4294967295
395.81821 1350.8156 -68.091377 4294967295
403.10648 1350.9089 -68.92141 4294967295
177.46324 1355.7335 -68.60527 4294967295
181.40497 1355.4772 -68.507362 4294967295
183.52286 1355.3251 -68.56102 4294967295
185.54065 1355.3059 -68.458893 4294967295
187.31989 1355.3511 -68.281082 4294967295
189.50848 1355.1681 -68.396507 4294967295
193.49107 1354.9124 -68.507332 4294967295
195.42821 1355.0801 -68.255165 4294967295
201.4644 1353.8622 -68.84465 4294967295
203.39742 1353.6982 -68.675224 4294967295
205.4808 1353.4767 -68.719856 4294967295
207.36526 1353.4437 -68.525589 4294967295
209.75626 1353.0815 -68.868019 4294967295
405.4964 1353.4962 -68.980995 4294967295
139.75104 1358.6001 -68.228386 4294967295
143.29134 1358.5082 -68.111076 4294967295
147.16608 1357.7451 -68.61454 4294967295
149.27695 1357.6064 -68.62825 4294967295
151.52164 1357.4631 -68.650154 4294967295
153.56281 1357.5297 -68.46785 4294967295
155.67819 1357.4855 -68.488113 4294967295
157.77168 1357.2502 -68.72757 4294967295
159.39603 1358.5439 -68.041275 4294967295
161.87466 1357.6738 -68.804871 4294967295
164.55666 1357.598 -68.763824 4294967295
167.46371 1357.4943 -68.783356 4294967295
169.38521 1356.8298 -68.513847 4294967295
397.84473 1358.2147 -68.381828 4294967295
399.62628 1357.1196 -68.352577 4294967295
403.66461 1356.1338 -68.768608 4294967295
101.71451 1361.5785 -68.750443 4294967295
105.41282 1361.1665 -68.547867 4294967295
109.46603 1361.0836 -68.205978 4294967295
111.70574 1361.1077 -68.109184 4294967295
113.52463 1361.0608 -68.115181 4294967295
121.11391 1359.7673 -68.545532 4294967295
123.65106 1359.4458 -68.731857 4294967295
125.42268 1359.4879 -68.257538 4294967295
127.53794 1359.4088 -68.396729 4294967295
129.37161 1359.2502 -68.541161 4294967295
133.67758 1359.2108 -68.229622 4294967295
383.34076 1361.4406 -68.224297 4294967295
385.64719 1360.6801 -68.327179 4294967295
387.24536 1360.7781 -68.644485 4294967295
389.41998 1360.6381 -68.859604 4294967295
391.53278 1359.4768 -68.25441 4294967295
393.64575 1359.2582 -68.359726 4294967295
87.217865 1363.6633 -68.739876 4294967295
89.303505 1364.0739 -68.517975 4294967295
92.864395 1363.8953 -68.205978 4294967295
93.526924 1362.4427 -68.90535 4294967295
95.373322 1362.5261 -68.587029 4294967295
97.513786 1362.3705 -68.634483 4294967295
98.928505 1362.5726 -68.352859 4294967295
102.18464 1362.2733 -68.077698 4294967295
349.54135 1364.9149 -68.42379 4294967295
351.2822 1364.8438 -68.307854 4294967295
355.22519 1364.4198 -68.399689 4294967295
357.28882 1364.1853 -68.509674 4294967295
359.59909 1364.0546 -68.436363 4294967295
361.85645 1363.8915 -68.618568 4294967295
367.29065 1363.1025 -68.326164 4294967295
369.39279 1362.7253 -68.159401 4294967295
371.46042 1362.6724 -68.300415 4294967295
375.47369 1362.4326 -68.087296 4294967295
81.891151 1365.4536 -68.906754 4294967295
83.586159 1367.812 -68.818192 4294967295
85.497978 1366.9138 -68.719841 4294967295
87.621071 1365.2816 -68.514915 4294967295
89.66732 1367.8735 -68.329773 4294967295
91.134857 1365.3002 -68.100723 4294967295
305.59711 1367.9703 -68.757362 4294967295
307.0795 1367.832 -68.639854 4294967295
309.68198 1367.5562 -68.484177 4294967295
311.62424 1367.5339 -68.719498 4294967295
326.0162 1366.5208 -68.561333 4294967295
329.35651 1366.354 -68.521141 4294967295
331.2948 1366.1975 -68.415497 4294967295
333.3858 1366.24 -68.890244 4294967295
335.86829 1366.036 -68.673553 4294967295
347.55133 1365.3212 -68.721481 4294967295
86.968231 1370.8956 -68.999443 4294967295
87.164146 1368.1206 -68.612396 4294967295
89.333786 1370.4933 -68.707626 4294967295
273.54382 1370.22 -68.165192 4294967295
281.47775 1369.5911 -68.495338 4294967295
283.71228 1369.3854 -68.392181 4294967295
289.38885 1369.05 -68.500153 4294967295
291.53824 1368.912 -68.504173 4294967295
293.23895 1368.7711 -68.394791 4294967295
295.55359 1368.7318 -68.245155 4294967295
297.28629 1368.6536 -68.181244 4294967295
299.23813 1368.422 -68.34095 4294967295
303.45929 1368.0615 -68.483841 4294967295
221.62779 1373.8378 -68.045578 4294967295
234.92346 1373.2209 -68.664246 4294967295
239.88121 1372.912 -68.86409 4294967295
249.84265 1372.0006 -68.028793 4294967295
263.75137 1371.3051 -68.833092 4294967295
87.629219 1375.9199 -68.876282 4294967295
183.16687 1376.9193 -68.235062 4294967295
185.72722 1376.6458 -68.292595 4294967295
186.90408 1376.5282 -68.296707 4294967295
189.56688 1376.28 -68.435738 4294967295
190.99155 1376.1609 -68.500015 4294967295
193.28271 1375.9735 -68.600098 4294967295
198.88324 1375.4514 -68.287781 4294967295
201.92764 1375.2531 -68.525818 4294967295
205.35965 1375.0626 -68.489235 4294967295
207.20207 1374.924 -68.458427 4294967295
209.42773 1374.8 -68.467529 4294967295
85.787735 1377.7531 -68.882553 4294967295
89.407318 1378.7861 -68.468399 4294967295
93.119255 1377.8096 -68.05233 4294967295
155.2529 1379.0974 -68.337532 4294967295
161.6297 1378.5125 -68.471222 4294967295
163.44408 1378.437 -68.634155 4294967295
167.30559 1377.9967 -68.50106 4294967295
178.18771 1377.1282 -68.844917 4294967295
179.56339 1377.0087 -68.631027 4294967295
83.550827 1380.1122 -68.979507 4294967295
85.449669 1380.0189 -68.792542 4294967295
89.693459 1382.1112 -68.770714 4294967295
90.955513 1380.5647 -68.297134 4294967295
93.502106 1381.4551 -68.208862 4294967295
96.04277 1381.8209 -68.110413 4294967295
99.167419 1382.9745 -68.842827 4294967295
101.79018 1382.7211 -68.799484 4294967295
113.33155 1382.2526 -68.428535 4294967295
115.55913 1382.2648 -68.142387 4294967295
117.60111 1382.2382 -68.426659 4294967295
120.66763 1381.9573 -68.181221 4294967295
126.07097 1381.8132 -68.65728 4294967295
129.03719 1381.7351 -68.994659 4294967295
134.57959 1380.7825 -68.372581 4294967295
137.30817 1380.6406 -68.573349 4294967295
140.86472 1380.3566 -68.516617 4294967295
143.71895 1380.1595 -68.682449 4294967295
95.631393 1383.2427 -68.93428 4294967295
349.14282 1343.3792 -67.980789 4294967295
351.19763 1343.2773 -67.968193 4294967295
353.54712 1343.373 -67.718079 4294967295
361.51282 1343.046 -67.426056 4294967295
363.06296 1342.827 -67.497971 4294967295
366.78244 1342.9393 -67.240509 4294967295
369.75195 1342.988 -67.168121 4294967295
371.43228 1342.5477 -67.407547 4294967295
376.86621 1343.786 -67.046089 4294967295
377.57504 1342.4087 -67.7164 4294967295
379.41119 1343.1189 -67.452332 4294967295
383.26794 1343.5095 -67.165787 4294967295
385.40704 1342.3379 -67.995781 4294967295
387.2392 1343.6879 -67.371346 4294967295
389.21866 1343.5997 -67.506203 4294967295
391.53104 1343.7799 -67.873383 4294967295
393.70779 1343.7046 -67.960548 4294967295
313.67377 1346.4696 -67.132111 4294967295
315.44098 1346.6561 -67.221756 4294967295
317.11298 1346.5485 -67.264786 4294967295
323.40259 1345.3071 -67.964668 4294967295
325.49133 1346.5256 -67.07058 4294967295
327.39981 1345.4587 -67.660133 4294967295
329.32593 1346.2498 -67.139404 4294967295
331.57721 1345.9685 -67.211426 4294967295
335.48318 1344.3998 -67.92318 4294967295
341.53189 1344.3186 -67.399719 4294967295
345.4068 1344.5836 -67.271072 4294967295
347.68286 1344.4229 -67.280045 4294967295
353.2601 1344.4788 -67.052727 4294967295
355.36664 1344.1583 -67.151466 4294967295
385.29968 1346.2163 -67.05365 4294967295
387.30975 1345.7157 -67.157593 4294967295
389.28049 1346.176 -67.333588 4294967295
391.52557 1345.973 -67.614769 4294967295
393.36401 1346.4287 -67.860367 4294967295
269.12158 1349.6483 -67.226204 4294967295
271.77084 1349.2963 -67.565437 4294967295
273.60046 1348.9838 -67.888443 4294967295
277.38464 1349.3536 -67.363297 4294967295
281.34399 1348.9707 -67.359695 4294967295
283.49585 1348.817 -67.335854 4294967295
285.68478 1348.5378 -67.367867 4294967295
289.28397 1348.548 -67.185265 4294967295
293.60806 1348.2546 -67.244835 4294967295
297.43607 1347.2062 -67.943321 4294967295
381.54248 1348.4393 -67.0298 4294967295
383.10696 1348.6581 -67.087936 4294967295
385.72308 1348.7202 -67.222435 4294967295
391.59949 1348.947 -67.666588 4294967295
255.34439 1350.7738 -67.121529 4294967295
257.44958 1350.7094 -67.028214 4294967295
263.55783 1350.2225 -67.060242 4294967295
381.49133 1350.7394 -67.179077 4294967295
201.27768 1354.9824 -67.652229 4294967295
203.42386 1354.739 -67.565063 4294967295
207.55119 1354.485 -67.330978 4294967295
209.46024 1354.578 -67.116547 4294967295
223.29897 1353.1519 -67.122879 4294967295
383.78528 1355.6299 -67.021286 4294967295
385.34601 1354.4858 -67.132042 4294967295
141.40538 1358.9854 -67.815926 4294967295
145.49654 1358.637 -67.747292 4294967295
149.26341 1358.6461 -67.43322 4294967295
151.16304 1358.651 -67.409752 4294967295
153.51364 1358.5721 -67.469833 4294967295
155.47 1358.5837 -67.471512 4294967295
169.32336 1357.9716 -67.840759 4294967295
171.20952 1358.2292 -67.590385 4294967295
173.05922 1358.1041 -67.367325 4294967295
175.23227 1357.4102 -67.51442 4294967295
177.6889 1357.7249 -67.123985 4294967295
179.29459 1356.666 -67.600662 4294967295
181.41484 1356.5038 -67.607513 4294967295
183.38261 1356.5763 -67.487564 4294967295
185.42004 1356.4753 -67.483315 4294967295
187.3474 1356.5004 -67.400597 4294967295
189.50418 1356.5198 -67.361382 4294967295
191.52019 1356.3483 -67.439163 4294967295
193.21437 1356.4766 -67.361572 4294967295
195.50685 1356.3805 -67.365982 4294967295
197.25781 1356.1509 -67.37928 4294967295
199.17709 1356.1398 -67.175346 4294967295
381.89749 1358.6263 -67.105637 4294967295
385.48691 1358.0598 -67.258751 4294967295
387.67877 1357.1477 -67.2173 4294967295
389.35883 1357.9441 -67.480446 4294967295
391.55444 1357.0115 -67.469551 4294967295
393.63541 1358.2374 -67.858788 4294967295
395.61331 1356.3147 -67.547821 4294967295
397.54678 1356.1827 -67.818893 4294967295
115.35511 1361.6409 -67.669998 4294967295
119.47508 1360.5876 -67.68766 4294967295
123.33666 1360.7147 -67.469193 4294967295
125.3946 1360.604 -67.425873 4294967295
127.47755 1360.5953 -67.361496 4294967295
129.47699 1360.4962 -67.380547 4294967295
131.30429 1360.3573 -67.42292 4294967295
133.72032 1360.532 -67.250114 4294967295
136.80528 1359.4629 -67.735878 4294967295
137.46019 1360.4281 -67.13475 4294967295
156.61613 1359.5284 -67.29483 4294967295
163.42386 1359.0098 -67.640968 4294967295
165.59903 1359.5862 -67.360062 4294967295
167.32259 1359.2601 -67.553192 4294967295
168.90675 1359.7551 -67.3535 4294967295
365.21829 1361.524 -67.006477 4294967295
367.75217 1361.2717 -67.095032 4294967295
369.38174 1361.3346 -67.161316 4294967295
371.73526 1361.5371 -67.197075 4294967295
377.61798 1360.2759 -67.082001 4294967295
379.4729 1360.9275 -67.481262 4294967295
383.57993 1359.9244 -67.435791 4294967295
385.45761 1359.4935 -67.619804 4294967295
387.49847 1359.4825 -67.871162 4294967295
95.580605 1363.8502 -67.97403 4294967295
97.332367 1363.6434 -67.935646 4294967295
99.387733 1363.8972 -67.698425 4294967295
100.96806 1364.1897 -67.505363 4294967295
103.4744 1363.5396 -67.407448 4294967295
105.46366 1362.83 -67.521477 4294967295
107.31981 1362.5319 -67.471619 4294967295
108.70315 1363.7458 -67.108185 4294967295
333.27295 1364.9813 -67.121635 4294967295
337.50476 1364.9408 -67.446465 4294967295
339.59537 1364.9087 -67.805695 4294967295
343.29398 1364.6639 -67.62307 4294967295
345.09555 1364.6741 -67.478508 4294967295
347.52795 1364.4063 -67.243973 4294967295
353.38004 1363.5127 -67.167351 4294967295
355.51337 1363.2571 -67.154984 4294967295
357.45743 1363.339 -67.333549 4294967295
363.3179 1363.1166 -67.763535 4294967295
376.8898 1362.1152 -67.85762 4294967295
93.580879 1366.7239 -67.884613 4294967295
95.185036 1365.6925 -67.711639 4294967295
96.861397 1365.6422 -67.634834 4294967295
99.851395 1365.2837 -67.4048 4294967295
100.98584 1365.8191 -67.313118 4294967295
103.12336 1365.8505 -67.175438 4294967295
105.26273 1365.4872 -67.07019 4294967295
111.43449 1365.9871 -67.027695 4294967295
113.37842 1366.0355 -67.043221 4294967295
307.56906 1366.64 -67.046623 4294967295
311.26791 1366.4071 -67.158432 4294967295
315.20331 1366.7528 -67.88546 4294967295
327.30988 1365.2504 -67.042107 4294967295
329.53909 1365.1425 -67.023209 4294967295
331.35571 1365.1694 -67.121437 4294967295
335.5892 1365.0083 -67.296074 4294967295
95.219574 1368.2156 -67.81813 4294967295
97.671448 1369.4008 -67.805573 4294967295
99.514557 1368.8483 -67.670029 4294967295
105.6461 1368.412 -67.366882 4294967295
265.2886 1370.9602 -67.692619 4294967295
267.75406 1370.7682 -67.923676 4294967295
285.42212 1368.4237 -67.011757 4294967295
287.49103 1368.3463 -67.015701 4294967295
98.065849 1373.1118 -67.943306 4294967295
107.54977 1372.9225 -67.51046 4294967295
223.15605 1373.7415 -67.959686 4294967295
225.46736 1373.6559 -67.935181 4294967295
229.17343 1373.3877 -67.680138 4294967295
231.39693 1373.4274 -67.825348 4294967295
233.63884 1373.12 -67.711388 4294967295
235.47011 1373.1246 -67.688461 4294967295
237.60445 1372.8718 -67.608788 4294967295
239.23543 1372.7612 -67.556564 4294967295
241.35645 1372.7458 -67.493942 4294967295
245.4239 1372.3362 -67.854912 4294967295
247.24933 1372.1709 -67.813232 4294967295
251.35117 1371.8601 -67.763283 4294967295
255.45805 1371.6581 -67.828606 4294967295
257.33032 1371.5167 -67.775856 4294967295
259.37387 1371.406 -67.817101 4294967295
261.44708 1371.3767 -67.810928 4294967295
263.44135 1371.0339 -67.548744 4294967295
104.64166 1376.1071 -67.244331 4294967295
161.97324 1376.7804 -67.165649 4294967295
167.25827 1376.8693 -67.043701 4294967295
169.02258 1376.8583 -67.201637 4294967295
171.52635 1376.4949 -67.176796 4294967295
199.22887 1374.5415 -67.032707 4294967295
201.54836 1374.3225 -67.004288 4294967295
203.2554 1374.168 -67.003845 4294967295
95.527992 1377.3916 -67.793694 4294967295
97.503036 1377.739 -67.485481 4294967295
99.529343 1377.7781 -67.372879 4294967295
101.31414 1377.9746 -67.111908 4294967295
105.38442 1378.1571 -67.017555 4294967295
107.46996 1378.1399 -67.018074 4294967295
109.706 1377.6732 -67.020844 4294967295
135.28055 1379.5004 -67.019356 4294967295
139.42157 1379.3964 -67.087395 4294967295
