# .PCD v0.7 - Point Cloud Data file format
VERSION 0.7
FIELDS x y z rgba
SIZE 4 4 4 4
TYPE F F F U
COUNT 1 1 1 1
WIDTH 1146
HEIGHT 1
VIEWPOINT 0 0 0 1 0 0 0
POINTS 1146
DATA ascii
161.0123 4214.6445 -771.18311 4294967295
162.52306 4212.2925 -771.01843 4294967295
163.55322 4213.9995 -771.20551 4294967295
167.12204 4214.1284 -771.20984 4294967295
169.42567 4214.7642 -771.25812 4294967295
172.17021 4214.918 -771.23047 4294967295
174.24716 4214.5742 -771.16174 4294967295
175.52025 4214.7139 -771.14087 4294967295
176.59372 4214.4448 -771.0614 4294967295
163.14178 4215.8071 -771.37744 4294967295
165.46875 4216.4272 -771.45349 4294967295
167.36693 4216.6196 -771.48138 4294967295
169.23651 4217.2124 -771.53064 4294967295
170.87167 4216.7905 -771.45447 4294967295
172.31207 4216.8628 -771.41998 4294967295
174.23022 4217.0703 -771.35083 4294967295
175.04681 4215.6504 -771.23895 4294967295
176.37012 4216.2559 -771.19482 4294967295
177.74872 4215.2954 -771.05115 4294967295
178.50604 4217.2656 -771.09705 4294967295
421.38364 4216.6108 -771.01813 4294967295
423.64798 4216.6162 -771.01245 4294967295
425.70233 4216.7627 -771.01416 4294967295
160.99118 4218.9658 -771.41595 4294967295
161.78708 4220.9141 -771.56195 4294967295
163.65118 4219.6279 -771.63214 4294967295
166.78406 4219.6675 -771.70264 4294967295
168.45415 4218.4878 -771.63605 4294967295
169.61975 4219.5796 -771.68433 4294967295
170.28947 4218.3911 -771.604 4294967295
172.11836 4218.7539 -771.56067 4294967295
174.6035 4220.457 -771.50018 4294967295
176.8887 4219.1221 -771.27948 4294967295
179.24483 4219.8721 -771.13464 4294967295
335.68134 4219.1245 -771.013 4294967295
337.3688 4219.2046 -771.04974 4294967295
339.17966 4219.5801 -771.11517 4294967295
341.59897 4219.3818 -771.05182 4294967295
359.64398 4220.3867 -771.54083 4294967295
365.36584 4219.9902 -771.41962 4294967295
369.27292 4219.9385 -771.35156 4294967295
371.61908 4220.6729 -771.40039 4294967295
373.40793 4220.665 -771.18018 4294967295
375.63556 4220.7061 -771.17126 4294967295
377.64374 4220.6382 -771.13031 4294967295
379.71149 4220.7437 -771.14868 4294967295
381.48068 4220.9048 -771.10931 4294967295
389.35968 4220.9785 -771.04315 4294967295
391.63913 4219.8389 -771.10889 4294967295
393.59045 4219.2119 -771.16028 4294967295
397.34641 4218.1201 -771.26123 4294967295
401.82986 4218.7969 -771.10028 4294967295
403.51111 4219.4717 -771.02362 4294967295
405.52237 4220.6929 -771.0293 4294967295
419.49036 4218.6616 -771.02338 4294967295
160.54916 4223.6118 -771.49738 4294967295
163.31633 4222.9922 -771.71838 4294967295
164.98537 4221.2725 -771.75305 4294967295
166.42072 4221.9478 -771.80878 4294967295
167.84042 4222.6646 -771.80939 4294967295
169.8063 4223.9038 -771.78296 4294967295
171.44014 4222.7158 -771.74347 4294967295
172.3546 4221.1113 -771.6637 4294967295
173.52614 4223.1772 -771.62952 4294967295
175.68066 4222.6343 -771.47131 4294967295
176.74936 4221.4971 -771.36243 4294967295
178.12616 4221.375 -771.24603 4294967295
179.38948 4222.1802 -771.17352 4294967295
180.68811 4222.6934 -771.10181 4294967295
182.6158 4223.6426 -771.04999 4294967295
321.7056 4221.9458 -771.39044 4294967295
329.53452 4222.082 -771.53094 4294967295
331.74149 4221.7227 -771.47772 4294967295
333.28561 4222.0889 -771.57355 4294967295
335.70032 4222.1953 -771.44501 4294967295
337.46198 4221.9995 -771.65082 4294967295
339.80447 4222.7646 -771.71216 4294967295
341.64709 4222.1528 -771.60657 4294967295
343.45349 4222.6006 -771.54205 4294967295
345.78458 4222.7402 -771.2417 4294967295
347.41275 4222.7256 -771.43005 4294967295
349.46414 4222.9111 -771.22479 4294967295
351.72293 4222.9395 -771.29456 4294967295
355.40979 4222.9351 -771.40033 4294967295
358.06625 4222.4102 -771.28693 4294967295
359.67935 4222.2349 -771.38727 4294967295
361.4989 4222.1392 -771.18774 4294967295
363.63245 4222.1968 -771.11279 4294967295
367.48276 4222.0161 -771.06628 4294967295
373.21652 4222.0308 -771.16095 4294967295
379.51974 4222.1353 -771.0744 4294967295
383.42725 4221.6851 -771.1319 4294967295
387.47842 4221.4995 -771.06854 4294967295
157.96043 4224.0605 -771.13928 4294967295
159.21336 4225.9077 -771.34412 4294967295
160.90314 4225.5015 -771.55505 4294967295
162.15404 4225.0796 -771.65387 4294967295
163.95531 4225.9497 -771.71161 4294967295
165.89787 4224.0132 -771.80383 4294967295
168.0011 4225.54 -771.76917 4294967295
169.95987 4226.7974 -771.66547 4294967295
171.70505 4225.0869 -771.68866 4294967295
173.68745 4226.0503 -771.51178 4294967295
175.53323 4225.666 -771.38025 4294967295
177.7485 4224.127 -771.27844 4294967295
179.78098 4226.5474 -771.08569 4294967295
181.57239 4225.8223 -771.07733 4294967295
183.55846 4226.7734 -771.04578 4294967295
185.48149 4224.9868 -771.04785 4294967295
241.72435 4225.0313 -771.28778 4294967295
247.6985 4225.144 -771.3656 4294967295
251.46309 4225.4702 -771.49579 4294967295
253.6418 4225.481 -771.51489 4294967295
255.31987 4225.4224 -771.4964 4294967295
257.40994 4225.4409 -771.48932 4294967295
259.58127 4225.5688 -771.52386 4294967295
261.55151 4225.542 -771.57465 4294967295
263.18634 4225.6362 -771.67377 4294967295
265.58221 4226.0488 -771.86578 4294967295
281.60403 4225.9888 -771.80951 4294967295
283.66797 4226.0137 -771.76068 4294967295
285.51819 4225.9233 -771.75061 4294967295
287.57001 4226.1699 -771.76654 4294967295
289.88339 4226.668 -771.57062 4294967295
291.42056 4226.5322 -771.58057 4294967295
295.66797 4225.3335 -771.55774 4294967295
299.69016 4226.0981 -771.5708 4294967295
301.5394 4225.2051 -771.57086 4294967295
303.38397 4225.0073 -771.52844 4294967295
305.36017 4225.4072 -771.5293 4294967295
307.50748 4225.3877 -771.54401 4294967295
309.78775 4224.9297 -771.59192 4294967295
311.63007 4226.0225 -771.53503 4294967295
315.68015 4224.9233 -771.54749 4294967295
317.62186 4225.5576 -771.44751 4294967295
319.61542 4225.5259 -771.42334 4294967295
321.54504 4225.4888 -771.38458 4294967295
323.44321 4226.1753 -771.45013 4294967295
325.99518 4224.8018 -771.44623 4294967295
329.30228 4224.8125 -771.55536 4294967295
331.42896 4224.3716 -771.33893 4294967295
335.63766 4224.2266 -771.32208 4294967295
337.43463 4224.061 -771.33356 4294967295
158.69556 4228.2866 -771.28241 4294967295
160.16283 4229.5884 -771.40741 4294967295
161.54561 4227.6665 -771.54492 4294967295
164.23164 4228.6875 -771.56866 4294967295
166.21011 4228.5127 -771.56799 4294967295
168.14534 4228.4263 -771.56396 4294967295
170.14365 4229.7227 -771.30811 4294967295
171.9353 4227.9282 -771.45886 4294967295
173.96988 4228.9204 -771.19342 4294967295
177.81563 4227.9561 -771.026 4294967295
187.77571 4228.3306 -771.24115 4294967295
189.38341 4229.5684 -771.45325 4294967295
193.37151 4229.4087 -771.65479 4294967295
227.48773 4227.6919 -771.75 4294967295
237.32991 4227.8325 -771.74554 4294967295
239.69609 4227.8037 -771.7674 4294967295
241.60298 4228.0361 -771.87164 4294967295
243.45987 4228.0229 -771.79706 4294967295
245.76608 4228.0278 -771.97095 4294967295
249.5976 4228.1064 -771.83771 4294967295
257.59048 4229.8657 -771.76324 4294967295
259.41995 4229.9063 -771.73175 4294967295
265.3851 4229.9097 -771.5094 4294967295
269.57742 4229.8994 -771.3941 4294967295
273.4003 4229.8423 -771.30377 4294967295
275.24338 4228.1924 -771.96393 4294967295
277.59787 4228.0947 -771.82227 4294967295
279.50192 4229.123 -771.1698 4294967295
281.32632 4228.0947 -771.4472 4294967295
287.409 4228.1025 -771.32373 4294967295
289.57098 4227.9683 -771.40411 4294967295
293.48215 4227.9321 -771.39191 4294967295
295.55515 4228.0679 -771.45471 4294967295
297.39633 4227.8472 -771.2868 4294967295
299.59235 4227.8315 -771.30872 4294967295
301.40555 4227.7158 -771.24121 4294967295
303.59979 4227.6387 -771.14838 4294967295
309.65076 4227.3555 -771.25415 4294967295
158.78487 4230.4634 -771.25177 4294967295
160.31659 4231.7285 -771.21259 4294967295
161.47166 4230.2563 -771.40991 4294967295
162.74095 4231.2153 -771.27917 4294967295
164.53076 4231.1919 -771.28668 4294967295
166.40193 4232.4033 -771.00507 4294967295
168.25757 4231.2129 -771.14868 4294967295
187.63101 4231.0083 -771.25653 4294967295
189.79303 4231.999 -771.62048 4294967295
213.39687 4232.7476 -771.88177 4294967295
215.4512 4232.0317 -771.9538 4294967295
217.24808 4230.0161 -771.98706 4294967295
219.8085 4232.0537 -771.89716 4294967295
221.28323 4232.1807 -771.90399 4294967295
225.36548 4232.1426 -771.85547 4294967295
229.8257 4231.8892 -771.96783 4294967295
231.7148 4231.9048 -771.90082 4294967295
233.62718 4231.8745 -771.85474 4294967295
237.53001 4231.877 -771.47125 4294967295
239.49298 4231.3862 -771.70007 4294967295
241.67497 4230.7651 -771.78918 4294967295
243.40277 4231.1182 -771.68439 4294967295
245.59236 4231.3291 -771.56708 4294967295
247.27902 4230.0825 -771.75366 4294967295
249.40166 4231.2163 -771.336 4294967295
251.44287 4230.0327 -771.66211 4294967295
253.39346 4231.6201 -771.00415 4294967295
255.44173 4230.0811 -771.61041 4294967295
261.61285 4230.0054 -771.54926 4294967295
263.53668 4230.0952 -771.48206 4294967295
190.06013 4234.1602 -771.4895 4294967295
191.41261 4234.668 -771.80762 4294967295
193.71091 4234.1763 -771.90045 4294967295
195.42944 4235.1943 -771.49792 4294967295
197.46777 4235.2349 -771.57281 4294967295
199.39944 4235.0879 -771.61029 4294967295
201.73802 4234.1074 -771.87329 4294967295
203.70076 4235.0459 -771.45813 4294967295
205.31613 4234.145 -771.85358 4294967295
209.23703 4234.019 -771.73016 4294967295
211.47256 4234.751 -771.19678 4294967295
217.34515 4233.5518 -771.54565 4294967295
221.60054 4233.3447 -771.44019 4294967295
227.31093 4233.0884 -771.41681 4294967295
231.29102 4233.4575 -771.00671 4294967295
407.03604 4193.5488 -770.01923 4294967295
411.26599 4193.5903 -770.00415 4294967295
367.29892 4195.8086 -770.05334 4294967295
377.50323 4195.521 -770.00916 4294967295
381.34805 4195.5444 -770.16461 4294967295
383.42276 4195.6753 -770.16034 4294967295
385.47424 4195.5723 -770.16388 4294967295
387.32489 4195.6577 -770.03125 4294967295
391.38162 4195.4321 -770.06091 4294967295
393.25345 4195.8594 -770.07233 4294967295
395.39572 4196.0928 -770.16296 4294967295
399.41385 4196.2798 -770.1084 4294967295
401.36392 4195.979 -770.13647 4294967295
403.22412 4196.0464 -770.10187 4294967295
405.52341 4196.0669 -770.02783 4294967295
305.41223 4199.9004 -770.16229 4294967295
309.32062 4199.7588 -770.33685 4294967295
311.24969 4199.9512 -770.27094 4294967295
317.33069 4199.543 -770.5282 4294967295
349.13382 4197.5195 -770.35065 4294967295
351.40536 4197.5703 -770.1828 4294967295
353.55078 4197.4189 -770.14752 4294967295
355.26392 4197.5903 -770.30383 4294967295
359.46671 4197.6548 -770.26813 4294967295
361.31436 4197.8179 -770.26904 4294967295
363.17755 4197.75 -770.15338 4294967295
365.31055 4197.9614 -770.15143 4294967295
377.27679 4197.9692 -770.15863 4294967295
391.40131 4198.29 -770.02185 4294967295
635.49182 4199.9316 -770.06671 4294967295
639.52545 4199.7505 -770.14252 4294967295
641.40576 4199.9023 -770.06274 4294967295
643.53162 4199.957 -770.21777 4294967295
665.33331 4198.0386 -770.03064 4294967295
667.52393 4197.834 -770.04187 4294967295
669.33533 4197.9243 -770.10748 4294967295
673.27289 4198.5674 -770.1958 4294967295
683.6828 4198.6924 -770.04553 4294967295
245.57927 4202.3945 -770.03461 4294967295
251.47174 4202.2573 -770.03058 4294967295
257.49185 4201.8374 -770.0741 4294967295
261.40036 4201.7783 -770.01965 4294967295
265.35333 4202.4014 -770.24158 4294967295
267.52463 4201.8159 -770.13763 4294967295
271.4447 4201.7983 -770.15491 4294967295
273.40063 4201.646 -770.09479 4294967295
275.51083 4201.8203 -770.18176 4294967295
277.30841 4201.7568 -770.19025 4294967295
279.5332 4201.7388 -770.45313 4294967295
281.51105 4201.6606 -770.30194 4294967295
293.51746 4201.5283 -770.58453 4294967295
309.37955 4201.8853 -770.48755 4294967295
311.35837 4201.6841 -770.65314 4294967295
313.55768 4201.0342 -770.51599 4294967295
315.70013 4201.8315 -770.71246 4294967295
319.41333 4201.9053 -770.55151 4294967295
323.36234 4202.2295 -770.40924 4294967295
325.60532 4201.9746 -770.13104 4294967295
327.48898 4202.4932 -770.11829 4294967295
332.11487 4202.9668 -770.09155 4294967295
338.62817 4200.4634 -770.00061 4294967295
339.11014 4201.8403 -770.03656 4294967295
342.92191 4202.0918 -770.01526 4294967295
345.31329 4202.6714 -770.07916 4294967295
347.42807 4201.4834 -770.16089 4294967295
349.37518 4200.0928 -770.22968 4294967295
355.42151 4201.5356 -770.1734 4294967295
361.34293 4201.5381 -770.10608 4294967295
633.97394 4202.6299 -770.04926 4294967295
635.63062 4202.6724 -770.039 4294967295
637.5318 4200.0405 -770.18182 4294967295
639.22827 4202.0361 -770.05762 4294967295
641.45898 4202.0425 -770.0224 4294967295
645.58472 4200.0938 -770.276 4294967295
647.4563 4200.1763 -770.27222 4294967295
649.4743 4200.1377 -770.2168 4294967295
651.4718 4200.7632 -770.23785 4294967295
653.48419 4200.7407 -770.21088 4294967295
655.73938 4200.7021 -770.17242 4294967295
657.41119 4200.6821 -770.16595 4294967295
661.62665 4200.8262 -770.15485 4294967295
663.52576 4200.7163 -770.15643 4294967295
667.43732 4200.3584 -770.18542 4294967295
677.56122 4201.2383 -770.03522 4294967295
201.75883 4205.9639 -770.12683 4294967295
203.31569 4205.9429 -770.35187 4294967295
205.43974 4205.623 -770.38287 4294967295
209.51646 4204.8223 -770.01392 4294967295
211.47079 4205.5845 -770.4679 4294967295
213.25284 4205.5234 -770.42859 4294967295
215.57834 4205.6709 -770.49487 4294967295
217.2514 4205.0186 -770.31207 4294967295
221.06757 4204.5498 -770.14728 4294967295
223.36833 4204.7539 -770.26965 4294967295
225.15912 4205.4883 -770.58704 4294967295
227.48775 4204.5522 -770.28387 4294967295
229.32503 4204.5493 -770.30219 4294967295
231.35808 4204.7021 -770.3855 4294967295
233.45795 4204.4473 -770.35486 4294967295
235.56448 4204.3467 -770.42993 4294967295
237.47537 4205.0005 -770.72363 4294967295
239.57768 4203.7515 -770.27429 4294967295
241.32397 4204.6875 -770.48517 4294967295
243.28528 4204.6665 -770.56805 4294967295
245.20856 4204.7729 -770.57776 4294967295
247.41069 4205.0142 -770.64063 4294967295
249.22562 4205.6113 -770.73822 4294967295
251.44789 4204.5654 -770.58875 4294967295
253.36978 4204.6377 -770.62213 4294967295
259.30521 4204.6982 -770.5835 4294967295
263.31104 4203.0884 -770.38531 4294967295
267.5282 4203.6724 -770.67401 4294967295
269.2865 4203.4751 -770.68109 4294967295
271.36548 4203.6646 -770.64954 4294967295
273.73047 4203.6699 -770.58386 4294967295
277.3627 4203.8311 -770.68646 4294967295
281.21704 4203.8804 -770.7193 4294967295
329.46878 4203.1934 -770.10217 4294967295
351.51965 4204.9033 -770.06659 4294967295
533.29523 4205.5801 -770.05109 4294967295
537.4007 4205.6182 -770.15839 4294967295
539.25458 4205.5469 -770.17346 4294967295
541.47253 4205.7573 -770.23328 4294967295
543.49939 4205.9541 -770.29669 4294967295
545.61053 4205.9033 -770.29565 4294967295
547.53101 4205.9058 -770.29456 4294967295
567.32861 4203.6377 -770.13092 4294967295
571.539 4203.7524 -770.14362 4294967295
573.5672 4203.6577 -770.09998 4294967295
575.76959 4203.752 -770.1214 4294967295
577.41882 4203.9727 -770.20752 4294967295
581.49377 4204.5405 -770.46686 4294967295
583.57727 4204.6558 -770.54877 4294967295
585.53265 4204.0122 -770.45667 4294967295
587.48761 4204.209 -770.47034 4294967295
589.60315 4204.1758 -770.50153 4294967295
165.54735 4208.5615 -770.23798 4294967295
175.61995 4207.9961 -770.23834 4294967295
179.01549 4207.9038 -770.33929 4294967295
181.45392 4207.48 -770.45593 4294967295
185.07335 4207.4731 -770.53088 4294967295
187.5518 4207.647 -770.43323 4294967295
189.74124 4207.6333 -770.38849 4294967295
193.4063 4207.7197 -770.43628 4294967295
197.15669 4207.6504 -770.70319 4294967295
199.59224 4206.0469 -770.02289 4294967295
201.3038 4207.5918 -770.65918 4294967295
203.36938 4207.644 -770.73907 4294967295
205.11488 4207.6763 -770.7782 4294967295
209.20174 4207.0117 -770.70764 4294967295
211.58066 4206.8975 -770.72369 4294967295
213.3963 4207.1206 -770.77606 4294967295
215.36427 4207.5767 -770.78943 4294967295
217.36633 4207.8774 -770.84137 4294967295
221.5285 4207.5371 -770.92505 4294967295
223.1826 4207.7466 -770.91949 4294967295
225.02521 4207.8848 -770.84412 4294967295
227.55882 4207.9365 -770.92047 4294967295
229.50032 4207.9932 -770.89697 4294967295
233.07536 4207.917 -770.83765 4294967295
237.32335 4208.1221 -770.69806 4294967295
241.07428 4208.1792 -770.67444 4294967295
245.29449 4208.2109 -770.65259 4294967295
247.54405 4208.2856 -770.62262 4294967295
249.43683 4208.335 -770.61719 4294967295
503.5275 4206.8931 -770.02063 4294967295
505.63956 4207.0479 -770.02478 4294967295
533.46997 4208.625 -770.34406 4294967295
539.26721 4208.9048 -770.48126 4294967295
541.31769 4208.8369 -770.46527 4294967295
545.55414 4208.999 -770.40527 4294967295
549.70203 4206.5781 -770.39972 4294967295
551.68469 4206.6191 -770.45837 4294967295
553.48395 4206.6226 -770.49579 4294967295
555.4978 4208.5903 -770.35486 4294967295
557.39221 4208.3652 -770.45758 4294967295
565.65472 4206.6895 -770.64258 4294967295
567.52466 4208.0103 -770.37585 4294967295
571.47107 4206.7622 -770.53632 4294967295
573.50781 4206.9185 -770.47003 4294967295
575.85968 4207.9097 -770.21979 4294967295
577.53595 4207.7935 -770.0199 4294967295
581.56195 4206.8149 -770.47803 4294967295
585.39258 4206.1694 -770.26636 4294967295
154.49911 4210.729 -770.78296 4294967295
157.33588 4209.7144 -770.82312 4294967295
159.22292 4211.8145 -770.87671 4294967295
163.56891 4210.7588 -770.69147 4294967295
164.98825 4209.9912 -770.46527 4294967295
167.07439 4209.7344 -770.44049 4294967295
169.38652 4210.1948 -770.58038 4294967295
170.95854 4209.4307 -770.59332 4294967295
174.05162 4210.0884 -770.50085 4294967295
178.16731 4209.2373 -770.35144 4294967295
179.48004 4210.7578 -770.78961 4294967295
185.32849 4209.6621 -770.81952 4294967295
189.57828 4209.9956 -770.88214 4294967295
191.58168 4209.8491 -770.96246 4294967295
195.45294 4210.0005 -770.93433 4294967295
197.38577 4210.0293 -770.9527 4294967295
199.40848 4209.835 -770.91437 4294967295
203.55783 4210.0166 -770.98956 4294967295
205.24475 4210.1909 -770.94556 4294967295
209.3945 4210.1631 -770.86169 4294967295
211.15999 4210.2437 -770.82538 4294967295
467.48151 4211.5229 -770.48212 4294967295
471.33255 4211.9448 -770.61145 4294967295
499.53375 4209.814 -770.41449 4294967295
501.7005 4210.0034 -770.44128 4294967295
503.51471 4209.8364 -770.42206 4294967295
505.46533 4210.5884 -770.53461 4294967295
507.56357 4211.2393 -770.46558 4294967295
509.63742 4211.2422 -770.45624 4294967295
511.75232 4211.9849 -770.55933 4294967295
513.35852 4211.4907 -770.44769 4294967295
523.703 4211.937 -770.42847 4294967295
527.69641 4210.6387 -770.35071 4294967295
531.80347 4210.1475 -770.31366 4294967295
533.65338 4210.0923 -770.31769 4294967295
535.39661 4209.7998 -770.35742 4294967295
536.9516 4210.4531 -770.43103 4294967295
537.41101 4211.3579 -770.07422 4294967295
539.4165 4210.2681 -770.38568 4294967295
541.24731 4210.106 -770.44287 4294967295
543.67371 4209.0156 -770.44525 4294967295
547.65509 4209.083 -770.40436 4294967295
549.39832 4210.2588 -770.19409 4294967295
553.51239 4209.3096 -770.26202 4294967295
165.35634 4212.2222 -770.94049 4294967295
168.26715 4212.1245 -770.90875 4294967295
171.11211 4212.002 -770.88098 4294967295
173.40982 4212.7378 -770.95422 4294967295
175.61697 4212.6655 -770.89996 4294967295
177.80664 4213.145 -770.88843 4294967295
181.45551 4213.1865 -770.88776 4294967295
201.30783 4213.8237 -770.75604 4294967295
437.42807 4213.6694 -770.62634 4294967295
441.36801 4213.2827 -770.60852 4294967295
443.61044 4213.4907 -770.73224 4294967295
445.40762 4213.6631 -770.83911 4294967295
447.56552 4213.7666 -770.91455 4294967295
449.54333 4213.8467 -770.87927 4294967295
453.59091 4213.9146 -770.8949 4294967295
455.68668 4214.7412 -770.92029 4294967295
457.64401 4214.6274 -770.9165 4294967295
473.36093 4212.6191 -770.67212 4294967295
475.60571 4213.8149 -770.69611 4294967295
483.89417 4213.4976 -770.61505 4294967295
485.61545 4212.6299 -770.63464 4294967295
487.78818 4213.5591 -770.62903 4294967295
489.58478 4213.6104 -770.59601 4294967295
495.74005 4213.9639 -770.5293 4294967295
497.53162 4213.7876 -770.45856 4294967295
499.53278 4213.6069 -770.39343 4294967295
501.5466 4213.4453 -770.34418 4294967295
503.73761 4213.1362 -770.41241 4294967295
505.74167 4212.9888 -770.4389 4294967295
507.60684 4213.0918 -770.49579 4294967295
509.57797 4213.1758 -770.51807 4294967295
513.49774 4214.1099 -770.19592 4294967295
519.5777 4212.4399 -770.26154 4294967295
521.68628 4213.0332 -770.22986 4294967295
179.38812 4215.0146 -770.9563 4294967295
181.43785 4217.9375 -770.97369 4294967295
379.57806 4217.5977 -770.97046 4294967295
399.47504 4215.2085 -770.68878 4294967295
413.49896 4216.5889 -770.95477 4294967295
415.82819 4217.1362 -770.87646 4294967295
417.48599 4216.6318 -770.95612 4294967295
425.98148 4217.2129 -770.8869 4294967295
427.7453 4217.3574 -770.86987 4294967295
431.48785 4217.3101 -770.81995 4294967295
433.55841 4217.2515 -770.80511 4294967295
437.65195 4217.5483 -770.90057 4294967295
439.47144 4216.8765 -770.86591 4294967295
441.39914 4216.7739 -770.90454 4294967295
442.99994 4215.8179 -770.92932 4294967295
445.58981 4216.1108 -770.34253 4294967295
449.82373 4215.9238 -770.83954 4294967295
453.49527 4216.0918 -770.70752 4294967295
455.36493 4217.4341 -770.29504 4294967295
459.41666 4216.6172 -770.46606 4294967295
461.5997 4216.7983 -770.58429 4294967295
463.5311 4215.6128 -770.82001 4294967295
467.3331 4215.9209 -770.65649 4294967295
343.48413 4219.2637 -770.99792 4294967295
397.45343 4220.1543 -770.97516 4294967295
401.60391 4220.3643 -770.96326 4294967295
409.61218 4220.832 -770.98016 4294967295
411.41653 4220.9043 -770.82031 4294967295
413.64569 4220.4668 -770.78754 4294967295
415.5965 4220.2148 -770.745 4294967295
417.46811 4220.0464 -770.6142 4294967295
421.67044 4218.8984 -770.95056 4294967295
423.5578 4219.4478 -770.72681 4294967295
425.4552 4218.8315 -770.81519 4294967295
427.45914 4219.1777 -770.67957 4294967295
431.3913 4218.6714 -770.6825 4294967295
435.51587 4219.0439 -770.52203 4294967295
437.40616 4219.522 -770.39923 4294967295
439.26422 4218.1064 -770.86926 4294967295
457.41049 4218.0151 -770.13208 4294967295
357.43027 4223.7563 -770.78149 4294967295
361.52258 4223.2402 -770.78979 4294967295
365.58157 4223.1812 -770.70026 4294967295
369.43835 4223.168 -770.6886 4294967295
371.36374 4223.1445 -770.67566 4294967295
375.39401 4223.3931 -770.62067 4294967295
377.50125 4222.2163 -770.96777 4294967295
379.52579 4223.5493 -770.39825 4294967295
385.38129 4222.5986 -770.83453 4294967295
387.49319 4223.4854 -770.07727 4294967295
389.62228 4221.9458 -770.86401 4294967295
391.29575 4222.9087 -770.22021 4294967295
393.45691 4221.6963 -770.68817 4294967295
395.47083 4221.9126 -770.50354 4294967295
399.07407 4221.2339 -770.74347 4294967295
401.51395 4221.8154 -770.49927 4294967295
403.30276 4222.3486 -770.05499 4294967295
405.50958 4222.1665 -770.19531 4294967295
413.41925 4221.4629 -770.34155 4294967295
327.49976 4226.3408 -770.9917 4294967295
331.16272 4225.7642 -770.94495 4294967295
333.69012 4225.3154 -770.97565 4294967295
337.63889 4225.2725 -770.9577 4294967295
339.45596 4225.6475 -770.67871 4294967295
343.16785 4225.459 -770.65039 4294967295
345.40088 4224.9355 -770.82642 4294967295
349.42694 4225.3179 -770.51678 4294967295
351.47589 4224.6865 -770.7785 4294967295
353.26111 4224.9492 -770.56287 4294967295
355.33823 4224.854 -770.44189 4294967295
359.30637 4224.627 -770.28015 4294967295
363.40976 4224.4756 -770.07703 4294967295
175.98752 4229.9014 -770.85205 4294967295
179.66734 4229.3594 -770.79071 4294967295
181.46335 4228.0527 -770.96997 4294967295
182.9104 4229.2891 -770.90308 4294967295
185.10258 4229.772 -771 4294967295
281.33676 4229.8042 -770.71405 4294967295
283.41278 4229.6611 -770.70258 4294967295
285.34454 4229.6914 -770.63812 4294967295
287.34116 4229.478 -770.72595 4294967295
289.24057 4229.4673 -770.77661 4294967295
293.34845 4229.4131 -770.69403 4294967295
297.65201 4229.0854 -770.68286 4294967295
301.44647 4228.749 -770.66156 4294967295
303.40878 4228.7686 -770.4129 4294967295
305.59976 4228.4761 -770.43542 4294967295
307.51743 4228.3755 -770.38989 4294967295
309.25284 4228.4463 -770.4342 4294967295
311.48544 4228.4033 -770.51758 4294967295
313.30249 4227.9233 -770.89093 4294967295
315.48721 4228.2607 -770.37659 4294967295
317.35834 4227.7344 -770.70386 4294967295
319.33054 4227.4741 -770.8562 4294967295
321.30743 4227.6211 -770.64355 4294967295
323.39511 4227.3574 -770.64215 4294967295
325.26001 4227.3052 -770.57916 4294967295
155.28377 4232.3599 -770.71686 4294967295
170.36333 4232.8232 -770.62054 4294967295
172.21178 4230.8418 -770.97156 4294967295
174.26488 4231.7637 -770.56714 4294967295
176.20753 4232.7124 -770.07391 4294967295
177.90561 4230.9951 -770.495 4294967295
179.75998 4232.04 -770.16541 4294967295
181.41606 4230.5298 -770.62781 4294967295
183.22499 4231.3726 -770.59528 4294967295
184.50499 4231.8862 -770.66821 4294967295
185.87413 4232.5142 -770.77539 4294967295
243.46814 4232.9805 -770.78662 4294967295
247.1958 4232.7573 -770.65271 4294967295
249.39908 4232.7197 -770.42505 4294967295
251.38087 4232.3105 -770.47772 4294967295
255.2762 4231.6035 -770.90747 4294967295
257.52145 4231.6587 -770.76636 4294967295
259.33084 4231.688 -770.67578 4294967295
263.41574 4231.3799 -770.83215 4294967295
265.22974 4231.3467 -770.77765 4294967295
267.59821 4231.1631 -770.73761 4294967295
271.43829 4231.5234 -770.23883 4294967295
273.34839 4230.9092 -770.57886 4294967295
275.12561 4230.7344 -770.61786 4294967295
277.57208 4230.6074 -770.49976 4294967295
279.47281 4230.3511 -770.52136 4294967295
155.19724 4235.2832 -770.45563 4294967295
157.88228 4233.0747 -770.86597 4294967295
160.82024 4234.7095 -770.57013 4294967295
163.25331 4234.6182 -770.56982 4294967295
164.74631 4234.4482 -770.51984 4294967295
166.39378 4234.6763 -770.36737 4294967295
168.17215 4233.7192 -770.55481 4294967295
172.67561 4233.4741 -770.18292 4294967295
184.16974 4233.5928 -770.03729 4294967295
186.00069 4234.4585 -770.12177 4294967295
188.11646 4234.8955 -770.54858 4294967295
189.79936 4235.4951 -770.86145 4294967295
201.41518 4235.8516 -770.88184 4294967295
205.39832 4235.6724 -770.91992 4294967295
207.30992 4235.5088 -770.93884 4294967295
209.39853 4235.4663 -770.79724 4294967295
213.30255 4235.0313 -770.8689 4294967295
215.278 4234.8994 -770.79309 4294967295
217.53549 4234.8564 -770.65259 4294967295
221.30745 4234.6694 -770.56665 4294967295
223.32257 4234.4248 -770.60529 4294967295
225.46217 4234.0313 -770.86285 4294967295
229.41829 4233.8809 -770.78027 4294967295
233.35858 4233.4995 -770.86346 4294967295
239.49626 4233.2598 -770.87604 4294967295
191.54045 4236.7446 -770.66248 4294967295
193.38335 4236.4839 -770.59509 4294967295
195.19612 4236.4912 -770.67126 4294967295
197.34767 4236.3755 -770.54712 4294967295
645.39838 4177.9385 -769.02515 4294967295
575.7901 4181.4507 -769.04364 4294967295
577.29199 4181.8213 -769.13147 4294967295
579.29614 4181.5483 -769.1463 4294967295
581.22607 4181.5693 -769.02802 4294967295
583.26343 4181.7388 -769.0813 4294967295
587.27942 4181.6318 -769.07349 4294967295
589.49915 4181.8452 -769.07867 4294967295
593.375 4181.7505 -769.10535 4294967295
595.29626 4181.9429 -769.21094 4294967295
597.37427 4181.9575 -769.20166 4294967295
607.17059 4179.0688 -769.04254 4294967295
611.40448 4179.5874 -769.04944 4294967295
613.28009 4179.5967 -769.04358 4294967295
615.37091 4179.6714 -769.05804 4294967295
617.2052 4179.6841 -769.05975 4294967295
623.16052 4179.7959 -769.12384 4294967295
569.17828 4183.9731 -769.24237 4294967295
571.48975 4183.999 -769.2251 4294967295
573.42029 4184.2012 -769.19098 4294967295
575.36469 4184.1821 -769.17255 4294967295
577.42218 4184.2813 -769.16656 4294967295
581.48486 4184.2261 -769.11792 4294967295
583.31677 4184.2725 -769.10254 4294967295
585.40643 4184.5469 -769.05988 4294967295
587.28937 4184.7817 -769.03613 4294967295
589.33344 4184.4731 -769.04083 4294967295
591.37775 4183.3633 -769.09235 4294967295
599.26953 4182.0547 -769.17761 4294967295
601.33148 4182.1152 -769.13208 4294967295
603.42578 4182.249 -769.08472 4294967295
459.35217 4187.7666 -769.16882 4294967295
461.74341 4187.8643 -769.10822 4294967295
475.46936 4187.8545 -769.21594 4294967295
477.33566 4187.6357 -769.21851 4294967295
479.31909 4187.6509 -769.24683 4294967295
481.19055 4187.6606 -769.25433 4294967295
483.35422 4187.6694 -769.31775 4294967295
485.40442 4187.6689 -769.3537 4294967295
487.36426 4187.6206 -769.38818 4294967295
489.47122 4187.5112 -769.39124 4294967295
493.52933 4187.7007 -769.41663 4294967295
495.29623 4187.7524 -769.41589 4294967295
497.1954 4187.6211 -769.36523 4294967295
499.48206 4187.8354 -769.38849 4294967295
501.37756 4187.8403 -769.38556 4294967295
503.53397 4187.7871 -769.39423 4294967295
505.27252 4187.8286 -769.41174 4294967295
507.43689 4186.7764 -769.2746 4294967295
509.35922 4186.7915 -769.26349 4294967295
511.38156 4185.6416 -769.07654 4294967295
513.34491 4186.6729 -769.26398 4294967295
515.61908 4185.6743 -769.13739 4294967295
519.05664 4185.6729 -769.17535 4294967295
521.5365 4185.6226 -769.23798 4294967295
523.55798 4185.5571 -769.23407 4294967295
525.43372 4185.5991 -769.23468 4294967295
527.30798 4185.7793 -769.22693 4294967295
529.38068 4185.6816 -769.21405 4294967295
533.22211 4185.936 -769.27673 4294967295
535.38312 4185.9233 -769.27911 4294967295
537.29504 4185.9575 -769.28503 4294967295
539.74701 4185.9233 -769.28229 4294967295
541.30725 4186.0205 -769.27014 4294967295
431.33286 4189.7998 -769.01935 4294967295
433.58731 4189.8291 -769.13922 4294967295
437.30493 4189.7021 -769.25854 4294967295
439.46143 4189.7134 -769.30573 4294967295
441.44351 4189.6313 -769.32581 4294967295
443.49728 4189.731 -769.42157 4294967295
447.21417 4189.6265 -769.43488 4294967295
455.29971 4189.6401 -769.49756 4294967295
459.11252 4189.7451 -769.56512 4294967295
461.2189 4189.0562 -769.4505 4294967295
473.41266 4188.9341 -769.39417 4294967295
475.48044 4189.8667 -769.56061 4294967295
477.46793 4189.7554 -769.6994 4294967295
481.09573 4189.8608 -769.69299 4294967295
483.42645 4190.1426 -769.64716 4294967295
485.30688 4189.8613 -769.64484 4294967295
489.35205 4189.9854 -769.59973 4294967295
509.71561 4190.6499 -769.3504 4294967295
511.49808 4188.1875 -769.45514 4294967295
515.38123 4189.4478 -769.39734 4294967295
537.30255 4188.6216 -769.22791 4294967295
541.28418 4188.7158 -769.19189 4294967295
369.38675 4193.9976 -769.20374 4294967295
373.28476 4193.8774 -769.30334 4294967295
375.37167 4193.8408 -769.48663 4294967295
377.51334 4193.8364 -769.49219 4294967295
381.06448 4193.8887 -769.54645 4294967295
387.47488 4193.668 -769.6474 4294967295
389.34662 4193.6499 -769.70007 4294967295
391.37561 4193.6616 -769.7124 4294967295
393.38574 4193.1338 -769.42493 4294967295
395.45145 4193.9517 -769.73108 4294967295
397.32236 4192.5552 -769.24677 4294967295
399.73734 4192.5508 -769.35699 4294967295
401.50192 4192.5225 -769.49084 4294967295
403.39722 4193.0918 -769.62244 4294967295
405.35571 4192.7661 -769.63861 4294967295
407.40887 4191.8647 -769.39716 4294967295
409.49054 4192.7104 -769.60461 4294967295
411.44241 4191.6938 -769.41595 4294967295
413.18469 4192.6484 -769.64441 4294967295
415.5058 4192.6816 -769.67395 4294967295
417.28339 4192.6299 -769.67419 4294967295
431.41458 4191.9155 -769.67114 4294967295
433.40015 4191.7661 -769.69507 4294967295
435.18167 4191.5928 -769.70923 4294967295
437.49142 4191.6714 -769.7215 4294967295
441.31116 4191.7593 -769.89691 4294967295
443.38028 4191.7002 -769.79181 4294967295
445.51675 4191.582 -769.96881 4294967295
459.10107 4192.0215 -769.73138 4294967295
693.52222 4193.2344 -769.60083 4294967295
695.84399 4193.0454 -769.45068 4294967295
317.42307 4196.9341 -769.01172 4294967295
348.74197 4196.4063 -769.18365 4294967295
350.66907 4196.0435 -769.29114 4294967295
353.24826 4195.6621 -769.69019 4294967295
355.26282 4195.6655 -769.69659 4294967295
357.12085 4195.9136 -769.77118 4294967295
359.13406 4195.7134 -769.72308 4294967295
361.43781 4195.7388 -769.77869 4294967295
363.4032 4194.8896 -769.46844 4294967295
365.02438 4195.7241 -769.81989 4294967295
371.45721 4195.0596 -769.63403 4294967295
407.34384 4195.9902 -769.96558 4294967295
685.34167 4195.2344 -769.60638 4294967295
687.66357 4195.4678 -769.69849 4294967295
691.83612 4195.5981 -769.91248 4294967295
693.59821 4195.8501 -769.97131 4294967295
697.5766 4195.4473 -769.57721 4294967295
277.37509 4199.6768 -769.06183 4294967295
293.74255 4199.8428 -769.83478 4294967295
295.66678 4198.5234 -769.03741 4294967295
301.44339 4198.1055 -769.04443 4294967295
303.23065 4198.0493 -769.05823 4294967295
305.67618 4198.0918 -769.20135 4294967295
307.461 4197.7173 -769.15802 4294967295
310.93192 4198.2285 -769.5932 4294967295
313.16736 4198.5151 -769.82446 4294967295
315.62018 4198.375 -769.81189 4294967295
317.60773 4198.062 -769.75232 4294967295
319.32126 4197.9785 -769.80994 4294967295
321.37659 4197.8174 -769.8465 4294967295
322.82477 4199.4673 -769.80243 4294967295
325.32147 4198.7397 -769.48035 4294967295
326.71109 4198.1914 -769.11511 4294967295
328.13287 4198.2583 -769.13409 4294967295
329.72717 4199.0098 -769.54559 4294967295
332.03442 4198.7222 -769.37524 4294967295
334.05847 4199.4644 -769.65759 4294967295
335.66937 4199.4873 -769.63867 4294967295
337.34103 4198.5884 -769.26068 4294967295
338.67865 4199.5669 -769.82092 4294967295
339.71704 4199.002 -769.56067 4294967295
341.16959 4198.9385 -769.59167 4294967295
342.6539 4199.2681 -769.71124 4294967295
343.58829 4198.2427 -769.43817 4294967295
344.96292 4199.8008 -769.86884 4294967295
345.05002 4197.4268 -769.06976 4294967295
347.13785 4197.8716 -769.63422 4294967295
598.95355 4199.4136 -769.48108 4294967295
641.55237 4197.3618 -769.64801 4294967295
645.49011 4197.604 -769.7243 4294967295
649.3548 4197.4927 -769.7196 4294967295
651.49811 4197.5815 -769.76709 4294967295
653.59979 4197.5117 -769.7569 4294967295
657.50739 4197.4028 -769.75 4294967295
659.25385 4197.3457 -769.76147 4294967295
661.37659 4197.8901 -769.90179 4294967295
663.55872 4197.8208 -769.9425 4294967295
675.83337 4199.7686 -769.97937 4294967295
681.68927 4199.4224 -769.84229 4294967295
685.49231 4198.2793 -769.98627 4294967295
687.36835 4198.0073 -769.82013 4294967295
689.76453 4198.1484 -769.98926 4294967295
691.50415 4198.1787 -769.83862 4294967295
693.50183 4198.9482 -769.62976 4294967295
695.52881 4198.7715 -769.56543 4294967295
223.92911 4202.9424 -769.17102 4294967295
225.48849 4202.8906 -769.20435 4294967295
227.58589 4202.9561 -769.33691 4294967295
229.50926 4202.7925 -769.26404 4294967295
231.86172 4202.8145 -769.42035 4294967295
233.40836 4202.4414 -769.2182 4294967295
235.37141 4202.4019 -769.30151 4294967295
237.1944 4202.5059 -769.51703 4294967295
241.57442 4202.2505 -769.55463 4294967295
243.16394 4201.7827 -769.18457 4294967295
245.40106 4201.6055 -769.27771 4294967295
247.72464 4202.4131 -769.93054 4294967295
249.56128 4201.23 -769.08942 4294967295
253.29648 4200.9707 -769.16107 4294967295
255.53795 4201.9844 -769.97217 4294967295
257.57513 4200.7075 -769.17505 4294967295
259.54007 4200.625 -769.22424 4294967295
261.4639 4200.7524 -769.42572 4294967295
263.2175 4200.3555 -769.17334 4294967295
267.52234 4200.0845 -769.09265 4294967295
269.51468 4200.2139 -769.29633 4294967295
271.50726 4200.1509 -769.27863 4294967295
273.46283 4200.0361 -769.19629 4294967295
281.42508 4200.4434 -769.72552 4294967295
285.43497 4200.2588 -769.71655 4294967295
286.9978 4200.2432 -769.75421 4294967295
325.37085 4200.0547 -769.92603 4294967295
327.67258 4200.2246 -769.83276 4294967295
331.23312 4200.7334 -769.93207 4294967295
333.01376 4200.0493 -769.85095 4294967295
334.83737 4201.5371 -769.9859 4294967295
337.35754 4200.2158 -769.89038 4294967295
339.43839 4200.3408 -769.98718 4294967295
340.901 4200.4155 -769.94952 4294967295
581.49719 4201.5337 -769.83551 4294967295
583.25555 4201.0864 -769.79114 4294967295
585.73773 4201.3281 -769.8559 4294967295
587.47711 4201.0884 -769.81561 4294967295
589.35602 4201.4043 -769.87671 4294967295
591.53009 4201.5806 -769.92389 4294967295
593.47369 4201.7788 -769.68542 4294967295
595.297 4202.2515 -769.57892 4294967295
597.24652 4201.5503 -769.57147 4294967295
599.49243 4202.8623 -769.48346 4294967295
600.73206 4200.8242 -769.54376 4294967295
610.16632 4202.4976 -769.56628 4294967295
611.98865 4202.9653 -769.68811 4294967295
613.78668 4202.1099 -769.68066 4294967295
615.78992 4201.9399 -769.64862 4294967295
643.56281 4202.1138 -769.94543 4294967295
647.42694 4202.1768 -769.88312 4294967295
651.45526 4202.1006 -769.81488 4294967295
655.6134 4201.9463 -769.7486 4294967295
659.64221 4201.0566 -769.83789 4294967295
663.52893 4201.8608 -769.66425 4294967295
665.61914 4201.8257 -769.65692 4294967295
669.52405 4200.7646 -769.79718 4294967295
671.3147 4201.4121 -769.65326 4294967295
675.50873 4200.7603 -769.94995 4294967295
679.46289 4202.0063 -769.25781 4294967295
681.1687 4201.0742 -769.66309 4294967295
683.79669 4200.0879 -769.63409 4294967295
685.52942 4200.126 -769.48749 4294967295
687.51685 4200.125 -769.40552 4294967295
178.99425 4205.7881 -769.15887 4294967295
181.53026 4205.9624 -769.47314 4294967295
193.39261 4205.8267 -769.3407 4294967295
198.01654 4205.0171 -769.02551 4294967295
199.34665 4205.1602 -769.31677 4294967295
203.58438 4204.5874 -769.37518 4294967295
207.14 4204.2661 -769.37622 4294967295
209.28391 4203.7832 -769.11304 4294967295
211.52791 4204.0234 -769.5379 4294967295
213.3605 4203.48 -769.30554 4294967295
215.21324 4203.5459 -769.26715 4294967295
216.18446 4204.188 -769.84052 4294967295
219.32599 4203.646 -769.69159 4294967295
221.40259 4203.1689 -769.22491 4294967295
590.38025 4205.7466 -769.58148 4294967295
591.64874 4203.6997 -769.86517 4294967295
593.40454 4204.896 -769.25458 4294967295
596.63922 4203.998 -769.27765 4294967295
600.32483 4204.9233 -769.08179 4294967295
608.63019 4203.8452 -769.16724 4294967295
610.38379 4204.7212 -769.23651 4294967295
611.34961 4204.4033 -769.39453 4294967295
612.39111 4204.7085 -769.35742 4294967295
613.34668 4204.4316 -769.38776 4294967295
615.15808 4204.4771 -769.15082 4294967295
617.19385 4203.4595 -769.46808 4294967295
619.60608 4204.9434 -769.92981 4294967295
621.79559 4205.3159 -769.84546 4294967295
623.82532 4205.4082 -769.87781 4294967295
625.58069 4205.3701 -769.76617 4294967295
627.66943 4204.8228 -769.82251 4294967295
631.53436 4205.4209 -769.1778 4294967295
633.3819 4204.6704 -769.51233 4294967295
635.54602 4204.5742 -769.42859 4294967295
637.40057 4204.4019 -769.39343 4294967295
639.39398 4203.6958 -769.66858 4294967295
641.63971 4203.3306 -769.66266 4294967295
643.41168 4204.0591 -769.21301 4294967295
645.24371 4203.1724 -769.52362 4294967295
647.42682 4203.1587 -769.48889 4294967295
651.41394 4203.6973 -769.01477 4294967295
659.46429 4203.2529 -769.04388 4294967295
155.51564 4208.812 -769.56451 4294967295
163.13649 4208.998 -769.90454 4294967295
166.37639 4207.4443 -769.80725 4294967295
169.50735 4207.3623 -769.612 4294967295
170.94804 4207.0308 -769.42743 4294967295
173.69334 4206.8228 -769.4295 4294967295
187.3533 4206.145 -769.51086 4294967295
189.52687 4206.5415 -769.81122 4294967295
192.06468 4206.5337 -769.80762 4294967295
195.7442 4206.394 -769.85913 4294967295
197.58452 4206.1738 -769.9057 4294967295
575.32861 4208.8096 -769.47968 4294967295
579.44165 4207.812 -769.99243 4294967295
583.42712 4208.3291 -769.47717 4294967295
585.43103 4208.2173 -769.41608 4294967295
587.3266 4206.6006 -769.93988 4294967295
156.6637 4209.0547 -769.8598 4294967295
159.09668 4209.3896 -769.89856 4294967295
161.18417 4209.1382 -769.79089 4294967295
529.63422 4211.6885 -769.91632 4294967295
531.50946 4211.2251 -769.96271 4294967295
541.32025 4211.1836 -769.93292 4294967295
543.36725 4210.96 -769.87097 4294967295
545.42639 4210.9663 -769.82648 4294967295
551.47363 4209.855 -769.99823 4294967295
553.45526 4210.9834 -769.02026 4294967295
555.43549 4210.7905 -769.04749 4294967295
557.36707 4210.1006 -769.46967 4294967295
559.47449 4210.6758 -769.01715 4294967295
561.83966 4209.7275 -769.70404 4294967295
565.43372 4210.0449 -769.16571 4294967295
567.46051 4209.5576 -769.38641 4294967295
569.42896 4209.5269 -769.30768 4294967295
571.48041 4209.562 -769.14606 4294967295
573.53625 4209.5547 -769.1618 4294967295
579.32068 4209.1216 -769.15302 4294967295
581.40234 4209.0659 -769.09894 4294967295
505.46457 4214.8613 -769.86871 4294967295
509.4819 4214.8257 -769.73407 4294967295
511.33435 4214.7285 -769.8313 4294967295
513.51318 4214.7969 -769.495 4294967295
519.2724 4214.4341 -769.44733 4294967295
525.18677 4213.3755 -769.89996 4294967295
527.53979 4212.9116 -769.69568 4294967295
535.75769 4212.5459 -769.11169 4294967295
537.34064 4212.5122 -769.24127 4294967295
539.45422 4212.3159 -769.03564 4294967295
541.43713 4212.3047 -769.04767 4294967295
443.35742 4217.6045 -769.97504 4294967295
448.23303 4216.9463 -769.92047 4294967295
451.2594 4216.7412 -769.97375 4294967295
477.52405 4217.2944 -769.67139 4294967295
499.49277 4215.6162 -769.75641 4294967295
501.55029 4215.5679 -769.43396 4294967295
505.20908 4215.1646 -769.58795 4294967295
509.2641 4215.2261 -769.22876 4294967295
421.34753 4220.9482 -770 4294967295
425.2944 4220.6782 -769.94672 4294967295
427.41449 4220.5132 -769.95404 4294967295
435.5849 4220.2925 -769.58484 4294967295
440.50568 4218.6855 -769.80212 4294967295
457.39291 4218.3574 -769.85309 4294967295
381.23883 4223.9902 -769.91168 4294967295
385.45123 4223.9404 -769.68719 4294967295
389.35269 4223.8979 -769.16553 4294967295
393.13449 4223.5229 -769.23145 4294967295
395.36044 4223.3467 -769.15356 4294967295
397.66333 4223.2217 -769.08502 4294967295
415.45416 4221.5752 -769.87689 4294967295
419.23767 4221.5308 -769.49078 4294967295
337.4162 4226.7544 -769.90045 4294967295
339.71945 4226.9932 -769.24359 4294967295
343.22565 4226.707 -769.2525 4294967295
345.42694 4226.5854 -769.11786 4294967295
349.45169 4226.3345 -769.20532 4294967295
351.21225 4226.1729 -769.40009 4294967295
353.31516 4225.8223 -769.97156 4294967295
355.37711 4225.894 -769.14038 4294967295
357.46805 4225.3784 -769.78601 4294967295
361.54626 4225.0645 -769.58411 4294967295
365.35919 4224.5615 -769.89221 4294967295
367.45831 4225.0039 -769.12146 4294967295
369.4306 4224.5132 -769.71924 4294967295
371.43723 4224.5269 -769.54169 4294967295
373.43661 4224.5859 -769.16565 4294967295
375.49576 4224.5801 -769.32782 4294967295
377.16174 4224.3506 -769.30811 4294967295
301.63138 4229.7183 -769.23401 4294967295
309.49512 4229.3721 -769.18091 4294967295
313.29849 4229.0728 -769.38684 4294967295
317.43362 4228.6963 -769.36664 4294967295
319.43152 4228.5586 -769.24792 4294967295
323.47107 4228.2949 -769.20978 4294967295
325.14099 4228.1084 -769.43402 4294967295
327.85086 4227.9121 -769.25946 4294967295
330.66229 4227.1934 -769.98151 4294967295
331.34836 4227.4028 -769.62921 4294967295
335.33829 4227.0186 -769.69928 4294967295
255.41426 4232.9697 -769.19745 4294967295
257.45486 4232.7197 -769.44971 4294967295
259.73621 4232.7119 -769.1676 4294967295
261.48123 4232.522 -769.34991 4294967295
263.47604 4232.4463 -769.271 4294967295
265.27155 4232.2393 -769.57672 4294967295
269.18921 4232.1406 -769.23242 4294967295
273.45923 4231.897 -769.22626 4294967295
277.5918 4231.6128 -769.21436 4294967295
281.31247 4231.1724 -769.21783 4294967295
285.38031 4230.8179 -769.29401 4294967295
287.31067 4230.6802 -769.29584 4294967295
289.36972 4230.5674 -769.38214 4294967295
291.26956 4230.4551 -769.35968 4294967295
293.44815 4230.2744 -769.59204 4294967295
295.53076 4230.0801 -769.70111 4294967295
299.39362 4230.0166 -769.4986 4294967295
167.91295 4235.5952 -769.83398 4294967295
169.73355 4235.2041 -769.76123 4294967295
171.4946 4234.9077 -769.70544 4294967295
173.26537 4235.5684 -769.04443 4294967295
174.61298 4234.2529 -769.64539 4294967295
178.10419 4233.666 -769.48169 4294967295
179.98021 4234.3662 -769.13208 4294967295
181.77396 4233.0967 -769.92163 4294967295
182.96999 4234.8745 -769.13019 4294967295
186.88968 4235.4961 -769.92346 4294967295
213.47139 4235.9048 -769.52679 4294967295
215.39436 4235.856 -769.27747 4294967295
217.52684 4235.7393 -769.22864 4294967295
221.46889 4235.4536 -769.32251 4294967295
225.36978 4235.1299 -769.26965 4294967295
229.35016 4234.8062 -769.30878 4294967295
231.43127 4234.5581 -769.43964 4294967295
233.36592 4234.5078 -769.28113 4294967295
239.43642 4234.1064 -769.93781 4294967295
241.44102 4233.853 -769.80249 4294967295
245.3774 4233.7427 -769.53186 4294967295
247.56197 4233.6045 -769.27032 4294967295
249.38072 4233.4717 -769.48175 4294967295
251.50865 4233.2979 -769.27484 4294967295
253.4843 4233.1587 -769.16919 4294967295
155.64354 4237.1416 -769.9494 4294967295
157.90208 4236.5889 -769.93732 4294967295
160.61084 4237.2251 -769.61011 4294967295
163.22118 4236.835 -769.66016 4294967295
166.31952 4236.9795 -769.15295 4294967295
187.20491 4236.4141 -769.33057 4294967295
188.15082 4236.6567 -769.44977 4294967295
189.53412 4236.8037 -769.62494 4294967295
191.45352 4237.6001 -769.41205 4294967295
193.40758 4237.4458 -769.4389 4294967295
197.1857 4237.0972 -769.34259 4294967295
199.48322 4236.9497 -769.2406 4294967295
201.47015 4236.7896 -769.29095 4294967295
203.33531 4236.7163 -769.44727 4294967295
205.46466 4236.5122 -769.70825 4294967295
207.36598 4236.5107 -769.4632 4294967295
669.21106 4172.4976 -768.09888 4294967295
671.44397 4172.373 -768.08887 4294967295
675.08051 4172.417 -768.12469 4294967295
683.12897 4171.8345 -768.27203 4294967295
685.16846 4171.8301 -768.36133 4294967295
689.30664 4172.832 -768.8017 4294967295
691.53943 4171.7637 -768.55505 4294967295
693.32965 4171.2271 -768.36115 4294967295
695.24347 4171.8018 -768.51135 4294967295
639.35742 4175.9229 -768.64252 4294967295
641.37445 4175.7705 -768.45654 4294967295
643.42419 4175.6621 -768.52075 4294967295
645.32245 4174.3555 -768.01685 4294967295
647.32367 4174.9541 -768.35132 4294967295
649.44775 4174.3232 -768.12933 4294967295
651.33087 4174.9888 -768.40527 4294967295
653.43884 4175.0352 -768.40259 4294967295
655.32709 4174.0469 -768.0896 4294967295
657.12048 4175.6445 -768.78448 4294967295
661.32581 4174.7837 -768.51868 4294967295
665.29846 4173.7412 -768.46234 4294967295
667.16736 4174.645 -768.73669 4294967295
669.47974 4174.5522 -768.70087 4294967295
673.328 4174.6719 -768.72327 4294967295
687.16339 4173.2021 -768.99536 4294967295
697.81256 4173.4873 -768.64471 4294967295
699.49695 4173.4517 -768.20831 4294967295
585.45807 4178.2705 -768.21655 4294967295
589.37268 4178.1162 -768.11646 4294967295
591.46289 4178.0215 -768.10913 4294967295
593.32672 4178.0723 -768.19537 4294967295
595.01154 4178.1162 -768.24854 4294967295
597.39014 4178.0161 -768.26715 4294967295
601.29333 4177.8369 -768.29285 4294967295
603.39764 4177.9053 -768.40778 4294967295
605.24109 4177.7358 -768.48175 4294967295
609.37317 4176.9668 -768.33826 4294967295
611.28052 4176.8848 -768.39331 4294967295
613.35907 4177.0527 -768.57739 4294967295
617.25146 4177.0845 -768.63489 4294967295
619.39325 4176.916 -768.53149 4294967295
621.44684 4177.6392 -768.76697 4294967295
625.32593 4176.9365 -768.58826 4294967295
627.30426 4177.1191 -768.56702 4294967295
641.48633 4177.9365 -768.85309 4294967295
643.26569 4177.8882 -768.98584 4294967295
647.27997 4177.9424 -768.96454 4294967295
649.25494 4177.8838 -768.94977 4294967295
667.07648 4178.0063 -768.85419 4294967295
539.29462 4181.9053 -768.09082 4294967295
567.92267 4181.4438 -768.00952 4294967295
573.22278 4180.7227 -768.58423 4294967295
577.29694 4179.7334 -768.62317 4294967295
581.23816 4179.6172 -768.57996 4294967295
583.19342 4179.4956 -768.5979 4294967295
587.21777 4179.4595 -768.66681 4294967295
589.3833 4179.6743 -768.74078 4294967295
591.17511 4179.479 -768.71985 4294967295
593.60828 4179.6094 -768.78387 4294967295
595.37177 4179.6348 -768.83643 4294967295
597.68451 4179.7876 -768.87109 4294967295
599.46417 4179.6152 -768.84772 4294967295
