# .PCD v0.7 - Point Cloud Data file format
VERSION 0.7
FIELDS x y z rgba
SIZE 4 4 4 4
TYPE F F F U
COUNT 1 1 1 1
WIDTH 1147
HEIGHT 1
VIEWPOINT 0 0 0 1 0 0 0
POINTS 1147
DATA ascii
381.32651 152.7834 -515.21582 4294967295
374.64911 90.829323 -514.99335 4294967295
375.09024 92.8694 -514.77673 4294967295
376.41696 104.82708 -514.87311 4294967295
376.44836 111.89496 -514.7262 4294967295
378.8071 115.85416 -514.82501 4294967295
381.22519 116.94219 -514.95477 4294967295
393.58054 116.05649 -514.73193 4294967295
395.46231 115.67985 -514.84583 4294967295
384.54315 117.34476 -514.68738 4294967295
387.0928 117.17793 -514.43457 4294967295
383.00134 140.41293 -514.62421 4294967295
384.30933 139.98817 -514.17004 4294967295
386.40839 139.37827 -514.18317 4294967295
380.28769 142.86656 -514.70465 4294967295
380.87811 148.62358 -514.4668 4294967295
376.5058 91.885208 -513.13025 4294967295
377.8028 103.80639 -513.18683 4294967295
397.76633 115.49683 -513.07056 4294967295
400.07104 115.10725 -513.05304 4294967295
402.99051 115.1863 -513.59113 4294967295
404.04214 115.40264 -513.24384 4294967295
408.75449 131.71463 -513.30554 4294967295
408.63058 133.91354 -513.30414 4294967295
406.30804 137.64021 -513.19501 4294967295
404.63651 138.25449 -513.49585 4294967295
380.37555 115.70804 -512.71594 4294967295
383.18576 116.93704 -512.4834 4294967295
391.44876 116.73244 -512.59442 4294967295
395.24841 115.98197 -512.97009 4294967295
406.24246 116.54049 -512.89368 4294967295
384.61768 117.22478 -512.94562 4294967295
388.71405 117.16 -512.97852 4294967295
407.819 136.49498 -512.90002 4294967295
386.237 139.87471 -512.15967 4294967295
381.50998 143.74095 -512.59888 4294967295
382.79129 141.02518 -512.71783 4294967295
381.26065 145.0508 -512.45117 4294967295
383.11261 152.88803 -512.875 4294967295
378.73605 97.871414 -511.16046 4294967295
379.25937 102.79711 -511.19247 4294967295
393.26303 116.60564 -511.19431 4294967295
394.91501 116.256 -511.5047 4294967295
400.64517 115.18932 -511.21729 4294967295
409.54013 133.94693 -511.13763 4294967295
406.54962 137.90105 -511.34894 4294967295
408.18445 136.86015 -511.02698 4294967295
388.09842 139.41463 -511.44305 4294967295
404.63684 138.66092 -511.68033 4294967295
378.15558 90.877953 -510.94534 4294967295
379.79919 111.59579 -510.82236 4294967295
380.17108 113.63488 -510.72351 4294967295
382.70825 116.50445 -510.72543 4294967295
405.83026 115.83277 -510.68491 4294967295
384.96439 117.30904 -510.3642 4294967295
389.02246 117.47139 -510.43027 4294967295
391.36404 117.01911 -510.69995 4294967295
409.24841 135.32367 -510.78088 4294967295
384.09018 140.91849 -510.97662 4294967295
390.99228 139.32339 -510.81073 4294967295
382.62048 145.07407 -510.60043 4294967295
384.35361 151.83136 -510.82544 4294967295
380.366 98.79847 -509.08182 4294967295
380.55618 100.99157 -509.10626 4294967295
397.10464 116.05473 -509.38425 4294967295
400.23654 115.48772 -509.1828 4294967295
404.40622 115.33044 -509.75845 4294967295
410.29202 132.98637 -509.15811 4294967295
408.03406 137.46753 -509.32977 4294967295
393.01776 139.24161 -509.36194 4294967295
384.06549 142.42909 -509.5683 4294967295
385.08597 141.37512 -509.13431 4294967295
379.83862 92.84951 -508.92343 4294967295
381.52454 113.9838 -508.74857 4294967295
386.76401 117.36845 -508.26312 4294967295
390.49902 117.46447 -508.56943 4294967295
409.88229 135.22784 -508.92853 4294967295
388.38385 139.89174 -508.49188 4294967295
389.65701 139.46156 -508.5419 4294967295
384.45712 143.70021 -508.50278 4294967295
384.62921 145.81593 -508.11551 4294967295
382.03323 105.00704 -507.4003 4294967295
383.87421 115.72174 -507.0405 4294967295
392.97137 117.16939 -507.21518 4294967295
410.98254 131.88042 -507.22806 4294967295
410.83844 133.93066 -507.10419 4294967295
406.64334 138.46019 -507.39035 4294967295
385.75125 142.5464 -507.11926 4294967295
382.85846 114.08577 -506.64343 4294967295
385.25052 116.6815 -506.71451 4294967295
395.65408 116.80313 -506.83194 4294967295
390.62927 117.53538 -506.53513 4294967295
410.57651 129.37592 -506.83389 4294967295
409.68997 136.6433 -506.84497 4294967295
410.487 135.21329 -506.89749 4294967295
387.12717 140.7664 -506.90012 4294967295
388.99576 139.87767 -506.80386 4294967295
385.63971 145.59715 -506.59592 4294967295
411.02179 128.84219 -505.08054 4294967295
411.564 131.84882 -505.20041 4294967295
411.42175 133.93974 -505.08261 4294967295
406.599 138.49229 -505.28128 4294967295
383.61523 111.87194 -504.60947 4294967295
385.04178 115.77251 -504.91675 4294967295
387.1293 117.11713 -504.68094 4294967295
388.4946 117.51804 -504.69662 4294967295
390.50858 117.8334 -504.33755 4294967295
392.86108 117.57008 -504.40283 4294967295
410.14902 136.69662 -504.92316 4294967295
389.05225 140.12407 -504.9939 4294967295
392.10944 139.07266 -504.86951 4294967295
387.08801 142.40659 -504.92599 4294967295
386.92819 145.91676 -504.66205 4294967295
394.5155 117.41898 -503.0032 4294967295
412.11823 131.54819 -503.08844 4294967295
411.96902 133.88362 -503.14774 4294967295
384.85193 104.76009 -502.74551 4294967295
384.77643 107.02337 -502.83765 4294967295
384.84991 109.09763 -502.63959 4294967295
384.677 112.0509 -502.73407 4294967295
385.44904 114.6778 -502.9213 4294967295
386.90747 116.5881 -502.96967 4294967295
397.53882 116.85223 -502.69058 4294967295
399.78052 116.36789 -502.69946 4294967295
388.90402 117.45547 -502.71991 4294967295
390.26721 117.68445 -502.69724 4294967295
392.7807 117.7717 -502.67462 4294967295
411.03223 136.45038 -502.78043 4294967295
390.39597 139.82317 -502.45218 4294967295
394.66351 138.73352 -502.51923 4294967295
398.97552 138.70706 -502.84537 4294967295
387.86783 143.03679 -502.66037 4294967295
388.31137 142.01733 -502.71368 4294967295
388.11774 145.89919 -502.63412 4294967295
385.73117 109.02687 -501.02234 4294967295
399.18866 116.67254 -501.27606 4294967295
403.92914 115.62678 -501.60095 4294967295
407.01181 115.45826 -501.13928 4294967295
388.80261 117.17467 -501.0065 4294967295
412.5806 134.07025 -501.00363 4294967295
389.69849 140.83037 -501.02908 4294967295
406.22583 138.81311 -501.12839 4294967295
408.70248 138.4478 -501.03333 4294967295
386.0087 104.87368 -500.63712 4294967295
385.91153 106.85299 -500.80292 4294967295
385.74158 112.01128 -500.79587 4294967295
386.21136 114.14394 -500.92093 4294967295
387.19733 115.82501 -500.79944 4294967295
390.62115 117.73886 -500.1395 4294967295
395.16345 117.66574 -500.19461 4294967295
412.69522 131.88094 -500.91281 4294967295
410.07901 137.68645 -500.79337 4294967295
412.25012 135.33987 -500.81561 4294967295
391.10376 139.96951 -500.2114 4294967295
394.22498 138.79012 -500.3389 4294967295
397.0849 138.72383 -500.85141 4294967295
389.13281 142.78162 -500.75766 4294967295
389.41898 146.15076 -500.35233 4294967295
388.17032 116.27567 -499.2774 4294967295
412.56842 121.93926 -499.32019 4294967295
413.36343 131.77649 -499.00995 4294967295
413.19382 134.12088 -499.02634 4294967295
410.35483 137.88081 -499.02106 4294967295
387.01089 106.84243 -498.77292 4294967295
386.98828 109.33984 -498.54449 4294967295
386.8858 112.01861 -498.55356 4294967295
387.17545 114.0792 -498.91211 4294967295
399.64355 116.87298 -498.85907 4294967295
403.98965 115.96809 -498.90662 4294967295
410.68188 116.80262 -498.6521 4294967295
389.73438 117.17383 -498.4003 4294967295
392.35718 117.90236 -498.20261 4294967295
394.64383 117.93391 -498.63803 4294967295
397.51935 117.34983 -498.62579 4294967295
411.87375 136.85936 -498.82852 4294967295
392.61627 139.59435 -498.427 4294967295
394.15179 139.09958 -498.43814 4294967295
396.66687 138.71918 -498.70734 4294967295
399.12781 138.7327 -498.90753 4294967295
406.43201 138.82294 -498.5354 4294967295
390.25153 142.50475 -498.65442 4294967295
390.25549 145.94324 -498.63956 4294967295
401.27814 116.79108 -497.22238 4294967295
413.67307 133.94408 -497.38632 4294967295
406.00275 138.83159 -497.02106 4294967295
408.43726 138.71211 -497.15811 4294967295
410.04178 138.18231 -497.33286 4294967295
387.79965 102.83603 -496.77661 4294967295
387.96725 106.93816 -496.82397 4294967295
388.13171 105.07853 -496.38638 4294967295
387.8566 109.11482 -496.7981 4294967295
387.77765 111.86508 -496.72696 4294967295
388.31866 113.96386 -496.59634 4294967295
388.80154 115.32079 -496.66858 4294967295
389.69211 116.73413 -496.69092 4294967295
403.659 116.34476 -496.46503 4294967295
406.5379 115.7887 -496.88766 4294967295
408.95026 115.70209 -496.5528 4294967295
391.08258 117.46002 -496.84396 4294967295
394.32526 118.1356 -496.19995 4294967295
396.81271 117.73028 -496.82162 4294967295
411.87274 117.47365 -496.88235 4294967295
413.16711 119.82426 -496.80643 4294967295
413.95975 131.77167 -496.87518 4294967295
412.38864 136.90518 -496.85574 4294967295
392.95517 139.83531 -496.67566 4294967295
394.45151 139.29675 -496.29382 4294967295
396.4989 138.78952 -496.74908 4294967295
399.13354 138.7287 -496.97464 4294967295
390.99347 142.96481 -496.86072 4294967295
391.22055 141.90192 -496.74399 4294967295
391.33438 145.89282 -496.3418 4294967295
389.93811 116.29694 -495.46454 4294967295
406.41147 115.9502 -495.36426 4294967295
401.31458 117.09798 -495.16339 4294967295
413.2597 119.11671 -495.05063 4294967295
413.79373 124.66051 -495.01181 4294967295
414.24261 133.73804 -495.22778 4294967295
405.79016 138.80544 -495.00784 4294967295
408.37958 138.76701 -495.13135 4294967295
391.84442 141.91753 -495.25015 4294967295
388.75513 111.85559 -494.69617 4294967295
389.38892 114.64453 -494.8187 4294967295
403.65164 116.60483 -494.95746 4294967295
391.32327 117.22726 -494.89688 4294967295
392.56506 117.75228 -494.11514 4294967295
393.48248 117.97746 -494.50635 4294967295
396.86395 118.01789 -494.48227 4294967295
412.4837 137.22664 -494.98868 4294967295
392.87225 140.4381 -494.90503 4294967295
394.39087 139.58191 -494.68411 4294967295
396.70682 138.88136 -494.50793 4294967295
398.17368 138.70287 -494.71283 4294967295
403.6055 138.74989 -494.68909 4294967295
410.68451 138.17207 -494.96628 4294967295
391.91702 143.78656 -494.65707 4294967295
392.36389 146.07829 -494.03806 4294967295
411.44135 116.27152 -493.5625 4294967295
413.87509 119.61585 -493.12787 4294967295
393.48715 140.55527 -493.06558 4294967295
408.03976 138.81255 -493.01474 4294967295
410.74557 138.48128 -493.2699 4294967295
389.78949 112.51723 -492.84708 4294967295
391.31958 116.63755 -492.87961 4294967295
403.47632 116.93282 -492.85657 4294967295
408.84576 115.98615 -492.82352 4294967295
409.35242 115.86353 -492.91739 4294967295
399.35754 117.69042 -492.85989 4294967295
401.26038 117.35399 -492.96219 4294967295
414.96722 131.88071 -492.85376 4294967295
414.74652 134.06155 -492.79825 4294967295
413.37897 136.81789 -492.91898 4294967295
400.87183 138.67146 -492.83655 4294967295
405.71695 138.79933 -492.97324 4294967295
392.66675 143.64668 -492.02866 4294967295
411.22272 116.16791 -491.6727 4294967295
396.09973 118.46127 -491.0079 4294967295
398.6698 118.05524 -491.08762 4294967295
401.29776 117.53262 -491.09448 4294967295
414.80402 122.08004 -491.09937 4294967295
414.67938 124.60383 -491.2478 4294967295
414.87457 128.85046 -491.08505 4294967295
390.65259 113.71149 -490.85574 4294967295
392.38351 116.95672 -490.76419 4294967295
405.82138 116.57697 -490.93033 4294967295
413.4935 117.85262 -490.96106 4294967295
414.74762 126.82632 -490.78287 4294967295
415.26715 132.08493 -490.82309 4294967295
412.21158 137.97208 -490.98901 4294967295
413.84799 136.82515 -490.75891 4294967295
414.76343 135.33746 -490.66174 4294967295
394.00024 140.82961 -490.92065 4294967295
395.17569 139.90668 -490.80896 4294967295
396.28879 139.43108 -490.78253 4294967295
398.23099 138.93167 -490.80191 4294967295
401.01288 138.67984 -490.61237 4294967295
403.48364 138.73448 -490.87936 4294967295
406.02982 138.81271 -490.74335 4294967295
407.85703 138.8138 -490.97943 4294967295
410.62228 138.51349 -490.84332 4294967295
393.42865 142.07253 -490.8812 4294967295
393.42154 145.89171 -490.89053 4294967295
394.16513 148.80199 -490.61203 4294967295
391.65414 115.49451 -489.08203 4294967295
408.04944 116.27374 -489.39694 4294967295
411.10565 116.07832 -489.42422 4294967295
394.5845 117.88873 -489.03598 4294967295
414.65552 119.71913 -489.65979 4294967295
415.09335 124.60429 -489.04242 4294967295
395.06406 140.42064 -489.09924 4294967295
410.74716 138.60928 -489.19577 4294967295
412.27011 138.12451 -489.06625 4294967295
393.8027 143.31271 -489.16394 4294967295
391.02933 111.93993 -488.7168 4294967295
392.97098 117.03427 -488.89258 4294967295
396.80536 118.39222 -488.77286 4294967295
398.59451 118.22691 -488.80386 4294967295
401.69788 117.73868 -488.47278 4294967295
403.56125 117.29645 -488.83289 4294967295
413.29733 117.12733 -488.76733 4294967295
415.27579 121.5398 -488.96539 4294967295
415.29639 128.87752 -488.92163 4294967295
415.68274 131.43669 -488.74371 4294967295
415.55002 134.05125 -488.82861 4294967295
413.97388 137.08177 -488.8508 4294967295
415.14761 135.29799 -488.84122 4294967295
396.41281 139.59433 -488.92151 4294967295
398.40436 138.99747 -488.4104 4294967295
400.47986 138.67572 -488.56696 4294967295
403.20734 138.75134 -488.80966 4294967295
405.57437 138.81018 -488.95163 4294967295
408.1579 138.80881 -488.85913 4294967295
394.18494 142.13548 -488.56415 4294967295
394.06876 145.58955 -488.69165 4294967295
408.24219 116.42464 -487.43289 4294967295
395.50241 118.10061 -487.1767 4294967295
403.53793 117.52077 -487.0704 4294967295
415.62177 121.89302 -487.11337 4294967295
415.55283 126.51714 -487.03708 4294967295
415.60822 129.09703 -487.095 4294967295
413.62527 137.54874 -487.01703 4294967295
395.53537 140.53477 -487.03708 4294967295
407.27875 138.75909 -487.02985 4294967295
394.68866 141.90895 -487.04587 4294967295
392.02567 114.1348 -486.53549 4294967295
393.35522 116.96218 -486.94412 4294967295
398.45718 118.46064 -486.73328 4294967295
400.93604 118.04235 -486.78293 4294967295
414.60638 118.41914 -486.88068 4294967295
415.12207 119.4074 -486.68784 4294967295
415.97409 131.91777 -486.68646 4294967295
414.86499 136.53662 -486.57434 4294967295
415.46625 135.33615 -486.83273 4294967295
396.6741 139.74966 -486.78552 4294967295
398.31961 139.18578 -486.422 4294967295
400.93008 138.68068 -486.58832 4294967295
403.2326 138.73077 -486.87354 4294967295
410.97888 138.81679 -486.9458 4294967295
394.53674 143.15459 -486.8002 4294967295
394.77805 146.3739 -486.83655 4294967295
395.28555 148.69215 -486.78091 4294967295
395.86484 151.15854 -486.37924 4294967295
393.0014 115.82442 -485.01288 4294967295
403.30981 117.83305 -485.09543 4294967295
415.92148 128.7719 -485.20697 4294967295
413.8895 137.64243 -485.01617 4294967295
395.61044 140.97063 -485.61801 4294967295
395.23386 142.11168 -485.07928 4294967295
392.29153 111.76372 -484.71854 4294967295
411.56824 116.53204 -484.83307 4294967295
394.00421 117.09345 -484.88251 4294967295
396.36255 118.4669 -484.70755 4294967295
398.5592 118.61465 -484.80688 4294967295
400.8378 118.30975 -484.5856 4294967295
405.38461 117.30533 -484.94342 4294967295
414.94208 118.38684 -484.77841 4294967295
416.03271 121.63306 -484.76364 4294967295
415.88574 124.20814 -484.99677 4294967295
415.92886 126.76347 -484.75027 4294967295
416.27112 131.79482 -484.87958 4294967295
416.46042 133.88565 -484.3721 4294967295
415.52374 135.98306 -484.57776 4294967295
397.18796 139.82695 -484.82849 4294967295
400.13419 138.76849 -484.59744 4294967295
403.32339 138.71735 -484.83713 4294967295
405.70349 138.70613 -484.82172 4294967295
407.46506 138.71138 -484.82947 4294967295
410.47079 138.81573 -484.98102 4294967295
395.03647 143.84343 -484.34021 4294967295
395.21219 145.64159 -484.62894 4294967295
392.79059 111.58253 -483.10443 4294967295
393.0968 114.187 -483.22644 4294967295
408.09659 116.90719 -483.29565 4294967295
411.28101 116.55927 -483.491 4294967295
412.86517 116.74334 -483.88315 4294967295
414.28696 117.37489 -483.04739 4294967295
416.16107 124.01029 -483.34991 4294967295
416.21301 128.07959 -483.17932 4294967295
416.52704 131.51894 -483.11313 4294967295
405.24377 138.69614 -483.0589 4294967295
410.55026 138.77863 -483.01013 4294967295
412.41306 138.40204 -483.13202 4294967295
395.39114 142.7879 -483.15714 4294967295
395.59344 146.03157 -483.41776 4294967295
394.78455 117.57885 -482.82193 4294967295
398.22305 118.66585 -482.74792 4294967295
400.63049 118.51945 -482.8526 4294967295
415.50351 136.71733 -482.87631 4294967295
416.14578 135.39954 -482.94318 4294967295
396.39514 140.6355 -482.48917 4294967295
400.08951 138.8891 -482.50711 4294967295
403.22864 138.69385 -482.8089 4294967295
407.72095 138.7097 -482.72684 4294967295
398.14575 118.54896 -481.0437 4294967295
403.18747 118.20217 -481.04242 4294967295
408.26181 117.09648 -481.14362 4294967295
415.96042 119.23679 -481.13959 4294967295
416.10519 121.58948 -481.63214 4294967295
416.38071 124.69579 -481.25446 4294967295
416.46045 126.52513 -481.01697 4294967295
416.50113 131.30002 -481.92267 4294967295
416.38583 133.70793 -481.08203 4294967295
415.75311 135.7184 -481.04587 4294967295
410.33636 138.77043 -481.10437 4294967295
412.1474 138.6608 -481.4754 4294967295
395.80423 142.67444 -481.39371 4294967295
393.79306 114.41098 -480.40726 4294967295
394.3432 116.04138 -480.49847 4294967295
411.48401 116.82733 -480.77359 4294967295
413.16293 116.95691 -480.16327 4294967295
396.82974 118.30537 -480.81381 4294967295
400.91614 118.66648 -480.74692 4294967295
405.27115 117.79243 -480.79251 4294967295
415.1767 117.97292 -480.75696 4294967295
416.52017 128.46811 -480.78931 4294967295
414.56677 137.04025 -480.76889 4294967295
398.67444 139.5869 -480.74881 4294967295
400.71609 138.95001 -480.76843 4294967295
403.09897 138.64731 -480.89844 4294967295
405.66644 138.6609 -480.91922 4294967295
394.0018 109.33945 -479.20413 4294967295
395.26859 117.14797 -479.07413 4294967295
405.07776 118.06319 -479.03027 4294967295
408.08124 117.32155 -479.129 4294967295
413.35666 117.02818 -479.36438 4294967295
414.00452 117.2321 -479.07962 4294967295
415.85306 118.70308 -479.0011 4294967295
416.13629 120.15724 -479.25537 4294967295
416.59418 124.52094 -479.25455 4294967295
416.1283 134.91013 -479.41208 4294967295
413.75806 137.50945 -479.28461 4294967295
415.24911 136.32138 -479.11197 4294967295
402.43979 138.65669 -479.10318 4294967295
409.90659 138.71477 -479.11719 4294967295
394.04248 111.54843 -478.66 4294967295
393.96432 114.21089 -478.67169 4294967295
410.76306 116.79198 -478.72037 4294967295
397.30408 118.38823 -478.96671 4294967295
398.31879 118.70206 -478.74582 4294967295
400.33304 118.81123 -478.7204 4294967295
416.49741 121.92692 -478.55795 4294967295
416.76505 128.28563 -478.24423 4294967295
416.65976 131.05231 -478.96927 4294967295
416.40927 133.79407 -478.61914 4294967295
415.87744 135.48407 -478.17966 4294967295
400.47159 139.08725 -478.29929 4294967295
405.59503 138.55325 -478.79657 4294967295
407.69406 138.71266 -478.83096 4294967295
396.48917 143.01271 -478.52081 4294967295
396.84546 146.4711 -478.82092 4294967295
397.28345 148.93483 -478.71823 4294967295
397.89987 153.06908 -478.86481 4294967295
411.46155 116.82798 -477.14319 4294967295
407.15775 117.66792 -477.20523 4294967295
414.94754 118.54818 -477.15768 4294967295
415.85138 119.49616 -477.72089 4294967295
416.33081 120.92117 -477.3999 4294967295
416.73145 124.15626 -477.50284 4294967295
416.81906 129.59116 -477.53152 4294967295
414.27917 136.91733 -477.25916 4294967295
415.41003 136.09346 -477.76678 4294967295
409.41104 138.7271 -477.14542 4294967295
411.89142 138.1552 -477.84891 4294967295
396.81302 143.40433 -477.1069 4294967295
394.37372 112.68276 -476.86197 4294967295
395.61407 117.23869 -476.74023 4294967295
397.58047 118.5619 -476.69995 4294967295
398.45139 118.84258 -476.37933 4294967295
400.36545 118.95822 -476.76382 4294967295
402.79581 118.6609 -476.99353 4294967295
405.23904 118.21134 -476.53699 4294967295
413.48865 117.74646 -476.57062 4294967295
415.61182 119.67458 -476.15262 4294967295
416.62543 122.75957 -476.47842 4294967295
416.85931 127.36034 -476.47141 4294967295
416.7901 130.37418 -476.33588 4294967295
416.45572 132.95982 -476.98581 4294967295
415.64166 135.27356 -476.53098 4294967295
398.22 140.13383 -476.65094 4294967295
404.00681 138.61588 -476.85022 4294967295
407.24045 138.65894 -476.87366 4294967295
398.09366 151.61014 -476.47382 4294967295
394.595 114.37206 -475.2565 4294967295
402.62473 118.89185 -475.15918 4294967295
405.41269 118.37185 -475.06918 4294967295
407.43207 117.86606 -475.13907 4294967295
416.21689 121.03665 -475.9332 4294967295
416.71387 124.07666 -475.22546 4294967295
416.89645 127.93132 -475.08078 4294967295
416.07925 133.84698 -475.18567 4294967295
412.58896 137.65202 -475.28516 4294967295
414.34232 136.53943 -475.14508 4294967295
410.48169 138.3373 -475.58075 4294967295
395.89432 117.32818 -474.57892 4294967295
397.24997 118.50667 -474.46832 4294967295
400.22537 119.1535 -474.87347 4294967295
410.68677 117.10425 -474.8902 4294967295
412.32172 117.65231 -474.82651 4294967295
414.23569 118.66453 -474.78937 4294967295
415.4418 120.1113 -474.30667 4294967295
416.24283 121.95868 -474.26743 4294967295
416.80655 125.52205 -474.18625 4294967295
416.68237 130.82742 -474.64636 4294967295
398.87766 139.9839 -474.79337 4294967295
403.0206 138.66579 -474.50967 4294967295
407.72168 138.56352 -474.73264 4294967295
397.36795 143.57832 -474.45624 4294967295
397.66599 146.92426 -474.63174 4294967295
395.49924 116.23985 -473.17007 4294967295
400.07993 119.28995 -473.07254 4294967295
402.28046 119.13346 -473.53964 4294967295
407.63785 117.87659 -473.15393 4294967295
416.56204 123.59976 -473.51151 4294967295
416.72198 130.28337 -473.39624 4294967295
416.07175 133.48755 -473.74179 4294967295
413.38409 136.96959 -473.05624 4294967295
415.22797 135.20207 -473.84729 4294967295
398.93674 140.12935 -473.10611 4294967295
410.58978 138.12585 -473.06061 4294967295
397.46564 145.01021 -473.7439 4294967295
398.47992 150.57542 -473.1156 4294967295
395.0798 113.95864 -472.71344 4294967295
397.47403 118.68877 -472.89847 4294967295
398.3024 119.04881 -472.96719 4294967295
410.77625 117.74214 -472.9733 4294967295
412.74683 118.18459 -472.86285 4294967295
414.17499 119.23694 -472.05334 4294967295
415.51767 120.73276 -472.81409 4294967295
416.07785 122.18568 -472.03149 4294967295
416.6026 124.51842 -472.19086 4294967295
416.83762 127.6245 -472.97742 4294967295
415.7514 133.88298 -472.14606 4294967295
416.40973 132.02194 -472.76425 4294967295
400.49655 139.47429 -472.87784 4294967295
397.58658 143.62082 -472.58939 4294967295
395.6423 116.15134 -471.28723 4294967295
407.62692 118.07728 -471.0611 4294967295
409.45358 118.0202 -471.09595 4294967295
411.59888 118.06374 -471.35651 4294967295
412.85168 118.36675 -471.63519 4294967295
415.2218 120.58743 -471.45044 4294967295
416.68442 130.00362 -471.59424 4294967295
412.24399 137.58971 -471.28333 4294967295
413.57895 136.80765 -471.39337 4294967295
414.6087 135.6841 -471.6611 4294967295
397.95911 141.98892 -471.63959 4294967295
397.74774 145.25552 -471.28796 4294967295
396.1171 117.37061 -470.67163 4294967295
397.08923 118.51997 -470.85614 4294967295
398.42392 119.3459 -470.86472 4294967295
399.98306 119.47296 -470.99927 4294967295
402.44696 119.39946 -470.92773 4294967295
405.25006 118.78031 -470.63303 4294967295
412.67969 118.49939 -470.57513 4294967295
413.5795 119.00418 -470.40067 4294967295
414.37814 119.77541 -470.23929 4294967295
415.40326 121.17042 -470.13516 4294967295
416.42114 124.16783 -470.28708 4294967295
416.79742 127.77336 -470.02982 4294967295
415.40781 134.26155 -470.13846 4294967295
416.27188 132.16344 -470.7901 4294967295
400.38934 139.59409 -470.85318 4294967295
402.65915 138.79504 -470.74817 4294967295
404.36734 138.65498 -470.87344 4294967295
407.40173 138.53212 -470.90369 4294967295
410.34933 138.20709 -470.79565 4294967295
398.35062 141.53804 -470.23038 4294967295
398.41864 148.91614 -470.57162 4294967295
395.73596 116.1602 -469.12347 4294967295
402.54913 119.56767 -469.03592 4294967295
410.92624 118.32726 -469.33264 4294967295
412.93713 118.92071 -469.05344 4294967295
416.64206 130.12079 -469.29227 4294967295
411.67905 137.82707 -469.81714 4294967295
413.71219 136.52792 -469.48813 4294967295
396.19055 117.58047 -468.811 4294967295
397.44968 118.84209 -468.82269 4294967295
398.48987 119.36506 -468.80838 4294967295
408.04071 118.47669 -468.83704 4294967295
414.39612 120.10703 -468.55878 4294967295
415.50903 121.61333 -468.42236 4294967295
416.48029 124.58377 -468.23981 4294967295
415.33374 134.50652 -468.02417 4294967295
416.1745 132.39357 -468.62888 4294967295
411.9165 137.76625 -468.42136 4294967295
399.1698 140.60359 -468.9563 4294967295
402.11057 139.05048 -468.72629 4294967295
409.95889 138.30127 -468.9707 4294967295
398.46268 148.19707 -468.91943 4294967295
411.71213 118.61665 -467.90433 4294967295
416.82217 127.97028 -467.59271 4294967295
413.05655 137.24492 -467.00815 4294967295
414.48114 135.98529 -467.22775 4294967295
407.57071 138.58125 -467.31519 4294967295
398.40601 141.89606 -467.99203 4294967295
395.49454 113.83018 -466.79282 4294967295
395.80753 116.24836 -466.96909 4294967295
396.40302 117.6383 -466.87708 4294967295
397.21515 118.67722 -466.89294 4294967295
398.48514 119.39311 -466.66016 4294967295
402.3223 119.82364 -466.51208 4294967295
407.73944 118.73144 -466.70786 4294967295
410.14236 118.6182 -466.57718 4294967295
412.90091 119.23193 -466.8255 4294967295
399.92245 120.00955 -466.88318 4294967295
414.6059 120.46992 -466.90158 4294967295
415.55237 121.87296 -466.5141 4294967295
416.35559 123.81952 -466.41089 4294967295
416.64899 130.33511 -466.94284 4294967295
416.19977 132.68311 -466.44873 4294967295
400.52106 139.45056 -466.71753 4294967295
410.85056 138.14867 -466.69266 4294967295
398.04361 143.6851 -466.60056 4294967295
397.94492 145.97644 -466.47626 4294967295
397.49902 119.04662 -465.02997 4294967295
407.61319 118.86074 -465.07687 4294967295
416.74857 125.85952 -465.96674 4294967295
416.85275 128.08131 -465.11404 4294967295
415.44894 134.71707 -465.96313 4294967295
414.37268 136.36884 -465.32074 4294967295
397.81607 143.75949 -465.61514 4294967295
395.90674 115.97421 -464.75558 4294967295
411.99286 118.95618 -464.82645 4294967295
414.19193 120.0845 -464.43054 4294967295
415.82349 122.28098 -464.68863 4294967295
416.50439 124.1032 -464.8027 4294967295
416.69498 130.65901 -464.56693 4294967295
416.22522 133.17389 -464.40277 4294967295
412.56787 137.66321 -464.66464 4294967295
397.99661 145.88321 -464.81549 4294967295
398.67603 148.59258 -464.6904 4294967295
407.34268 118.94068 -463.34753 4294967295
410.08646 118.70534 -463.31693 4294967295
412.36313 118.9522 -463.25494 4294967295
416.53772 124.43367 -463.49316 4294967295
415.48633 135.15782 -463.99188 4294967295
407.00674 138.82008 -463.03299 4294967295
409.76697 138.5365 -463.84909 4294967295
396.33936 117.70666 -462.65396 4294967295
397.31509 118.88994 -462.79568 4294967295
399.61725 119.97668 -462.72452 4294967295
414.54248 119.9286 -462.4137 4294967295
415.38696 121.15768 -462.78546 4294967295
416.71198 131.64101 -462.56271 4294967295
416.21021 134.03993 -462.62207 4294967295
414.44507 136.79141 -462.62012 4294967295
415.59702 135.45358 -462.55179 4294967295
399.29938 140.85411 -462.68469 4294967295
401.54776 139.1118 -462.91095 4294967295
404.61948 138.72401 -462.60391 4294967295
412.44025 138.04164 -462.47525 4294967295
398.22525 143.93312 -462.30551 4294967295
398.06641 145.91057 -462.37283 4294967295
408.49106 118.84781 -461.22452 4294967295
411.87869 118.68429 -461.97662 4294967295
413.45123 119.134 -461.97873 4294967295
416.07678 122.15038 -461.33713 4294967295
416.68732 124.5463 -461.784 4294967295
416.96939 128.05243 -461.9238 4294967295
416.66205 133.1534 -461.04697 4294967295
409.0321 138.90656 -461.37222 4294967295
410.90564 118.64211 -460.82819 4294967295
412.60873 118.69505 -460.74023 4294967295
413.60092 118.95657 -460.76315 4294967295
414.7435 119.8888 -460.56305 4294967295
416.7478 124.2354 -460.1814 4294967295
417.02609 130.92232 -460.5524 4294967295
413.50433 137.89369 -460.89069 4294967295
414.77765 137.14354 -460.29709 4294967295
415.92575 135.40233 -460.76236 4294967295
404.31113 138.80276 -460.76587 4294967295
407.2085 139.12996 -460.58466 4294967295
411.51611 138.62773 -460.50037 4294967295
398.57767 142.45563 -460.91959 4294967295
399.4278 141.03648 -460.71439 4294967295
412.3118 118.72707 -459.19345 4294967295
413.49969 118.91358 -459.90317 4294967295
416.08923 121.5472 -459.17386 4294967295
417.15912 126.89014 -459.21667 4294967295
417.23474 129.06281 -459.33224 4294967295
416.81689 133.45807 -459.68353 4294967295
404.46274 138.98984 -459.13815 4294967295
409.41785 139.10616 -459.20456 4294967295
399.43436 141.3273 -459.21948 4294967295
410.28674 118.7532 -458.83499 4294967295
414.05249 119.20209 -458.36365 4294967295
415.3121 120.0836 -458.44748 4294967295
416.74365 123.44628 -458.75854 4294967295
417.03558 125.05061 -458.43878 4294967295
417.26904 131.04651 -458.59702 4294967295
416.66229 134.82765 -458.45898 4294967295
415.5867 136.73027 -458.6394 4294967295
407.27386 139.24432 -458.80698 4294967295
413.89041 138.09286 -458.73315 4294967295
415.15579 119.75446 -457.27612 4294967295
416.52573 122.34062 -457.84821 4294967295
417.22668 125.9847 -457.33301 4294967295
417.34824 127.84972 -457.70752 4294967295
417.43445 130.40482 -457.29608 4294967295
417.28766 132.71913 -457.19086 4294967295
416.32996 136.27687 -457.07614 4294967295
402.33389 139.68747 -457.18576 4294967295
404.70776 139.28532 -457.021 4294967295
412.07599 138.99017 -457.42676 4294967295
413.8938 138.51195 -457.02026 4294967295
410.17493 118.6609 -456.7074 4294967295
412.41425 118.92365 -456.59335 4294967295
414.43021 119.35275 -456.59738 4294967295
415.36288 119.96754 -456.09869 4294967295
416.09369 121.12617 -456.90253 4294967295
416.90067 123.63789 -456.6759 4294967295
417.45328 127.71907 -456.21277 4294967295
417.048 134.8838 -456.23203 4294967295
415.22928 137.67514 -456.66373 4294967295
400.5191 140.80058 -456.20151 4294967295
407.25439 139.40419 -456.73129 4294967295
409.21033 139.42517 -456.82446 4294967295
415.90463 120.68752 -455.0889 4294967295
417.27411 125.24828 -455.33173 4294967295
417.62384 130.74046 -455.1799 4294967295
417.49078 133.30743 -455.2424 4294967295
416.49814 136.53241 -455.39145 4294967295
400.87665 140.55373 -455.0264 4294967295
413.98535 138.70645 -455.49506 4294967295
410.31522 118.7916 -454.61655 4294967295
414.69736 119.65561 -454.55563 4294967295
416.64679 122.26151 -454.81967 4294967295
417.07379 123.73977 -454.80313 4294967295
417.56088 127.38223 -454.25998 4294967295
415.6174 137.80006 -454.45969 4294967295
417.36508 135.0594 -454.00372 4294967295
405.36584 139.51895 -454.86847 4294967295
407.79416 139.54234 -454.73291 4294967295
412.19067 139.73239 -454.65878 4294967295
412.60547 119.02415 -453.68475 4294967295
416.20944 121.09485 -453.03394 4294967295
417.74893 132.91618 -453.655 4294967295
416.70123 136.73917 -453.81915 4294967295
405.10861 139.52364 -453.20264 4294967295
409.46631 139.60596 -453.17294 4294967295
414.38809 138.86998 -453.03506 4294967295
410.3912 118.97782 -452.31055 4294967295
414.40778 119.25768 -452.41766 4294967295
415.48782 119.86909 -452.49741 4294967295
417.19589 123.99609 -452.79666 4294967295
417.8689 130.81769 -452.85733 4294967295
417.86584 133.43092 -452.3338 4294967295
416.29504 137.54265 -452.40149 4294967295
417.38696 135.75494 -452.47269 4294967295
403.2048 139.66498 -452.63016 4294967295
407.51886 139.61858 -452.80023 4294967295
412.9259 139.63274 -452.75247 4294967295
410.10822 119.12916 -451.12091 4294967295
413.15225 118.87289 -451.2764 4294967295
414.57623 119.01014 -451.06631 4294967295
415.69427 119.39949 -451.12473 4294967295
416.04935 120.28741 -451.14056 4294967295
417.2421 136.42677 -451.02286 4294967295
405.24551 139.54829 -451.05618 4294967295
408.85498 139.66747 -451.13669 4294967295
416.76968 121.70988 -450.27414 4294967295
418.02039 131.304 -450.80014 4294967295
417.87436 134.23357 -450.73221 4294967295
416.54587 137.62099 -450.85318 4294967295
402.56451 139.85237 -450.81409 4294967295
412.22156 139.87997 -450.89603 4294967295
413.81305 139.65439 -450.75894 4294967295
415.48694 138.52127 -450.82379 4294967295
417.65643 124.25211 -449.05109 4294967295
416.45456 137.88071 -449.15662 4294967295
417.61093 135.98399 -449.03534 4294967295
401.00906 140.52791 -449.38919 4294967295
404.94467 139.56601 -449.13708 4294967295
409.88913 119.3401 -448.89008 4294967295
412.57166 119.02202 -448.87091 4294967295
415.72452 119.5821 -448.74527 4294967295
402.79453 139.90021 -448.26178 4294967295
407.11798 139.72543 -448.87952 4294967295
409.50739 139.86617 -448.67957 4294967295
412.37781 139.93427 -448.95953 4294967295
414.83167 139.36424 -448.76346 4294967295
418.16107 133.66446 -447.46307 4294967295
410.05029 119.49104 -446.59537 4294967295
414.5379 119.28119 -446.87134 4294967295
417.34485 121.52798 -446.87192 4294967295
417.95685 123.74219 -446.52527 4294967295
417.70465 137.64288 -446.89172 4294967295
402.53339 140.09573 -446.57712 4294967295
405.18576 139.62653 -446.58664 4294967295
409.36328 139.88907 -446.8829 4294967295
414.83063 139.57939 -446.78653 4294967295
397.08307 118.3427 -445.00122 4294967295
415.55814 119.65947 -445.03519 4294967295
416.67169 120.59801 -445.07916 4294967295
417.85345 123.60446 -445.10764 4294967295
416.25137 138.99156 -445.0574 4294967295
413.16559 119.289 -444.99777 4294967295
400.25824 121.06203 -444.68051 4294967295
417.47559 121.85323 -444.82352 4294967295
418.27856 128.96577 -444.89307 4294967295
418.67896 134.01994 -444.85602 4294967295
418.12915 136.95415 -444.60391 4294967295
412.76398 140.14304 -444.69852 4294967295
414.5672 119.27911 -443.15695 4294967295
418.29523 125.97034 -443.06055 4294967295
413.48199 140.075 -443.51776 4294967295
397.3804 119.16032 -442.97495 4294967295
410.51019 119.60961 -442.6929 4294967295
415.71957 119.7835 -442.88846 4294967295
399.02463 120.89444 -442.51361 4294967295
416.65588 120.58066 -442.85614 4294967295
417.4375 122.00117 -442.59528 4294967295
417.97531 123.95899 -442.82098 4294967295
418.68124 134.07738 -442.98648 4294967295
417.67978 137.83887 -442.66727 4294967295
418.52823 135.97485 -442.34186 4294967295
415.9696 139.29585 -442.90482 4294967295
397.23187 118.15467 -441.35059 4294967295
414.76154 119.34425 -441.26385 4294967295
418.40494 125.9273 -441.00153 4294967295
418.66653 134.41206 -441.14828 4294967295
412.16113 140.28426 -441.19278 4294967295
415.15125 139.67407 -441.18796 4294967295
416.39066 139.08069 -441.00211 4294967295
396.74002 115.91737 -440.99869 4294967295
397.64758 119.06143 -440.69336 4294967295
410.66458 119.73866 -440.77011 4294967295
399.27878 121.03693 -440.77493 4294967295
401.64511 121.52366 -440.71198 4294967295
416.47086 120.36296 -440.89587 4294967295
417.60632 122.29773 -440.68161 4294967295
418.09628 123.96745 -440.90741 4294967295
397.32745 118.14724 -439.44839 4294967295
415.00592 119.38696 -439.51871 4294967295
399.26926 121.0715 -439.12744 4294967295
400.21143 121.4183 -439.49057 4294967295
418.08148 123.74161 -439.0463 4294967295
418.73331 133.93102 -439.30637 4294967295
412.03082 140.3858 -439.323 4294967295
414.17746 140.06447 -439.0741 4294967295
396.92764 115.93582 -438.39203 4294967295
397.86584 119.41446 -438.8082 4294967295
417.74878 137.85338 -438.90109 4294967295
402.24969 140.42633 -438.87527 4294967295
397.85358 119.40779 -437.01929 4294967295
417.70776 122.25355 -437.42117 4294967295
417.78128 137.84978 -437.10492 4294967295
397.29099 118.10365 -436.78702 4294967295
399.25107 121.17368 -436.65515 4294967295
400.27997 121.65748 -436.91531 4294967295
405.10828 121.22759 -436.89792 4294967295
418.70853 136.22823 -436.35043 4294967295
404.41711 140.19211 -436.92801 4294967295
407.74921 140.3551 -436.59891 4294967295
413.05676 140.43388 -436.9491 4294967295
416.20978 139.44086 -436.85959 4294967295
397.84518 119.3193 -435.21939 4294967295
401.31018 121.72582 -435.1524 4294967295
403.94016 121.61976 -435.26361 4294967295
415.83566 139.7719 -435.14023 4294967295
399.63162 121.55013 -434.02649 4294967295
418.26804 123.10274 -434.96399 4294967295
418.51038 137.22008 -434.75488 4294967295
401.99207 140.59767 -434.75754 4294967295
404.1362 140.26974 -434.70819 4294967295
407.58481 140.45169 -434.90723 4294967295
418.87222 135.95224 -433.14929 4294967295
407.52643 140.41122 -433.01456 4294967295
411.83508 140.64958 -433.30295 4294967295
397.79974 119.23096 -432.74728 4294967295
398.31262 120.65984 -432.39896 4294967295
401.47174 121.94911 -432.99802 4294967295
404.77792 121.6356 -432.80209 4294967295
419.12317 133.66649 -432.85229 4294967295
418.33939 137.59148 -432.93033 4294967295
404.65298 140.39236 -432.85422 4294967295
414.68344 140.47137 -432.70996 4294967295
417.63223 138.69771 -432.77286 4294967295
397.96701 119.8766 -431.53604 4294967295
398.73611 121.71329 -431.22034 4294967295
404.54871 121.78437 -431.07455 4294967295
412.42688 140.76968 -431.19867 4294967295
400.94827 122.27147 -430.5275 4294967295
417.34564 121.74626 -430.46863 4294967295
418.86795 130.9324 -430.95853 4294967295
419.16229 133.72426 -430.79355 4294967295
418.78326 136.69353 -430.9314 4294967295
404.6871 140.58626 -430.77496 4294967295
407.36594 140.50429 -430.87207 4294967295
409.49521 140.7207 -430.83716 4294967295
417.53198 139.08923 -430.71674 4294967295
398.65332 121.72326 -429.33032 4294967295
419.17822 133.73485 -429.05673 4294967295
419.01083 135.97841 -429.20288 4294967295
404.69467 140.74976 -429.0145 4294967295
407.45932 140.75125 -429.21075 4294967295
412.38766 140.85692 -429.22794 4294967295
414.98734 140.6264 -429.37952 4294967295
416.37302 139.95038 -429.00821 4294967295
417.86658 138.86111 -429.07959 4294967295
397.45673 117.46329 -428.73386 4294967295
401.05811 122.42542 -428.45175 4294967295
404.95749 121.84155 -428.68442 4294967295
412.70996 120.02577 -428.59698 4294967295
417.52042 122.12475 -428.67267 4294967295
408.85178 140.75627 -428.46384 4294967295
398.06128 119.9761 -427.83264 4294967295
398.69824 121.78815 -427.03088 4294967295
399.09625 122.08142 -427.00391 4294967295
401.3364 122.39846 -427.07938 4294967295
404.38501 122.06673 -427.15768 4294967295
409.4292 120.79506 -427.09058 4294967295
418.98926 130.94092 -427.22784 4294967295
400.43771 142.09958 -427.23318 4294967295
412.99594 120.11642 -426.88895 4294967295
415.96329 120.92016 -426.66833 4294967295
419.16519 133.32875 -426.92029 4294967295
419.16684 135.97925 -426.30338 4294967295
404.20517 140.99219 -426.99332 4294967295
409.73749 140.81439 -426.71149 4294967295
418.27682 138.67755 -426.93741 4294967295
397.87335 119.60088 -425.00085 4294967295
399.44434 122.29657 -425.02649 4294967295
401.46317 122.41381 -425.2287 4294967295
415.37796 140.71361 -425.05447 4294967295
398.73953 121.85447 -424.59271 4294967295
404.4906 122.22439 -424.97662 4294967295
414.68536 120.62651 -424.93988 4294967295
417.43204 122.14665 -424.88156 4294967295
418.41638 123.72256 -424.64554 4294967295
419.02011 125.55459 -424.94067 4294967295
419.0983 130.96196 -424.49585 4294967295
419.19919 133.66675 -424.85123 4294967295
409.48145 140.96803 -424.73373 4294967295
418.41382 139.09389 -424.9599 4294967295
404.57614 141.12614 -424.9921 4294967295
399.22232 122.23589 -423.05859 4294967295
418.42441 123.74384 -423.14087 4294967295
397.9873 119.8016 -422.62305 4294967295
398.24255 120.73453 -422.7699 4294967295
401.21112 122.49298 -422.65518 4294967295
404.49756 122.39159 -422.70261 4294967295
407.32935 121.71476 -422.87335 4294967295
409.51474 121.08542 -422.93951 4294967295
412.80814 120.46261 -422.84546 4294967295
414.68341 120.53574 -422.94861 4294967295
416.02866 120.94422 -422.79962 4294967295
419.10431 125.87879 -422.86359 4294967295
419.08374 128.27829 -422.73865 4294967295
419.353 137.35516 -422.86676 4294967295
407.26401 140.98669 -422.77298 4294967295
397.90622 119.45663 -421.23209 4294967295
419.10745 125.49735 -421.17844 4294967295
419.45334 133.57602 -421.0845 4294967295
400.00323 122.42332 -420.59647 4294967295
401.16309 122.74155 -420.67517 4294967295
403.53543 122.73659 -420.72235 4294967295
406.97516 122.0961 -420.25342 4294967295
409.58832 121.31013 -420.54636 4294967295
412.36618 120.68505 -420.77982 4294967295
414.81055 120.91687 -420.42584 4294967295
418.48474 123.70338 -420.96362 4294967295
419.15176 128.34457 -420.75058 4294967295
419.20636 130.85753 -420.54355 4294967295
419.49799 135.53346 -420.99719 4294967295
397.96216 119.6925 -419.03171 4294967295
412.46857 120.74554 -419.10855 4294967295
398.19083 120.55354 -418.89621 4294967295
399.54248 122.31303 -418.49707 4294967295
404.63803 122.71164 -418.46899 4294967295
409.56815 121.38919 -418.86023 4294967295
414.62891 120.94027 -418.73343 4294967295
417.50943 122.28141 -418.78317 4294967295
418.51199 123.86733 -418.54318 4294967295
419.21246 125.62538 -418.60971 4294967295
419.22162 128.31973 -418.92651 4294967295
404.24619 122.85907 -417.14658 4294967295
412.6463 120.94456 -417.00305 4294967295
401.2608 123.05218 -417.0358 4294967295
419.29987 128.38998 -417.03134 4294967295
414.88412 120.91164 -416.89294 4294967295
417.60693 122.46334 -416.91669 4294967295
418.48538 123.74199 -416.95929 4294967295
419.25394 125.63584 -416.84503 4294967295
419.62219 133.25439 -416.59943 4294967295
397.90045 118.8328 -414.76309 4294967295
400.50171 122.80165 -414.9119 4294967295
412.88123 120.89632 -414.233 4294967295
415.94202 121.46014 -414.4433 4294967295
418.49323 123.7552 -414.65756 4294967295
419.36914 127.87801 -414.80276 4294967295
419.55817 130.91695 -414.7865 4294967295
415.85858 121.48547 -413.32904 4294967295
407.38431 122.38647 -412.96588 4294967295
419.21967 125.655 -412.16919 4294967295
419.57001 130.8354 -412.88394 4294967295
399.12747 121.33746 -411.01099 4294967295
414.59888 121.09537 -411.15976 4294967295
398.11331 118.00835 -410.79633 4294967295
412.30771 121.25136 -410.83109 4294967295
419.46707 127.97632 -410.85446 4294967295
419.54666 130.57045 -410.64294 4294967295
398.44171 119.56045 -409.10471 4294967295
400.49149 122.79697 -409.13049 4294967295
416.04773 121.8332 -408.81656 4294967295
419.258 126.60578 -408.03839 4294967295
419.68839 131.132 -408.51242 4294967295
419.31186 136.07555 -408.77295 4294967295
417.44275 124.06949 -407.52405 4294967295
419.62479 130.58379 -407.06506 4294967295
415.80524 140.65738 -407.05582 4294967295
413.94748 141.32686 -407.04575 4294967295
398.31326 117.44204 -406.93927 4294967295
398.81711 120.2253 -406.57141 4294967295
399.18481 121.15844 -406.75711 4294967295
412.42761 121.65307 -406.9079 4294967295
415.35797 122.56913 -406.79834 4294967295
418.49933 125.95882 -406.68982 4294967295
419.2085 128.35362 -406.99142 4294967295
398.43127 117.89201 -405.04553 4294967295
414.24582 122.40775 -405.12003 4294967295
416.12885 123.29146 -405.34912 4294967295
417.6098 124.6738 -405.51678 4294967295
418.46014 126.27418 -405.21423 4294967295
419.31366 130.46565 -405.33487 4294967295
418.53983 136.56091 -405.32584 4294967295
417.12952 139.30711 -405.39948 4294967295
411.67813 141.59825 -405.94205 4294967295
414.34207 141.18266 -405.51898 4294967295
398.79968 119.71421 -404.97183 4294967295
410.05789 122.02781 -404.97577 4294967295
400.58679 123.35168 -404.34891 4294967295
417.70139 125.0211 -404.07751 4294967295
418.85831 127.9526 -404.36569 4294967295
419.15842 133.04736 -404.23669 4294967295
415.65173 140.48888 -404.6405 4294967295
416.53668 139.75925 -404.08646 4294967295
410.20883 141.77698 -404.15598 4294967295
412.30942 122.24567 -403.70776 4294967295
400.32843 123.31607 -403.30823 4294967295
416.72723 123.95525 -403.97006 4294967295
418.19223 126.0799 -403.66611 4294967295
417.263 138.76421 -403.98349 4294967295
411.61197 141.57394 -403.76917 4294967295
413.64709 141.10892 -403.80609 4294967295
398.70056 117.64247 -402.31207 4294967295
398.93466 120.04516 -402.82892 4294967295
414.71295 122.90253 -402.8642 4294967295
416.98761 124.75166 -402.03027 4294967295
418.35645 126.99662 -402.74969 4294967295
418.91873 129.88213 -402.37543 4294967295
419.03665 133.03625 -402.26736 4294967295
417.63681 137.6973 -402.80762 4294967295
418.70795 135.28975 -402.88635 4294967295
413.78848 140.8681 -402.3313 4294967295
415.61722 139.90953 -402.61588 4294967295
410.26031 141.70976 -402.84183 4294967295
412.18372 141.34427 -402.22458 4294967295
399.04053 119.938 -401.24844 4294967295
399.47757 121.26169 -401.16888 4294967295
409.81116 122.61274 -401.16046 4294967295
412.60321 122.42643 -401.57739 4294967295
413.66437 122.55254 -401.05859 4294967295
418.14157 126.96609 -401.37943 4294967295
418.67307 134.68944 -401.15948 4294967295
418.03214 136.60646 -401.44901 4294967295
398.70749 117.65714 -400.73868 4294967295
400.41681 123.33625 -400.71692 4294967295
414.7522 123.08353 -400.5488 4294967295
418.38287 128.39714 -400.08264 4294967295
418.81479 130.35538 -400.31894 4294967295
418.711 133.42465 -400.28015 4294967295
413.50211 140.75897 -400.79181 4294967295
415.10214 139.91789 -400.74796 4294967295
416.52069 138.57733 -400.77316 4294967295
410.18033 141.66089 -400.06268 4294967295
398.78983 117.61748 -399.07016 4294967295
399.57977 121.54878 -399.05753 4294967295
412.61932 122.59695 -399.62842 4294967295
401.18338 123.66235 -399.46713 4294967295
415.99637 124.09946 -399.55716 4294967295
417.34888 125.81986 -399.75339 4294967295
417.61691 136.62846 -399.61414 4294967295
414.42566 140.04898 -399.00949 4294967295
416.25354 138.58806 -399.31876 4294967295
412.49561 141.00305 -399.22034 4294967295
399.14648 119.86066 -398.92258 4294967295
412.75403 122.76184 -398.03668 4294967295
401.64084 123.72346 -398.98547 4294967295
414.3425 123.15339 -398.59521 4294967295
417.76172 127.45827 -398.50052 4294967295
418.47696 131.11935 -398.38184 4294967295
418.30743 134.28374 -398.92056 4294967295
398.8309 117.04794 -397.03442 4294967295
399.13693 119.75174 -397.66443 4294967295
399.49899 121.53587 -397.18369 4294967295
410.46509 122.94716 -397.00797 4294967295
413.58649 123.13851 -397.1586 4294967295
416.21481 125.03625 -397.0592 4294967295
417.83862 128.25493 -397.22821 4294967295
418.14963 134.25479 -397.75076 4294967295
417.0181 136.97577 -397.1745 4294967295
415.76526 138.81583 -397.99744 4294967295
411.42105 141.31406 -397.49936 4294967295
413.28128 123.0564 -396.13394 4294967295
414.45758 123.47456 -396.43808 4294967295
417.64459 127.70452 -396.24667 4294967295
417.9494 134.26399 -396.4534 4294967295
413.23645 140.55457 -396.18408 4294967295
415.32126 139.17172 -396.68283 4294967295
400.05493 123.26446 -395.23792 4294967295
401.37796 124.03842 -395.37616 4294967295
414.65958 123.67794 -395.60229 4294967295
418.20987 130.88628 -395.62811 4294967295
417.93134 134.27795 -395.09372 4294967295
415.00238 139.3513 -395.27454 4294967295
410.59012 141.61725 -395.66412 4294967295
398.78012 117.78291 -394.65952 4294967295
413.11075 123.2826 -394.65887 4294967295
417.48483 127.46788 -394.83002 4294967295
416.77448 137.16173 -394.52277 4294967295
398.99493 120.6351 -393.10928 4294967295
415.89929 124.90186 -393.8804 4294967295
417.48672 127.15878 -393.31476 4294967295
417.91931 134.03036 -393.67712 4294967295
412.86276 140.86873 -393.35583 4294967295
414.81259 139.63127 -393.49051 4294967295
410.24173 123.22 -392.6911 4294967295
413.69379 123.52725 -392.70685 4294967295
418.17676 130.20715 -392.60306 4294967295
417.07507 136.73599 -392.36295 4294967295
415.72272 138.85677 -392.57413 4294967295
411.17981 141.63647 -392.08466 4294967295
399.10776 120.91247 -391.42969 4294967295
413.12613 123.25166 -391.32404 4294967295
417.36301 126.84476 -391.76022 4294967295
417.98325 134.03725 -391.85922 4294967295
414.04202 140.32591 -391.30035 4294967295
412.01431 141.37132 -391.12949 4294967295
410.25873 123.19453 -390.18118 4294967295
411.91611 123.0532 -390.54065 4294967295
415.73608 124.50582 -390.90329 4294967295
417.33975 126.41021 -390.25116 4294967295
418.16663 132.86642 -390.16409 4294967295
417.36008 136.13925 -390.53723 4294967295
415.91171 138.58997 -390.81113 4294967295
413.91565 123.32763 -389.6763 4294967295
