# .PCD v0.7 - Point Cloud Data file format
VERSION 0.7
FIELDS x y z rgba
SIZE 4 4 4 4
TYPE F F F U
COUNT 1 1 1 1
WIDTH 1148
HEIGHT 1
VIEWPOINT 0 0 0 1 0 0 0
POINTS 1148
DATA ascii
482.26886 1553.5486 -103.7692 4294967295
485.3728 1551.6626 -103.04098 4294967295
452.36923 1556.2333 -103.85607 4294967295
455.64542 1555.1495 -103.78722 4294967295
456.80707 1554.8405 -103.21581 4294967295
459.04922 1554.4971 -103.62425 4294967295
439.56583 1559.5602 -103.1843 4294967295
441.42676 1559.6467 -103.51458 4294967295
443.50562 1558.5493 -103.69281 4294967295
449.15768 1557.3046 -103.59778 4294967295
439.11661 1561.6846 -103.16162 4294967295
441.26987 1527.9469 -102.16585 4294967295
443.34454 1528.0216 -102.99504 4294967295
476.19766 1529.9855 -102.10043 4294967295
443.29898 1530.0697 -102.48853 4294967295
445.49799 1531.4049 -102.82388 4294967295
447.14044 1532.1655 -102.79104 4294967295
450.25671 1532.4727 -102.96712 4294967295
452.63397 1532.5635 -102.64921 4294967295
471.37314 1530.5798 -102.45128 4294967295
480.07648 1530.2244 -102.15051 4294967295
477.85635 1553.8616 -102.06489 4294967295
480.20612 1553.4056 -102.1116 4294967295
481.56418 1553.1841 -102.50542 4294967295
445.64105 1556.8749 -102.30475 4294967295
461.08496 1554.5013 -102.92538 4294967295
464.01617 1554.4468 -102.80896 4294967295
474.14108 1554.2333 -102.5186 4294967295
436.93127 1558.4598 -102.02616 4294967295
437.10272 1559.6031 -102.55829 4294967295
440.06656 1557.9857 -102.74395 4294967295
435.22989 1561.0798 -102.16685 4294967295
437.15125 1561.7175 -102.5783 4294967295
443.43457 1531.1412 -101.93359 4294967295
445.26404 1532.5786 -101.02164 4294967295
447.14267 1532.6799 -101.38663 4294967295
448.84433 1532.6276 -101.99229 4294967295
483.65085 1551.4727 -101.45631 4294967295
440.271 1556.8832 -101.71818 4294967295
441.3403 1556.8525 -101.82146 4294967295
443.47125 1556.707 -101.91946 4294967295
451.17346 1555.9089 -101.41952 4294967295
457.20953 1554.8326 -101.29523 4294967295
475.75763 1554.2227 -101.97234 4294967295
433.18015 1559.3738 -101.21624 4294967295
437.43661 1557.1849 -101.29602 4294967295
431.00162 1561.1401 -101.17715 4294967295
441.59067 1531.5896 -100.91029 4294967295
443.55923 1532.3201 -100.89462 4294967295
461.66702 1531.8005 -100.84288 4294967295
467.45062 1531.0411 -100.83019 4294967295
476.21738 1553.9078 -100.00855 4294967295
477.94327 1553.4928 -100.04326 4294967295
479.10287 1553.2572 -100.49282 4294967295
435.69351 1556.8838 -100.26475 4294967295
438.99966 1555.9962 -100.00919 4294967295
472.85623 1554.5601 -100.25682 4294967295
431.92297 1558.3817 -100.41875 4294967295
433.65512 1557.7314 -100.65423 4294967295
424.89774 1561.6447 -100.1243 4294967295
427.34253 1561.48 -100.29382 4294967295
429.2027 1561.0981 -100.64317 4294967295
425.35797 1564.0981 -100.05049 4294967295
427.9115 1563.8541 -100.42805 4294967295
429.01273 1564.2386 -100.56734 4294967295
431.69766 1531.2003 -99.515213 4294967295
435.54065 1531.7832 -99.598694 4294967295
473.90268 1530.316 -99.854813 4294967295
476.06808 1530.3964 -99.779137 4294967295
441.0611 1533.0813 -99.149712 4294967295
443.51578 1533.1255 -99.366081 4294967295
446.70862 1533.0394 -99.67762 4294967295
448.97153 1533.025 -99.803703 4294967295
481.65109 1550.1735 -99.428391 4294967295
482.12436 1548.8065 -99.294373 4294967295
480.7438 1552.1445 -99.832092 4294967295
441.0538 1555.9446 -99.942139 4294967295
445.61066 1555.5782 -99.740608 4294967295
449.2218 1555.5894 -99.239014 4294967295
457.33954 1554.9658 -99.014435 4294967295
425.4028 1559.7919 -99.719414 4294967295
427.14688 1559.8119 -99.933853 4294967295
428.40118 1559.2231 -99.926041 4294967295
431.7171 1557.4305 -99.570076 4294967295
415.26669 1562.0552 -99.245071 4294967295
421.64127 1560.0946 -99.10643 4294967295
423.29361 1561.688 -99.8311 4294967295
419.54874 1564.1509 -99.515656 4294967295
423.42859 1564.2563 -99.812653 4294967295
431.92358 1532.879 -98.502975 4294967295
433.67108 1532.6262 -98.982307 4294967295
465.20432 1531.1401 -98.495491 4294967295
475.67465 1530.7903 -98.275772 4294967295
477.72446 1531.1322 -98.684525 4294967295
479.38541 1531.9886 -98.800964 4294967295
475.86462 1553.676 -98.112885 4294967295
478.53299 1552.3547 -98.232185 4294967295
479.49329 1551.7854 -98.464417 4294967295
439.72391 1555.5938 -98.166229 4294967295
451.41312 1555.4766 -98.635399 4294967295
468.28574 1554.6981 -98.691162 4294967295
473.48035 1554.2882 -98.217453 4294967295
424.33258 1558.2733 -98.296074 4294967295
429.06903 1557.5583 -98.687401 4294967295
409.79675 1560.9766 -98.531914 4294967295
411.35181 1560.3109 -98.308296 4294967295
413.50317 1561.054 -98.749573 4294967295
379.28247 1564.5688 -98.298454 4294967295
383.03323 1564.9271 -98.59256 4294967295
385.16589 1563.7645 -98.199303 4294967295
387.42172 1563.197 -98.010208 4294967295
389.41202 1563.7617 -98.39209 4294967295
391.36984 1565.9701 -98.608696 4294967295
393.26303 1565.792 -98.63826 4294967295
395.48801 1565.9918 -98.639809 4294967295
396.12701 1563.8752 -98.481842 4294967295
386.8356 1566.3435 -98.556679 4294967295
102.83462 1583.2419 -98.541016 4294967295
107.30256 1582.6296 -98.052727 4294967295
108.08944 1583.9819 -98.55584 4294967295
115.4368 1582.8521 -98.255325 4294967295
117.14986 1582.7054 -98.016731 4294967295
118.74463 1583.7484 -98.276619 4294967295
121.21483 1582.9208 -98.006546 4294967295
137.14621 1583.4974 -98.166733 4294967295
151.25659 1582.7982 -98.041573 4294967295
154.99562 1582.9391 -98.238495 4294967295
103.96887 1584.0414 -98.812683 4294967295
105.35076 1584.6035 -98.831879 4294967295
106.96525 1585.3456 -98.828667 4294967295
109.63213 1584.4438 -98.52018 4294967295
111.65775 1584.0853 -98.645729 4294967295
113.77945 1584 -98.587227 4294967295
117.56961 1584.9812 -98.456367 4294967295
119.259 1585.2372 -98.419785 4294967295
121.27701 1585.4314 -98.44249 4294967295
122.76543 1584.021 -98.281593 4294967295
123.85335 1584.6956 -98.35437 4294967295
124.73125 1586.7865 -98.445442 4294967295
134.38698 1584.7747 -98.255264 4294967295
135.47269 1585.9916 -98.275566 4294967295
137.59167 1585.651 -98.260666 4294967295
139.54639 1585.2701 -98.221336 4294967295
107.94753 1587.2782 -98.976753 4294967295
407.22888 1529.4166 -97.15036 4294967295
409.84277 1529.9651 -97.370522 4294967295
413.76605 1529.8873 -97.413498 4294967295
416.96463 1529.9674 -97.644859 4294967295
393.46161 1532.7902 -97.107269 4294967295
403.31726 1532.9224 -97.172951 4294967295
405.69077 1531.3209 -97.268875 4294967295
407.46365 1532.4823 -97.286758 4294967295
409.76233 1532.1171 -97.300201 4294967295
411.72885 1530.8129 -97.206688 4294967295
413.18515 1532.2069 -97.144005 4294967295
472.1474 1530.5933 -97.768227 4294967295
405.33881 1533.802 -97.096474 4294967295
409.8924 1533.3206 -97.085403 4294967295
411.62741 1533.1611 -97.033661 4294967295
415.46143 1533.0648 -97.03495 4294967295
427.24319 1533.2906 -97.68782 4294967295
431.22235 1534.1741 -97.085571 4294967295
433.38403 1534.0286 -97.37429 4294967295
435.34869 1533.7683 -97.530609 4294967295
443.20886 1533.7455 -97.47303 4294967295
445.03259 1533.5906 -97.714989 4294967295
446.85168 1533.3485 -97.946526 4294967295
479.52679 1550.2573 -97.416107 4294967295
89.207314 1553.7573 -97.361244 4294967295
91.539467 1553.88 -97.322891 4294967295
93.339462 1552.8358 -97.262741 4294967295
97.663666 1552.634 -97.129623 4294967295
99.771927 1553.8215 -97.328918 4294967295
101.55715 1551.6066 -97.075104 4294967295
103.20221 1553.1644 -97.167953 4294967295
105.62738 1552.7201 -97.19014 4294967295
111.45175 1552.8372 -97.082016 4294967295
121.61459 1551.8992 -97.021919 4294967295
125.49195 1552.072 -97.113907 4294967295
83.518822 1555.6766 -97.416016 4294967295
87.881454 1555.3263 -97.209 4294967295
89.414368 1555.541 -97.190025 4294967295
91.319382 1555.6624 -97.114349 4294967295
94.121719 1555.1985 -97.134842 4294967295
433.04608 1556.3134 -97.999924 4294967295
436.43143 1555.8605 -97.953606 4294967295
443.35159 1555.403 -97.693405 4294967295
445.38708 1555.4543 -97.459465 4294967295
447.57211 1555.4414 -97.323677 4294967295
469.70987 1554.7382 -97.929237 4294967295
407.44427 1559.4158 -97.226707 4294967295
409.51785 1559.2014 -97.31794 4294967295
413.15799 1558.9683 -97.479538 4294967295
416.1702 1558.4001 -97.07354 4294967295
427.08179 1557.3087 -97.701393 4294967295
429.79349 1557.0707 -97.99353 4294967295
375.39221 1562.5609 -97.08992 4294967295
377.39502 1562.2311 -97.139511 4294967295
383.45508 1562.9224 -97.828468 4294967295
384.77902 1562.9154 -97.885117 4294967295
387.55826 1562.6486 -97.78344 4294967295
390.49887 1562.7264 -97.810425 4294967295
393.42056 1562.6472 -97.733078 4294967295
355.54129 1565.9385 -97.14431 4294967295
361.53299 1565.7865 -97.373886 4294967295
363.17828 1564.886 -97.182686 4294967295
364.94479 1565.8214 -97.68895 4294967295
373.49039 1564.0153 -97.391586 4294967295
339.40115 1567.4216 -97.035736 4294967295
345.42108 1567.8857 -97.36422 4294967295
349.146 1567.7623 -97.346901 4294967295
351.52847 1566.3165 -97.114868 4294967295
353.17087 1567.1945 -97.3713 4294967295
355.37692 1567.7325 -97.587021 4294967295
357.34152 1566.1438 -97.34333 4294967295
358.99866 1567.8595 -97.867523 4294967295
361.36505 1567.7996 -97.88768 4294967295
363.1134 1567.9629 -97.898529 4294967295
335.35861 1570.0619 -97.069321 4294967295
337.34445 1569.6886 -97.187149 4294967295
341.1897 1569.8895 -97.396523 4294967295
153.52846 1579.8065 -97.125885 4294967295
155.0896 1580.715 -97.789978 4294967295
157.14047 1580.5233 -97.578308 4294967295
160.9278 1580.7649 -97.5466 4294967295
161.1394 1580.0713 -97.383598 4294967295
163.26907 1580.7352 -97.523834 4294967295
165.192 1580.1292 -97.43766 4294967295
167.68147 1579.8654 -97.40052 4294967295
169.53571 1580.0959 -97.371933 4294967295
171.21991 1580.8445 -97.63327 4294967295
175.1441 1579.5977 -97.373466 4294967295
177.3031 1580.1317 -97.460732 4294967295
103.25943 1582.2811 -97.421486 4294967295
105.35484 1582.2686 -97.541611 4294967295
109.3502 1582.1517 -97.627487 4294967295
111.33233 1582.0923 -97.994102 4294967295
113.07492 1581.8065 -97.852982 4294967295
115.41631 1581.7037 -97.745628 4294967295
119.39583 1582.6993 -97.958328 4294967295
120.05753 1581.8215 -97.506386 4294967295
122.76258 1582.2789 -97.603317 4294967295
123.10218 1581.473 -97.147736 4294967295
126.37413 1583.2391 -97.965897 4294967295
133.37967 1582.955 -97.585831 4294967295
139.16423 1581.9553 -97.656036 4294967295
147.09071 1581.9451 -97.791367 4294967295
151.4003 1581.2992 -97.544624 4294967295
157.14978 1582.0073 -97.787682 4294967295
159.20856 1581.0875 -97.69548 4294967295
163.30861 1583.0061 -97.921333 4294967295
165.72186 1583.4086 -97.804939 4294967295
167.2589 1582.0476 -97.710213 4294967295
173.61926 1581.1115 -97.87352 4294967295
175.16347 1581.3575 -97.843559 4294967295
371.83258 1532.5902 -96.409683 4294967295
375.69974 1532.7413 -96.512398 4294967295
383.39819 1531.9021 -96.551254 4294967295
384.98062 1532.0143 -96.629532 4294967295
387.54385 1532.4552 -96.919312 4294967295
389.29016 1532.5103 -96.977211 4294967295
448.96301 1532.866 -96.904556 4294967295
468.19513 1530.9281 -96.388924 4294967295
347.53964 1534.0455 -96.023491 4294967295
349.26813 1533.7878 -96.001823 4294967295
365.41806 1535.7618 -96.401794 4294967295
369.73788 1535.3555 -96.354454 4294967295
371.56818 1534.9252 -96.391762 4294967295
373.83237 1534.8496 -96.379318 4294967295
375.26901 1535.6051 -96.15992 4294967295
377.41763 1535.4585 -96.169914 4294967295
378.91208 1534.3942 -96.482887 4294967295
379.29868 1535.3105 -96.231979 4294967295
381.32333 1533.8878 -96.779678 4294967295
383.19229 1535.1704 -96.35968 4294967295
385.15991 1534.0594 -96.684357 4294967295
386.99933 1535.1808 -96.470482 4294967295
389.34409 1535.1571 -96.521324 4294967295
390.00446 1534.3766 -96.732033 4294967295
401.35629 1534.0776 -96.862823 4294967295
403.70816 1535.2013 -96.524872 4294967295
407.60703 1534.7952 -96.562965 4294967295
409.84256 1534.9301 -96.331337 4294967295
411.58902 1534.9861 -96.017242 4294967295
413.45874 1533.7168 -96.588242 4294967295
417.50781 1533.1992 -96.816635 4294967295
429.42651 1534.0265 -96.875854 4294967295
341.46295 1536.0656 -96.075569 4294967295
345.43744 1536.0748 -96.16082 4294967295
367.47406 1536.3655 -96.154793 4294967295
145.31017 1547.5282 -96.302223 4294967295
163.47862 1547.8778 -96.27626 4294967295
165.55478 1547.7682 -96.212166 4294967295
171.43213 1547.9193 -96.132553 4294967295
175.49825 1547.9855 -96.110855 4294967295
478.11703 1547.9703 -96.05394 4294967295
143.67693 1550.0488 -96.581657 4294967295
147.88959 1550.0111 -96.50354 4294967295
151.57326 1550.2267 -96.614342 4294967295
155.5356 1550.1742 -96.494537 4294967295
157.60924 1550.153 -96.239647 4294967295
161.79846 1550.2338 -96.386047 4294967295
165.48642 1549.9871 -96.145622 4294967295
167.72609 1549.7362 -96.023491 4294967295
477.74686 1550.0502 -96.167877 4294967295
115.80618 1553.9784 -96.972916 4294967295
119.53543 1553.9888 -96.942955 4294967295
123.64581 1552.079 -96.999382 4294967295
127.56592 1552.6078 -96.897346 4294967295
129.57773 1552.8564 -96.894806 4294967295
131.59259 1552.8616 -96.850243 4294967295
133.43407 1552.6237 -96.960403 4294967295
135.44482 1553.1145 -96.556091 4294967295
137.90347 1552.1095 -96.576111 4294967295
139.56168 1552.739 -96.32373 4294967295
141.50082 1553.1512 -96.117958 4294967295
143.36195 1551.9934 -96.41288 4294967295
145.53845 1551.8741 -96.364357 4294967295
149.31018 1551.8865 -96.387505 4294967295
151.76106 1551.7971 -96.075699 4294967295
153.10394 1551.5494 -96.247589 4294967295
473.84271 1553.8389 -96.514206 4294967295
477.17926 1552.1274 -96.682968 4294967295
70.514824 1556.4807 -96.363632 4294967295
81.665474 1556.9872 -96.890083 4294967295
85.833046 1556.8533 -96.800377 4294967295
94.867409 1556.0358 -96.932625 4294967295
95.621643 1556.9432 -96.517448 4294967295
97.803162 1555.7208 -96.957039 4294967295
99.453392 1555.7678 -96.900307 4294967295
101.4564 1555.6307 -96.906746 4294967295
103.61988 1556.5424 -96.467598 4294967295
105.54448 1555.8782 -96.880051 4294967295
111.31213 1555.626 -96.761505 4294967295
117.35026 1555.4111 -96.500542 4294967295
119.60054 1556.2223 -96.004112 4294967295
121.47918 1555.1394 -96.490784 4294967295
123.66885 1554.5367 -96.64241 4294967295
125.78272 1554.1061 -96.796616 4294967295
127.45044 1554.9734 -96.51561 4294967295
129.51314 1554.5547 -96.586761 4294967295
131.5448 1555.3607 -96.285606 4294967295
133.21223 1555.1606 -96.007957 4294967295
427.16595 1556.8501 -96.21241 4294967295
431.55368 1556.2588 -96.145828 4294967295
453.22015 1555.3882 -96.917793 4294967295
466.02505 1555.0428 -96.029564 4294967295
86.937012 1557.8722 -96.255058 4294967295
87.265152 1557.075 -96.675446 4294967295
90.633087 1557.7977 -96.218414 4294967295
92.713196 1557.2793 -96.511322 4294967295
97.50853 1557.4438 -96.151611 4294967295
99.441711 1557.082 -96.333984 4294967295
101.32899 1557.1272 -96.195915 4294967295
411.71164 1558.2972 -96.050987 4294967295
371.60037 1562.7094 -96.361481 4294967295
383.17148 1561.4061 -96.638 4294967295
387.64386 1561.1598 -96.502312 4294967295
388.68246 1561.2693 -96.65226 4294967295
391.80933 1560.8829 -96.28231 4294967295
395.89481 1561.1451 -96.78672 4294967295
397.25436 1561.0121 -96.768288 4294967295
344.01163 1565.2773 -96.167313 4294967295
351.74127 1565.1769 -96.444611 4294967295
353.41916 1564.696 -96.283211 4294967295
354.93823 1565.1118 -96.722198 4294967295
357.90945 1564.2218 -96.376457 4294967295
359.39868 1564.504 -96.635719 4294967295
313.47858 1568.675 -96.042168 4294967295
315.47723 1568.4464 -96.164635 4294967295
319.39389 1568.0433 -96.385628 4294967295
321.491 1568.8402 -96.535103 4294967295
323.42596 1568.7644 -96.56765 4294967295
324.84628 1567.6461 -96.351929 4294967295
325.78506 1566.754 -96.020966 4294967295
327.72919 1568.3127 -96.518692 4294967295
329.00519 1566.7705 -96.116859 4294967295
332.93805 1568.0648 -96.61451 4294967295
333.15991 1566.6299 -96.187614 4294967295
335.66599 1568.0203 -96.860268 4294967295
337.40213 1566.5381 -96.504318 4294967295
341.69492 1566.3397 -96.59832 4294967295
345.49231 1566.2217 -96.86602 4294967295
349.30017 1566.3621 -96.922798 4294967295
293.81934 1571.6323 -96.082848 4294967295
299.23529 1569.9686 -96.109009 4294967295
307.60696 1569.4978 -96.194305 4294967295
324.76996 1569.131 -96.61953 4294967295
329.45004 1569.6655 -96.825661 4294967295
333.15491 1570.2056 -96.946938 4294967295
277.6582 1573.675 -96.007927 4294967295
279.60291 1573.7927 -96.044617 4294967295
280.99673 1573.8917 -96.212318 4294967295
189.35149 1577.9998 -96.25869 4294967295
193.66016 1577.5537 -96.214294 4294967295
201.39665 1576.7198 -96.01577 4294967295
203.44666 1577.9053 -96.249855 4294967295
223.33923 1576.6206 -96.167923 4294967295
231.1785 1576.0824 -96.129761 4294967295
233.16263 1576.2256 -96.128098 4294967295
237.60275 1577.7979 -96.14872 4294967295
277.32669 1576.3184 -96.03624 4294967295
279.5556 1576.333 -96.047859 4294967295
137.61041 1580.209 -96.081146 4294967295
155.49744 1579.3611 -96.833275 4294967295
157.67819 1579.3784 -96.876411 4294967295
159.70395 1578.9406 -96.651505 4294967295
163.47055 1579.0604 -96.823448 4294967295
165.42041 1578.8663 -96.726135 4294967295
167.66901 1578.5327 -96.664085 4294967295
171.16525 1578.7106 -96.974251 4294967295
175.3981 1578.2534 -96.795006 4294967295
179.0116 1578.6246 -96.8507 4294967295
191.28088 1578.9122 -96.572823 4294967295
193.48492 1578.9497 -96.580925 4294967295
197.19286 1579.0443 -96.725426 4294967295
239.08937 1578.1176 -96.050797 4294967295
103.81891 1581.923 -96.676331 4294967295
105.72453 1581.7627 -96.046127 4294967295
107.6928 1581.6603 -96.282738 4294967295
109.57848 1581.5596 -96.295105 4294967295
117.34063 1581.4375 -96.747482 4294967295
465.72995 1530.9158 -95.764694 4294967295
314.99249 1535.6464 -95.509636 4294967295
319.50366 1535.5623 -95.580711 4294967295
323.5856 1535.8792 -95.745132 4294967295
343.34488 1533.4802 -95.847771 4294967295
349.59576 1535.9479 -95.979492 4294967295
353.71194 1534.9164 -95.886116 4294967295
405.36053 1535.849 -95.822571 4294967295
407.48676 1535.8068 -95.290779 4294967295
415.02353 1535.0066 -95.354309 4294967295
433.18845 1534.5035 -95.911819 4294967295
443.45941 1533.8634 -95.183701 4294967295
445.21207 1533.5446 -95.088943 4294967295
309.71948 1537.7728 -95.583542 4294967295
313.49472 1537.8872 -95.653954 4294967295
315.34097 1537.8922 -95.727196 4294967295
319.67963 1537.8949 -95.635826 4294967295
321.45471 1538.0795 -95.64566 4294967295
323.39319 1538.0011 -95.639587 4294967295
325.46494 1537.9115 -95.606461 4294967295
327.6008 1537.9568 -95.688759 4294967295
329.55225 1537.7987 -95.618042 4294967295
331.44156 1537.7931 -95.377426 4294967295
333.5387 1536.9252 -95.521172 4294967295
337.47653 1536.9473 -95.56337 4294967295
339.38885 1537.6365 -95.560593 4294967295
343.40207 1537.7069 -95.64209 4294967295
349.70972 1537.5693 -95.596397 4294967295
351.46762 1537.423 -95.539017 4294967295
353.2876 1537.1461 -95.506836 4294967295
365.83932 1537.1504 -95.853027 4294967295
368.9621 1537.908 -95.017502 4294967295
369.38998 1536.9452 -95.91777 4294967295
371.67642 1536.8572 -95.824959 4294967295
373.28732 1537.04 -95.648499 4294967295
375.22202 1537.1061 -95.430428 4294967295
381.28171 1536.7111 -95.480797 4294967295
383.35739 1536.7256 -95.44545 4294967295
385.56995 1536.61 -95.604958 4294967295
387.2851 1536.7736 -95.423317 4294967295
389.35535 1536.6528 -95.451782 4294967295
393.30893 1536.4381 -95.545242 4294967295
401.00931 1536.178 -95.451668 4294967295
253.58704 1541.8077 -95.297371 4294967295
255.2032 1540.9021 -95.204018 4294967295
257.62122 1540.6426 -95.227249 4294967295
259.24384 1539.6501 -95.067543 4294967295
263.6069 1539.6328 -95.125824 4294967295
265.42676 1539.6549 -95.16806 4294967295
267.29669 1539.6885 -95.206329 4294967295
269.58923 1540.894 -95.270004 4294967295
271.61761 1539.6475 -95.263176 4294967295
273.44714 1541.8633 -95.221527 4294967295
281.42303 1540.9872 -95.295303 4294967295
285.53375 1540.9417 -95.329575 4294967295
287.4841 1540.0354 -95.441223 4294967295
288.37952 1541.131 -95.336273 4294967295
289.46887 1540.9633 -95.336678 4294967295
291.44104 1540.9563 -95.331848 4294967295
293.56506 1540.9403 -95.332108 4294967295
297.62631 1541.413 -95.228416 4294967295
307.33871 1539.6353 -95.35891 4294967295
311.54587 1539.6993 -95.149742 4294967295
313.41278 1539.5317 -95.189423 4294967295
317.37662 1539.7303 -95.232964 4294967295
321.54559 1539.6926 -95.28968 4294967295
323.5397 1539.6116 -95.252472 4294967295
325.55481 1539.3375 -95.221352 4294967295
327.31351 1539.2356 -95.156143 4294967295
329.48465 1539.1335 -95.176216 4294967295
207.36307 1543.5884 -95.077156 4294967295
209.59543 1543.5044 -95.117043 4294967295
211.35271 1543.8834 -95.175331 4294967295
213.42555 1543.7622 -95.213669 4294967295
215.44385 1543.7681 -95.195953 4294967295
233.48924 1543.8236 -95.313263 4294967295
251.06102 1543.9968 -95.070129 4294967295
253.77245 1543.7639 -95.151909 4294967295
255.74873 1543.9175 -95.111572 4294967295
259.57654 1543.8618 -95.085228 4294967295
261.68842 1542.2267 -95.452133 4294967295
263.57684 1543.9587 -95.045738 4294967295
265.71539 1542.9172 -95.19014 4294967295
267.62405 1542.1949 -95.28109 4294967295
269.3678 1543.8965 -95.070206 4294967295
271.56403 1542.3479 -95.231689 4294967295
279.5874 1543.0284 -95.013069 4294967295
181.91092 1545.5074 -95.702896 4294967295
183.68756 1546.7244 -95.743591 4294967295
187.42529 1546.6204 -95.618179 4294967295
205.4651 1545.8309 -95.038361 4294967295
211.39763 1545.6039 -95.092216 4294967295
214.67613 1545.8046 -95.013512 4294967295
227.49207 1546.015 -95.123901 4294967295
229.49521 1545.8903 -95.14344 4294967295
231.38383 1545.9432 -95.059464 4294967295
235.44093 1545.8754 -95.151932 4294967295
171.53094 1549.7318 -95.88472 4294967295
173.51732 1549.6934 -95.86937 4294967295
175.11395 1549.8495 -95.808617 4294967295
177.47684 1549.6838 -95.847816 4294967295
179.57538 1548.8275 -95.741684 4294967295
181.36089 1549.7651 -95.46991 4294967295
183.48615 1549.3528 -95.418083 4294967295
185.27217 1549.1606 -95.280869 4294967295
145.58167 1553.197 -95.8713 4294967295
147.38258 1553.9056 -95.194023 4294967295
149.54988 1553.4723 -95.388794 4294967295
155.642 1553.3242 -95.107491 4294967295
157.33186 1551.6425 -95.928734 4294967295
159.3797 1553.022 -95.031769 4294967295
163.49678 1551.3657 -95.671745 4294967295
165.56767 1552.08 -95.089546 4294967295
167.39258 1551.9136 -95.052872 4294967295
173.42389 1551.4954 -95.037148 4294967295
475.4017 1552.861 -95.875114 4294967295
115.58609 1556.8848 -95.644699 4294967295
121.2527 1556.8036 -95.346985 4294967295
123.12611 1556.6912 -95.233795 4294967295
125.25058 1556.3724 -95.668556 4294967295
127.53618 1556.0913 -95.717461 4294967295
129.38956 1556.2727 -95.203056 4294967295
131.494 1555.9918 -95.4394 4294967295
135.2822 1555.4098 -95.452576 4294967295
137.39346 1555.0085 -95.502075 4294967295
139.53677 1554.8618 -95.296432 4294967295
143.21841 1554.5189 -95.136925 4294967295
145.37079 1554.3582 -95.029633 4294967295
447.31598 1555.6659 -95.001015 4294967295
467.21167 1554.9292 -95.133377 4294967295
470.67673 1554.3701 -95.390671 4294967295
67.852776 1558.2705 -95.087097 4294967295
69.434502 1557.5035 -95.7202 4294967295
81.426094 1558.937 -95.685341 4294967295
83.169662 1559.1388 -95.280685 4294967295
85.200256 1559.1663 -95.250771 4294967295
89.515564 1558.626 -95.588951 4294967295
91.324944 1558.6901 -95.440155 4294967295
93.480385 1558.5372 -95.455223 4294967295
95.697624 1558.5605 -95.265282 4294967295
101.38582 1558.4237 -95.012047 4294967295
103.38348 1558.1196 -95.094116 4294967295
105.45698 1557.3645 -95.780357 4294967295
109.44173 1557.3129 -95.7537 4294967295
397.34241 1559.8474 -95.397804 4294967295
413.90616 1558.0745 -95.875504 4294967295
363.0694 1562.9683 -95.389023 4294967295
377.30005 1561.2303 -95.433556 4294967295
381.13934 1561.2081 -95.849167 4294967295
389.19666 1560.3167 -95.421242 4294967295
331.15323 1565.0389 -95.158447 4294967295
339.94516 1564.6259 -95.54892 4294967295
341.31857 1564.1772 -95.142807 4294967295
345.57956 1564.5808 -95.770981 4294967295
347.59097 1564.4242 -95.620575 4294967295
355.29565 1563.6357 -95.431656 4294967295
297.3559 1568.3042 -95.033607 4294967295
311.3353 1568.7012 -95.877495 4294967295
317.26779 1566.9884 -95.261101 4294967295
322.00333 1566.0802 -95.705688 4294967295
273.69763 1571.9321 -95.493523 4294967295
281.53497 1571.7445 -95.617317 4294967295
283.30862 1571.9967 -95.86039 4294967295
295.48792 1569.9254 -95.702065 4294967295
297.79523 1569.6464 -95.872322 4294967295
223.5493 1574.417 -95.381279 4294967295
229.42159 1573.5374 -95.102325 4294967295
233.43716 1573.8273 -95.298592 4294967295
243.82756 1574.1746 -95.172867 4294967295
247.28786 1573.7489 -95.297638 4294967295
251.16112 1574.1754 -95.400192 4294967295
253.55791 1573.7874 -95.17453 4294967295
255.35323 1573.6477 -95.13839 4294967295
257.15356 1573.817 -95.223915 4294967295
259.17313 1573.6396 -95.264473 4294967295
263.32581 1573.2305 -95.267014 4294967295
267.20233 1573.1089 -95.446808 4294967295
269.16064 1573.1974 -95.582558 4294967295
271.51407 1573.8385 -95.907837 4294967295
273.38614 1573.6798 -95.924347 4294967295
275.26846 1573.7045 -95.98056 4294967295
277.28381 1572.0469 -95.656403 4294967295
279.42969 1572.0143 -95.649933 4294967295
163.51907 1577.9326 -95.168144 4294967295
166.03296 1577.8943 -95.67469 4294967295
169.29579 1577.5475 -95.462013 4294967295
171.02596 1577.4176 -95.255363 4294967295
173.77654 1577.2682 -95.445518 4294967295
175.47282 1577.1046 -95.285484 4294967295
177.44412 1576.9788 -95.27095 4294967295
179.68665 1577.2683 -95.843552 4294967295
187.59006 1576.333 -95.218163 4294967295
189.57527 1576.5098 -95.37513 4294967295
191.61583 1576.4617 -95.510094 4294967295
193.36198 1576.4556 -95.600243 4294967295
195.11938 1576.6703 -95.876915 4294967295
197.48703 1576.2424 -95.865959 4294967295
221.20195 1575.6149 -95.882889 4294967295
236.05113 1575.8624 -95.827187 4294967295
237.59572 1575.6034 -95.658363 4294967295
239.29446 1575.5969 -95.607841 4294967295
241.45264 1575.9497 -95.639832 4294967295
243.37367 1575.5304 -95.538795 4294967295
245.16869 1575.7499 -95.639114 4294967295
247.20705 1575.5638 -95.628624 4294967295
249.27368 1575.4423 -95.814247 4294967295
253.5276 1575.7379 -95.582993 4294967295
255.37827 1575.8179 -95.574585 4294967295
257.45615 1575.8063 -95.600426 4294967295
259.06232 1575.9784 -95.599213 4294967295
125.74219 1580.6074 -95.242332 4294967295
153.7424 1578.8453 -95.800934 4294967295
157.11371 1578.3462 -95.341972 4294967295
159.51863 1578.2168 -95.648781 4294967295
161.05917 1578.061 -95.233856 4294967295
102.90428 1581.9923 -95.971375 4294967295
107.84416 1581.5753 -95.395905 4294967295
109.57278 1581.4543 -95.290749 4294967295
113.49258 1581.3341 -95.900826 4294967295
115.19974 1581.2782 -95.887054 4294967295
117.2639 1581.2036 -95.892448 4294967295
471.60904 1531.5544 -94.538696 4294967295
413.57684 1535.837 -94.104279 4294967295
447.00095 1533.1355 -94.996239 4294967295
345.60806 1538.9436 -94.867249 4294967295
347.4306 1538.8093 -94.915779 4294967295
353.44754 1538.6754 -94.595238 4294967295
355.29773 1538.4053 -94.62957 4294967295
371.63553 1538.1149 -94.192841 4294967295
381.43704 1537.6276 -94.027229 4294967295
383.29221 1537.5786 -94.074684 4294967295
389.60373 1537.3485 -94.209244 4294967295
391.57095 1537.2211 -94.157364 4294967295
395.38574 1536.9735 -94.311859 4294967295
399.30261 1536.9464 -94.188202 4294967295
401.38974 1536.7939 -94.283417 4294967295
403.38739 1536.5702 -94.163765 4294967295
405.55261 1536.4546 -94.214546 4294967295
407.59009 1536.3435 -94.177444 4294967295
409.44528 1536.1511 -94.310791 4294967295
411.54498 1536.0148 -94.237038 4294967295
305.43991 1541.4998 -94.681229 4294967295
309.22394 1541.1312 -94.470284 4294967295
311.2644 1541.5421 -94.164093 4294967295
313.4657 1541.1565 -94.410866 4294967295
319.32782 1541.222 -94.350868 4294967295
323.6384 1541.0367 -94.308037 4294967295
325.5802 1541.0977 -94.032936 4294967295
335.58423 1539.283 -94.931816 4294967295
337.37421 1539.1938 -94.80452 4294967295
339.5072 1539.2979 -94.755089 4294967295
341.27155 1539.1172 -94.84935 4294967295
343.2908 1539.2052 -94.727928 4294967295
349.43628 1539.0049 -94.708237 4294967295
267.27066 1544.9814 -94.493492 4294967295
271.67319 1543.7236 -94.902275 4294967295
273.54373 1543.5361 -94.84153 4294967295
283.45657 1543.1565 -94.749481 4294967295
285.35696 1543.5244 -94.493065 4294967295
287.58371 1543.2522 -94.627808 4294967295
289.21094 1543.3279 -94.546486 4294967295
291.64783 1543.1838 -94.553413 4294967295
293.17212 1543.0458 -94.567635 4294967295
295.33481 1542.7985 -94.527901 4294967295
297.63498 1542.9716 -94.134102 4294967295
207.49069 1547.4851 -94.561897 4294967295
209.33636 1546.5266 -94.70063 4294967295
211.61183 1547.1483 -94.592125 4294967295
213.47124 1547.0742 -94.547966 4294967295
215.26523 1546.4662 -94.764038 4294967295
217.57381 1547.449 -94.319519 4294967295
225.59415 1547.1776 -94.832558 4294967295
229.44458 1547.1034 -94.643707 4294967295
231.34317 1547.0798 -94.573952 4294967295
233.4861 1546.7489 -94.824562 4294967295
237.81091 1545.7755 -94.970947 4294967295
249.40778 1545.2184 -94.682808 4294967295
251.3829 1545.0662 -94.726105 4294967295
253.19337 1545.3273 -94.60376 4294967295
255.3698 1546.0083 -94.207085 4294967295
257.24835 1545.1876 -94.662209 4294967295
259.52643 1545.1193 -94.641815 4294967295
261.25815 1545.1899 -94.563774 4294967295
269.46201 1545.1096 -94.283325 4294967295
271.28894 1545.1401 -94.044472 4294967295
476.08011 1547.9142 -94.682755 4294967295
179.39082 1550.9872 -94.992928 4294967295
183.31538 1550.6514 -94.814468 4294967295
185.17499 1550.3583 -94.733345 4294967295
197.77917 1548.441 -94.518959 4294967295
201.46272 1548.9432 -94.226173 4294967295
204.17513 1548.2825 -94.439217 4294967295
153.41557 1553.496 -94.990623 4294967295
161.40149 1552.9067 -94.930481 4294967295
163.31718 1552.707 -94.852859 4294967295
175.47644 1551.465 -94.893295 4294967295
177.37109 1551.5464 -94.685303 4294967295
471.44852 1553.9855 -94.50708 4294967295
475.56644 1551.6246 -94.959946 4294967295
127.77585 1556.8756 -94.318581 4294967295
131.35106 1556.6178 -94.268135 4294967295
133.35834 1556.4728 -94.104614 4294967295
135.76675 1556.1292 -94.193817 4294967295
449.68027 1555.6586 -94.967171 4294967295
451.35248 1555.6628 -94.493896 4294967295
470.42081 1554.1321 -94.224342 4294967295
93.629044 1559.5317 -94.033035 4294967295
99.532028 1558.8022 -94.593132 4294967295
119.59526 1557.5486 -94.286659 4294967295
409.66452 1557.8533 -94.423424 4294967295
411.69415 1557.748 -94.467247 4294967295
416.78006 1557.4089 -94.129936 4294967295
357.74371 1562.7157 -94.016899 4294967295
359.15213 1562.9492 -94.744606 4294967295
379.50082 1560.7144 -94.142349 4294967295
392.68942 1560.0684 -94.900757 4294967295
319.24277 1565.767 -94.101997 4294967295
324.74954 1565.6625 -94.989616 4294967295
327.42575 1565.0594 -94.599518 4294967295
329.14658 1564.9135 -94.551132 4294967295
339.0683 1563.8927 -94.022133 4294967295
342.58426 1563.8088 -94.679695 4294967295
346.39587 1563.6337 -94.363838 4294967295
351.6535 1563.812 -94.976257 4294967295
357.57666 1563.2063 -94.955147 4294967295
291.71774 1568.6262 -94.190697 4294967295
293.30545 1568.9686 -94.69519 4294967295
295.44662 1568.5754 -94.882729 4294967295
307.23492 1567.2206 -94.034393 4294967295
313.16205 1566.7257 -94.205513 4294967295
315.54608 1566.5032 -94.405327 4294967295
318.83722 1566.3138 -94.953735 4294967295
267.80872 1571.1765 -94.486275 4294967295
269.22192 1570.6768 -94.231354 4294967295
271.06113 1570.8939 -94.583824 4294967295
273.5452 1570.55 -94.555779 4294967295
275.42786 1570.5356 -94.670944 4294967295
277.37009 1570.5806 -94.823059 4294967295
279.26028 1570.4896 -94.829483 4294967295
205.51395 1574.9645 -94.076035 4294967295
231.51697 1573.0897 -94.639381 4294967295
235.15726 1573.3871 -94.584106 4294967295
237.42685 1573.337 -94.37957 4294967295
239.17287 1574.1145 -94.958534 4294967295
240.85175 1573.0908 -94.367828 4294967295
241.02383 1574.0936 -94.976303 4294967295
245.26846 1572.7288 -94.482277 4294967295
247.47644 1572.7059 -94.622406 4294967295
249.52556 1572.5953 -94.626083 4294967295
251.59886 1572.7892 -94.747665 4294967295
253.85167 1572.6412 -94.575279 4294967295
255.45784 1572.7417 -94.655296 4294967295
257.32773 1572.3732 -94.544907 4294967295
261.10538 1572.3643 -94.944664 4294967295
265.34775 1572.1754 -94.96711 4294967295
155.7948 1577.8712 -94.274231 4294967295
168.23471 1577.3396 -94.656792 4294967295
169.17233 1576.9646 -94.001534 4294967295
171.41934 1577.0392 -94.299232 4294967295
173.7043 1576.8279 -94.322525 4294967295
179.44783 1576.4565 -94.328865 4294967295
191.53098 1575.594 -94.110245 4294967295
193.38531 1575.4153 -94.008743 4294967295
195.6006 1575.3651 -94.222687 4294967295
199.46225 1575.5068 -94.784172 4294967295
201.49654 1575.3461 -94.535263 4294967295
119.00868 1580.7339 -94.323212 4294967295
122.23212 1580.3508 -94.538864 4294967295
123.65815 1580.1677 -94.05555 4294967295
135.66519 1579.4884 -94.018234 4294967295
148.23523 1578.9191 -94.773697 4294967295
467.43716 1531.4709 -93.928993 4294967295
429.45343 1535.0637 -93.92971 4294967295
431.27356 1535.0107 -93.629433 4294967295
441.70029 1533.9193 -93.073242 4294967295
367.62106 1538.6085 -93.960304 4294967295
369.315 1538.5269 -93.94445 4294967295
373.27374 1538.2789 -93.941368 4294967295
375.513 1537.9744 -93.933411 4294967295
377.28482 1537.8835 -93.853867 4294967295
385.47186 1537.6704 -93.958328 4294967295
327.37497 1540.9896 -93.92775 4294967295
331.5314 1540.5248 -93.96595 4294967295
333.38354 1540.4299 -93.896912 4294967295
337.32132 1540.4973 -93.664017 4294967295
339.40149 1540.6743 -93.179085 4294967295
343.39169 1540.3105 -93.411316 4294967295
345.36078 1540.2498 -93.311066 4294967295
347.55115 1540.079 -93.41571 4294967295
351.47192 1539.843 -93.36673 4294967295
355.32898 1539.6259 -93.239075 4294967295
357.41013 1539.042 -93.717827 4294967295
365.19315 1539.1937 -93.382294 4294967295
275.48251 1544.8855 -93.778893 4294967295
277.47726 1544.729 -93.733101 4294967295
279.29028 1544.8804 -93.400749 4294967295
281.42346 1544.4458 -93.816246 4294967295
283.50241 1544.4427 -93.705902 4294967295
285.50116 1544.647 -93.295906 4294967295
287.46933 1544.5907 -93.188538 4294967295
289.55603 1544.4803 -93.221542 4294967295
293.26862 1544.1627 -93.307388 4294967295
295.19366 1544.0557 -93.103889 4294967295
299.68057 1542.9287 -93.906273 4294967295
303.48694 1542.8503 -93.7034 4294967295
315.59027 1542.0747 -93.369766 4294967295
237.35587 1547.5367 -93.823509 4294967295
243.32742 1547.3547 -93.737442 4294967295
247.37918 1546.8402 -93.651825 4294967295
251.69334 1546.5972 -93.653702 4294967295
253.68956 1546.7267 -93.410088 4294967295
257.51172 1546.4049 -93.866898 4294967295
259.53299 1546.4641 -93.411957 4294967295
261.57925 1546.2548 -93.573311 4294967295
263.29831 1546.3099 -93.317986 4294967295
265.75317 1546.1497 -93.354202 4294967295
271.04196 1545.8687 -93.154839 4294967295
273.30948 1545.1141 -93.841255 4294967295
474.02643 1547.8441 -93.360329 4294967295
197.3744 1550.2725 -93.254547 4294967295
203.54558 1549.978 -93.325378 4294967295
205.67592 1549.0338 -93.874947 4294967295
209.244 1549.153 -93.312607 4294967295
211.5518 1548.1852 -93.978127 4294967295
215.42203 1548.5507 -93.400398 4294967295
219.33321 1548.7255 -93.15963 4294967295
225.56131 1548.7079 -93.522491 4294967295
229.38045 1548.4222 -93.446953 4294967295
231.44302 1548.3971 -93.277214 4294967295
235.35179 1548.1079 -93.215775 4294967295
474.47617 1550.1348 -93.485535 4294967295
161.36314 1553.9673 -93.52993 4294967295
163.37825 1553.8799 -93.567596 4294967295
167.45154 1553.5255 -93.139832 4294967295
171.54765 1553.2147 -93.253044 4294967295
175.40509 1552.8008 -93.323738 4294967295
177.85904 1552.463 -93.566093 4294967295
181.47498 1552.3298 -93.319908 4294967295
183.63518 1551.8445 -93.542023 4294967295
185.46938 1551.7324 -93.381882 4294967295
187.19963 1551.0126 -93.825211 4294967295
473.69989 1551.9814 -93.891266 4294967295
137.35381 1556.1471 -93.755722 4294967295
139.50418 1555.8486 -93.882744 4294967295
141.26521 1555.6606 -93.847145 4294967295
143.23846 1555.4973 -93.837929 4294967295
145.1586 1555.3553 -93.580948 4294967295
147.50298 1555.0992 -93.581421 4294967295
149.61539 1554.9609 -93.365257 4294967295
151.24571 1554.9252 -93.436012 4294967295
155.52946 1554.6138 -93.310051 4294967295
157.16847 1554.412 -93.159134 4294967295
159.67853 1554.0676 -93.545448 4294967295
466.35327 1554.7413 -93.842369 4294967295
65.874542 1559.7577 -93.56144 4294967295
89.582222 1559.9625 -93.763702 4294967295
97.30912 1559.4075 -93.765854 4294967295
101.46021 1559.0869 -93.698387 4294967295
105.51365 1558.83 -93.820999 4294967295
107.80251 1558.6394 -93.855934 4294967295
111.72088 1558.3356 -93.98468 4294967295
123.07227 1557.3882 -93.925323 4294967295
125.47686 1557.1912 -93.951607 4294967295
395.28476 1559.4716 -93.972771 4294967295
414.54343 1557.635 -93.519981 4294967295
85.146751 1560.4103 -93.299522 4294967295
87.887505 1560.3247 -93.011269 4294967295
355.31665 1562.9368 -93.891258 4294967295
359.21378 1562.5792 -93.888809 4294967295
361.40375 1562.3108 -93.963005 4294967295
373.27509 1561.2264 -93.878654 4294967295
375.24826 1561.0645 -93.759918 4294967295
321.24292 1565.304 -93.026093 4294967295
323.50845 1565.2352 -93.565536 4294967295
325.73779 1565.1168 -93.592178 4294967295
335.13065 1564.2532 -93.782753 4294967295
347.58948 1563.4464 -93.967148 4294967295
348.85477 1563.2198 -93.443634 4294967295
351.55344 1563.1139 -93.925461 4294967295
283.04282 1568.9072 -93.38475 4294967295
295.3194 1567.7798 -93.744598 4294967295
241.03549 1571.9688 -93.09066 4294967295
243.68033 1571.8718 -93.292854 4294967295
247.60167 1571.5811 -93.309685 4294967295
249.81821 1571.4391 -93.258675 4294967295
251.1554 1571.3551 -93.109932 4294967295
253.61362 1571.4459 -93.404358 4294967295
255.17438 1571.453 -93.527817 4294967295
257.30585 1571.1906 -93.348442 4294967295
259.20523 1571.0864 -93.493462 4294967295
263.71078 1570.7386 -93.623062 4294967295
265.60583 1570.8138 -93.926888 4294967295
267.19354 1570.0985 -93.082565 4294967295
269.81833 1569.8253 -93.086876 4294967295
273.30859 1569.5918 -93.293831 4294967295
275.2475 1569.4518 -93.276566 4294967295
277.35089 1569.3009 -93.214981 4294967295
278.87396 1569.2134 -93.242233 4294967295
281.16284 1569.1846 -93.383827 4294967295
197.78839 1574.8881 -93.026604 4294967295
203.53815 1574.6387 -93.523811 4294967295
235.40668 1572.5002 -93.212372 4294967295
237.48735 1572.3885 -93.122169 4294967295
161.54054 1577.6088 -93.980225 4294967295
164.80319 1577.4104 -93.995651 4294967295
139.58675 1579.3008 -93.965462 4294967295
447.23596 1532.9658 -92.600784 4294967295
469.13647 1532.7228 -92.313538 4294967295
443.46155 1533.6833 -92.89431 4294967295
445.41824 1533.3394 -92.80629 4294967295
369.47073 1538.9335 -92.763985 4294967295
373.49725 1538.7397 -92.131783 4294967295
375.48477 1538.7255 -92.003899 4294967295
377.46552 1538.5431 -92.142082 4294967295
381.29166 1538.4166 -92.155212 4294967295
385.57324 1538.2708 -92.36161 4294967295
387.24063 1538.1598 -92.220245 4294967295
389.478 1537.9813 -92.23896 4294967295
391.38351 1537.6041 -92.675652 4294967295
393.32822 1537.4689 -92.689926 4294967295
397.25235 1537.3082 -92.097008 4294967295
407.45844 1536.8221 -92.335182 4294967295
409.43835 1536.7009 -92.071739 4294967295
411.15781 1536.5972 -92.111824 4294967295
415.46121 1536.2539 -92.088036 4294967295
339.56924 1541.2051 -92.036743 4294967295
347.51117 1540.6479 -92.01947 4294967295
349.69397 1540.5046 -92.126663 4294967295
361.35962 1539.6901 -92.303482 4294967295
291.69846 1544.879 -92.06591 4294967295
293.25089 1544.8578 -92.214561 4294967295
312.76184 1542.5404 -92.821289 4294967295
319.49298 1542.2573 -92.982819 4294967295
321.65897 1542.1847 -92.933563 4294967295
253.59402 1547.4467 -92.226875 4294967295
255.22336 1547.417 -92.092987 4294967295
261.59003 1546.9994 -92.132874 4294967295
263.48575 1546.899 -92.04174 4294967295
265.50546 1546.7024 -92.201073 4294967295
267.24139 1546.5974 -92.249588 4294967295
269.54349 1546.4666 -92.155739 4294967295
271.39978 1546.3175 -92.127884 4294967295
273.30103 1546.1437 -92.04805 4294967295
275.65717 1545.91 -92.007668 4294967295
279.24765 1545.6272 -92.089294 4294967295
281.37558 1545.4988 -92.092262 4294967295
471.95184 1547.7773 -92.238632 4294967295
201.48138 1550.5955 -92.744453 4294967295
205.4342 1550.4965 -92.543068 4294967295
210.98766 1549.3156 -92.778954 4294967295
211.57236 1549.7511 -92.1642 4294967295
233.5712 1548.4376 -92.960136 4294967295
472.24646 1550.1316 -92.464333 4294967295
186.5323 1552.1969 -92.284256 4294967295
469.80319 1553.0922 -92.172951 4294967295
470.90738 1553.0936 -92.78978 4294967295
471.5145 1551.8406 -92.399109 4294967295
133.55522 1556.9161 -92.134033 4294967295
135.43532 1556.7365 -92.264168 4294967295
137.84117 1556.4788 -92.362122 4294967295
139.47769 1556.5753 -92.061745 4294967295
141.41956 1556.2649 -92.020699 4294967295
149.7186 1555.472 -92.054695 4294967295
153.51881 1555.1615 -92.050621 4294967295
155.46225 1554.9934 -92.041077 4294967295
165.8876 1554.2484 -92.06012 4294967295
449.14969 1555.9017 -92.619591 4294967295
451.49265 1555.822 -92.804115 4294967295
467.30267 1554.2576 -92.648636 4294967295
117.33289 1558.3263 -92.197029 4294967295
121.51334 1558.1165 -92.348213 4294967295
123.3908 1557.9399 -92.147568 4294967295
129.51387 1557.1511 -92.787277 4294967295
131.44672 1557.0823 -92.333382 4294967295
397.63345 1558.9979 -92.03582 4294967295
409.51767 1558.0162 -92.227928 4294967295
67.272041 1560.6055 -92.91301 4294967295
93.926407 1560.2417 -92.357025 4294967295
354.22647 1562.7667 -92.360703 4294967295
359.4595 1562.2323 -92.030098 4294967295
317.23248 1565.5266 -92.958794 4294967295
319.32663 1565.2722 -92.971146 4294967295
322.06894 1565.2379 -92.200737 4294967295
337.54846 1563.8292 -92.720451 4294967295
339.11856 1563.6714 -92.829842 4294967295
342.80499 1563.3354 -92.740898 4294967295
291.30853 1567.6047 -92.156662 4294967295
295.47409 1567.3289 -92.353485 4294967295
297.28964 1567.2056 -92.531776 4294967295
300.65308 1566.9747 -92.50959 4294967295
305.46771 1566.5189 -92.217613 4294967295
243.53976 1571.3801 -92.108223 4294967295
245.4344 1571.2361 -92.181595 4294967295
247.53203 1571.1271 -92.184357 4294967295
249.37981 1571.0182 -92.134407 4294967295
251.38191 1570.9308 -92.066048 4294967295
270.62 1569.6301 -92.674057 4294967295
273.77042 1569.1074 -92.043503 4294967295
195.07211 1574.8773 -92.854179 4294967295
199.10915 1574.6652 -92.198662 4294967295
201.52567 1574.3591 -92.475845 4294967295
203.53604 1574.1749 -92.053017 4294967295
221.39098 1572.9923 -92.095901 4294967295
230.05042 1572.585 -92.592308 4294967295
231.41098 1572.2054 -92.154404 4294967295
233.18639 1572.0161 -92.025505 4294967295
157.09952 1577.5386 -92.008583 4294967295
159.36281 1577.3644 -92.626762 4294967295
171.69749 1576.63 -92.068985 4294967295
173.40379 1576.4697 -92.057739 4294967295
175.3349 1576.4084 -92.177711 4294967295
177.32454 1576.1068 -92.618828 4294967295
189.23602 1575.2979 -92.953651 4294967295
193.81052 1575.1523 -92.946663 4294967295
467.43063 1532.509 -91.796257 4294967295
423.50717 1535.4813 -91.260544 4294967295
427.60614 1535.0885 -91.231636 4294967295
429.23495 1534.9476 -91.001282 4294967295
431.36569 1534.7908 -91.110039 4294967295
399.38715 1537.2672 -91.904739 4294967295
403.34073 1536.9967 -91.923286 4294967295
405.49451 1536.8982 -91.95266 4294967295
337.39679 1541.3723 -91.943527 4294967295
343.30582 1540.953 -91.937897 4294967295
353.4328 1540.2626 -91.971359 4294967295
355.46408 1540.2915 -91.787094 4294967295
295.47882 1544.7108 -91.883636 4294967295
299.75003 1544.2404 -91.921165 4294967295
307.78122 1543.4445 -91.924515 4294967295
311.28253 1543.3163 -91.717606 4294967295
315.57727 1542.9862 -91.650551 4294967295
319.22815 1542.7429 -91.908035 4294967295
325.5849 1542.3988 -91.996002 4294967295
329.46695 1542.0192 -91.9757 4294967295
249.67247 1547.8134 -91.813255 4294967295
251.45833 1547.7036 -91.895905 4294967295
257.22375 1547.3748 -91.918648 4294967295
277.22937 1545.9547 -91.884743 4294967295
283.22464 1545.4417 -91.929176 4294967295
289.24869 1545.1272 -91.916641 4294967295
207.32097 1550.9492 -91.240494 4294967295
209.34599 1550.6625 -91.293114 4294967295
213.52986 1549.844 -91.80162 4294967295
217.53139 1549.4581 -91.913841 4294967295
219.19261 1549.5302 -91.825523 4294967295
227.18933 1549.4517 -91.887169 4294967295
231.4451 1549.1302 -91.929039 4294967295
239.27104 1548.7318 -91.94252 4294967295
469.78278 1550.8683 -91.265488 4294967295
173.22726 1553.7275 -91.929611 4294967295
183.55496 1552.7659 -91.892807 4294967295
189.32446 1552.2256 -91.699135 4294967295
191.46062 1552.1412 -91.287163 4294967295
199.36699 1551.5643 -91.451935 4294967295
467.29535 1553.2045 -91.078773 4294967295
143.25826 1556.1024 -91.91716 4294967295
147.2962 1555.9093 -91.682693 4294967295
151.41451 1555.4769 -91.974541 4294967295
156.8741 1554.9883 -91.495674 4294967295
159.60638 1554.7151 -91.962173 4294967295
163.2814 1554.61 -91.726288 4294967295
169.35304 1554.0428 -91.770096 4294967295
453.5549 1555.9652 -91.790268 4294967295
99.327736 1559.8618 -91.71553 4294967295
103.57759 1559.5074 -91.710159 4294967295
107.39639 1559.1501 -91.752838 4294967295
109.43793 1558.9883 -91.782394 4294967295
113.19958 1558.7316 -91.862434 4294967295
127.18268 1557.5692 -91.838661 4294967295
393.29645 1559.3384 -91.896927 4294967295
413.2049 1557.968 -91.480942 4294967295
415.04279 1557.8882 -91.237488 4294967295
417.12289 1557.7001 -91.492691 4294967295
81.509834 1561.2565 -91.127869 4294967295
83.424408 1561.0996 -91.464485 4294967295
91.164337 1560.4856 -91.239388 4294967295
95.630898 1560.2007 -91.818993 4294967295
97.520088 1560.0332 -91.91993 4294967295
357.28824 1562.4271 -91.894951 4294967295
361.41351 1561.9376 -91.809433 4294967295
362.88208 1561.8013 -91.878792 4294967295
377.59726 1560.7828 -91.856682 4294967295
275.51328 1568.954 -91.912842 4294967295
277.36014 1568.8405 -91.948265 4294967295
279.17517 1568.6847 -91.838074 4294967295
283.42441 1568.2349 -91.793388 4294967295
309.14642 1566.2604 -91.771492 4294967295
311.11255 1566.0409 -91.70549 4294967295
239.39842 1571.7367 -91.833817 4294967295
253.90991 1570.7644 -91.906364 4294967295
254.51932 1570.5774 -91.193375 4294967295
257.45093 1570.5066 -91.887718 4294967295
261.29495 1570.1509 -91.941948 4294967295
263.29398 1569.9121 -91.864799 4294967295
265.25824 1569.5601 -91.834564 4294967295
267.6026 1569.4012 -91.8806 4294967295
271.15347 1569.2606 -91.883675 4294967295
206.97092 1574.0574 -91.844345 4294967295
226.84087 1572.6533 -91.920311 4294967295
169.87216 1576.7555 -91.907272 4294967295
463.5639 1532.8325 -90.38118 4294967295
441.26105 1533.7286 -90.71991 4294967295
445.81927 1533.0282 -90.083473 4294967295
469.47604 1535.5386 -90.85965 4294967295
337.32361 1541.9034 -90.032623 4294967295
261.83047 1547.5623 -90.101395 4294967295
267.17618 1547.0795 -90.013535 4294967295
277.53589 1546.3805 -90.174522 4294967295
289.47052 1545.6298 -90.107895 4294967295
231.65437 1549.7269 -90.075523 4294967295
251.41843 1548.335 -90.021919 4294967295
255.47838 1548.0452 -90.191666 4294967295
467.88974 1551.0668 -90.051277 4294967295
445.62524 1556.3275 -90.444473 4294967295
447.53748 1556.3657 -90.077156 4294967295
63.688255 1561.7466 -90.743286 4294967295
67.508621 1562.0417 -90.568787 4294967295
323.57935 1565.1495 -90.044754 4294967295
337.57813 1564.0861 -90.120163 4294967295
281.98203 1568.1331 -90.08876 4294967295
235.56966 1571.6652 -90.319496 4294967295
239.15108 1571.364 -90.247299 4294967295
241.45995 1571.1359 -90.131546 4294967295
245.72435 1570.8625 -90.109528 4294967295
251.65323 1570.4883 -90.112434 4294967295
257.77454 1570.0118 -90.033852 4294967295
