# .PCD v0.7 - Point Cloud Data file format
VERSION 0.7
FIELDS x y z rgba
SIZE 4 4 4 4
TYPE F F F U
COUNT 1 1 1 1
WIDTH 1119
HEIGHT 1
VIEWPOINT 0 0 0 1 0 0 0
POINTS 1119
DATA ascii
-70.703308 15.955008 -557.70496 4294967295
247.36098 -51.061356 -556.85944 4294967295
249.42403 -51.196976 -556.92181 4294967295
251.3595 -51.405453 -556.16907 4294967295
255.49417 -51.765388 -556.03455 4294967295
261.60019 -52.061359 -556.06964 4294967295
281.3671 -51.827892 -556.92963 4294967295
283.46301 -51.871124 -556.67847 4294967295
287.405 -51.573231 -556.60559 4294967295
289.22537 -51.728374 -556.45184 4294967295
291.21503 -51.717194 -556.26678 4294967295
205.23882 -48.088463 -556.81158 4294967295
207.55458 -48.204643 -556.2337 4294967295
209.36601 -48.307804 -556.22137 4294967295
211.26569 -48.503307 -556.17096 4294967295
213.59395 -48.748234 -556.13733 4294967295
215.32782 -48.891296 -556.04645 4294967295
217.32866 -49.012997 -556.07538 4294967295
219.42438 -49.180199 -556.21667 4294967295
221.38072 -49.167149 -556.05426 4294967295
223.70123 -49.357365 -556.04437 4294967295
229.5036 -49.76828 -556.03845 4294967295
231.69829 -49.943584 -556.06952 4294967295
233.54749 -50.0947 -556.07037 4294967295
235.45671 -50.259651 -556.08984 4294967295
239.24348 -50.510792 -556.10846 4294967295
241.33472 -50.643845 -556.26654 4294967295
243.37331 -50.915203 -556.68628 4294967295
245.27754 -50.886391 -556.56787 4294967295
289.54926 -50.382557 -556.9248 4294967295
291.24918 -50.405586 -556.7619 4294967295
293.21591 -48.279114 -556.90375 4294967295
295.49921 -49.202087 -556.48462 4294967295
297.29288 -49.452126 -556.24243 4294967295
169.57324 -45.241787 -556.0058 4294967295
201.41933 -47.83017 -556.06232 4294967295
203.40752 -47.94746 -556.01349 4294967295
155.38966 -44.258102 -556.08911 4294967295
157.56471 -44.675156 -556.09534 4294967295
-8.5887222 -33.120983 -556.35016 4294967295
-6.6120853 -33.28651 -556.16956 4294967295
-4.7109785 -33.408092 -556.1568 4294967295
-2.77001 -33.54406 -556.00201 4294967295
-0.51247931 -33.68692 -556.0304 4294967295
3.4003034 -34.105953 -556.25592 4294967295
5.4899397 -34.262573 -556.14423 4294967295
7.4093962 -34.366314 -556.01581 4294967295
11.742867 -34.715202 -556.3443 4294967295
15.458468 -34.762508 -556.02985 4294967295
17.311277 -34.902813 -556.12421 4294967295
19.313265 -34.989807 -556.08954 4294967295
21.426796 -35.088531 -556.06812 4294967295
-50.419342 -30.358786 -556.05066 4294967295
-46.923328 -30.433207 -556.10638 4294967295
-44.642311 -30.792345 -556.23804 4294967295
-42.439037 -30.772812 -556.03143 4294967295
-41.438652 -30.676008 -556.79376 4294967295
-38.869469 -31.042875 -556.29651 4294967295
-32.563572 -31.423584 -556.03778 4294967295
-15.600634 -32.675442 -556.92578 4294967295
-12.870608 -32.836411 -556.16571 4294967295
-10.55182 -32.993824 -556.13763 4294967295
-76.371429 -27.09103 -556.01105 4294967295
-72.804962 -27.17914 -556.66559 4294967295
-70.543961 -27.498817 -556.64465 4294967295
-58.755718 -29.341005 -556.16431 4294967295
-54.861347 -29.715879 -556.15613 4294967295
-52.048653 -29.627815 -556.97919 4294967295
-80.767136 -24.13261 -556.42755 4294967295
-78.75148 -25.079554 -556.49011 4294967295
-76.31073 -25.978962 -556.7514 4294967295
-82.749687 -22.490179 -556.01929 4294967295
-78.88707 -22.099091 -556.94244 4294967295
309.52756 -15.094563 -556.82904 4294967295
311.6087 -15.22397 -556.58313 4294967295
315.74545 -15.81938 -556.28564 4294967295
299.51587 -12.725006 -556.75116 4294967295
301.19156 -12.704026 -556.60669 4294967295
303.41302 -12.739779 -556.49585 4294967295
305.42526 -12.775233 -556.49756 4294967295
307.55173 -13.504822 -556.5365 4294967295
309.35858 -12.715665 -556.14014 4294967295
313.30151 -14.338795 -556.07831 4294967295
241.09586 -6.1012797 -556.07263 4294967295
247.49689 -6.707736 -556.0274 4294967295
251.48662 -6.9686766 -556.10309 4294967295
255.59352 -7.2820334 -556.06866 4294967295
259.74588 -7.5323277 -556.05865 4294967295
261.38962 -7.743197 -556.03223 4294967295
228.91194 -5.4135408 -556.17267 4294967295
105.4851 3.2074032 -556.99408 4294967295
-88.686081 11.729465 -556.01428 4294967295
-86.560425 12.023689 -556.80347 4294967295
-34.617661 13.878593 -556.02124 4294967295
-86.414452 15.246493 -556.08502 4294967295
-82.712914 16.172066 -556.8064 4294967295
-78.367722 16.884447 -556.13983 4294967295
-72.04023 16.444166 -556.30029 4294967295
-71.2939 16.340836 -556.51996 4294967295
-66.325516 16.336788 -556.95374 4294967295
-62.730873 16.109383 -556.56989 4294967295
-60.848442 15.915696 -556.43726 4294967295
-56.313049 15.35207 -556.2019 4294967295
-52.766129 15.203857 -556.0658 4294967295
-51.251228 15.118098 -556.06042 4294967295
253.53229 -51.533234 -555.96216 4294967295
267.18921 -52.427975 -555.88593 4294967295
269.50476 -52.543533 -555.95709 4294967295
271.58264 -52.860756 -555.02869 4294967295
275.57742 -52.920479 -555.79596 4294967295
277.55869 -52.973118 -555.66821 4294967295
279.42688 -53.045689 -555.3053 4294967295
281.36597 -53.062943 -555.2782 4294967295
283.70062 -53.291504 -555.11658 4294967295
285.53763 -52.835819 -555.66711 4294967295
287.40479 -52.873817 -555.63922 4294967295
289.40378 -52.810719 -555.6626 4294967295
291.52255 -53.10392 -555.31671 4294967295
293.57681 -52.019703 -555.95483 4294967295
295.20386 -52.216515 -555.73602 4294967295
297.26617 -52.258606 -555.55487 4294967295
299.62613 -52.161064 -555.41742 4294967295
225.36263 -49.471443 -555.95007 4294967295
299.5593 -50.306942 -555.90515 4294967295
301.50137 -50.402843 -555.68616 4294967295
305.43579 -50.42786 -555.16931 4294967295
165.56163 -45.033634 -555.91077 4294967295
171.34341 -45.382072 -555.93365 4294967295
173.56398 -45.710857 -555.90009 4294967295
177.17375 -45.844398 -555.79602 4294967295
179.44029 -46.087906 -555.9035 4294967295
181.52823 -46.239574 -555.90149 4294967295
183.27365 -46.35685 -555.90356 4294967295
185.2206 -46.466915 -555.84698 4294967295
187.47209 -46.608284 -555.92767 4294967295
189.39357 -46.762951 -555.89758 4294967295
191.43542 -46.928089 -555.70355 4294967295
195.284 -47.158676 -555.88403 4294967295
197.46481 -47.497139 -556 4294967295
199.62146 -47.541626 -555.91943 4294967295
125.31697 -42.08567 -555.79211 4294967295
129.50487 -42.39043 -555.59283 4294967295
131.66206 -42.586365 -555.75006 4294967295
133.43991 -42.733349 -555.8559 4294967295
135.22479 -42.831959 -555.66162 4294967295
139.16777 -43.163109 -555.69611 4294967295
145.2877 -43.606388 -555.77246 4294967295
147.25072 -43.752605 -555.97375 4294967295
151.09959 -44.056625 -555.76855 4294967295
159.60323 -44.601479 -555.84601 4294967295
161.40733 -44.717194 -555.91461 4294967295
163.3709 -44.873379 -555.97552 4294967295
83.191978 -39.017632 -555.81451 4294967295
85.693291 -39.127102 -555.39362 4294967295
87.214348 -39.273129 -555.70947 4294967295
89.088051 -39.382793 -555.57007 4294967295
91.476563 -39.604668 -555.68579 4294967295
93.704353 -39.755974 -555.49896 4294967295
95.454239 -39.927399 -555.74603 4294967295
97.460114 -40.109982 -555.79431 4294967295
99.498337 -40.295242 -555.87152 4294967295
101.54426 -40.428741 -555.69647 4294967295
103.40229 -40.587048 -555.79242 4294967295
105.23219 -40.72625 -555.86072 4294967295
107.44048 -40.846283 -555.58069 4294967295
111.38088 -41.163536 -555.77283 4294967295
113.1797 -41.216084 -555.91254 4294967295
115.46853 -41.407276 -555.72748 4294967295
117.53143 -41.536564 -555.7569 4294967295
119.5279 -41.659302 -555.73169 4294967295
121.22247 -41.770832 -555.67389 4294967295
123.5648 -41.934036 -555.63635 4294967295
39.324566 -36.349133 -555.89496 4294967295
41.483604 -36.501324 -555.85895 4294967295
43.47377 -36.60923 -555.84814 4294967295
45.37315 -36.717495 -555.77759 4294967295
47.388046 -36.797668 -555.87659 4294967295
49.42654 -37.044968 -555.82117 4294967295
51.47298 -37.167133 -555.86951 4294967295
53.246445 -37.231995 -555.62335 4294967295
55.384983 -37.371723 -555.73206 4294967295
57.645782 -37.457603 -555.58203 4294967295
59.32917 -37.537937 -555.55573 4294967295
61.30225 -37.675766 -555.74756 4294967295
63.587395 -37.794926 -555.57721 4294967295
65.226517 -37.933056 -555.85211 4294967295
67.203316 -38.042889 -555.66705 4294967295
69.528244 -38.204784 -555.73224 4294967295
71.328423 -38.292431 -555.61218 4294967295
73.5205 -38.355915 -555.29144 4294967295
77.377968 -38.620846 -555.5564 4294967295
79.560127 -38.767517 -555.70184 4294967295
81.364983 -38.8591 -555.49207 4294967295
23.415951 -35.198799 -555.98688 4294967295
25.488281 -35.400692 -555.93549 4294967295
27.633396 -35.54929 -555.99304 4294967295
31.203949 -35.804066 -555.98877 4294967295
33.539661 -35.956314 -555.90509 4294967295
-36.219395 -31.19401 -555.96259 4294967295
-28.499495 -31.611292 -555.85773 4294967295
-26.749037 -31.860788 -555.9339 4294967295
-22.772228 -32.156021 -555.72192 4294967295
-78.662872 -27.13085 -555.35034 4294967295
-72.799026 -28.2111 -555.29901 4294967295
-70.778252 -28.373873 -555.30798 4294967295
-68.013123 -28.573593 -555.27472 4294967295
-67.033432 -28.547312 -555.54431 4294967295
-65.062195 -28.755413 -555.56 4294967295
-62.544697 -28.948832 -555.92621 4294967295
-60.227898 -29.438084 -555.20862 4294967295
-82.603333 -25.432308 -555.20746 4294967295
-80.469513 -26.312229 -555.36011 4294967295
-85.085999 -22.38405 -555.26355 4294967295
-84.643806 -19.815126 -555.0506 4294967295
-82.94976 -18.667322 -555.37701 4294967295
321.53888 -16.970181 -555.23157 4294967295
309.50098 -12.030746 -555.04663 4294967295
311.33713 -12.858547 -555.89136 4294967295
313.51541 -13.061872 -555.31616 4294967295
318.29504 -14.786005 -555.28186 4294967295
319.64902 -14.759019 -555.0249 4294967295
277.37781 -9.1722927 -555.96863 4294967295
279.90533 -9.3417377 -555.91278 4294967295
283.26376 -9.6653605 -555.93372 4294967295
287.68903 -10.178383 -555.69305 4294967295
297.23233 -11.045032 -555.13177 4294967295
301.40445 -11.439388 -555.1084 4294967295
302.87131 -11.563501 -555.1748 4294967295
305.63153 -11.577182 -555.13989 4294967295
307.39844 -11.895826 -555.17584 4294967295
243.43092 -6.2773609 -555.85956 4294967295
249.43954 -6.8259339 -555.9079 4294967295
253.78091 -7.1309595 -555.93396 4294967295
263.58798 -7.9615841 -555.73859 4294967295
267.31586 -8.2657032 -555.7359 4294967295
269.62717 -8.5621061 -555.9397 4294967295
273.63477 -8.820962 -555.95532 4294967295
193.84196 -3.0855181 -555.34796 4294967295
199.61417 -3.4445493 -555.40613 4294967295
205.55658 -3.9289954 -555.1239 4294967295
209.33496 -4.1627021 -555.42145 4294967295
217.57578 -4.6269522 -555.54706 4294967295
219.42345 -4.7427969 -555.57776 4294967295
221.43959 -4.8689122 -555.50037 4294967295
223.77472 -5.0226846 -555.34839 4294967295
225.98288 -5.1582956 -555.46564 4294967295
235.29045 -5.628149 -555.87195 4294967295
239.45496 -5.9745865 -555.88177 4294967295
163.31441 -1.0638198 -555.19659 4294967295
165.82654 -1.2876115 -555.01038 4294967295
171.5894 -1.5620047 -555.66956 4294967295
183.59595 -2.4576948 -555.0481 4294967295
185.2977 -2.5524783 -555.13837 4294967295
187.41203 -2.6920197 -555.19373 4294967295
189.26952 -2.8208187 -555.16089 4294967295
191.35858 -2.9326322 -555.47119 4294967295
107.56133 2.9552948 -555.00446 4294967295
113.26532 2.5316217 -555.00732 4294967295
117.29065 2.283566 -555.08441 4294967295
131.49947 1.2192823 -555.02551 4294967295
-90.850281 11.785284 -555.18091 4294967295
-5.356102 11.646709 -555.79462 4294967295
-2.4302931 11.409865 -555.75494 4294967295
1.2051066 11.124651 -555.71869 4294967295
17.431492 9.9814262 -555.21234 4294967295
19.448345 9.8127575 -555.07916 4294967295
-47.927357 14.806746 -555.4859 4294967295
-38.048775 14.077789 -555.58545 4294967295
-32.734982 13.744283 -555.98401 4294967295
-30.101723 13.480383 -555.51038 4294967295
-28.939144 13.414122 -555.85382 4294967295
-26.45244 13.185707 -555.46436 4294967295
-24.795408 13.12097 -555.87152 4294967295
-18.638763 12.71087 -555.76349 4294967295
-16.259012 12.468573 -555.41656 4294967295
-12.746612 12.260467 -555.66266 4294967295
-88.637558 15.135321 -555.25092 4294967295
-86.966103 16.383286 -555.16437 4294967295
-84.60865 16.600948 -555.78387 4294967295
-83.226181 17.021151 -555.59717 4294967295
-75.900543 16.78006 -555.92023 4294967295
-58.61451 15.683394 -555.98523 4294967295
-54.228695 15.272217 -555.75989 4294967295
259.61212 -52.28513 -554.02917 4294967295
263.4014 -52.382015 -554.76929 4294967295
265.5618 -52.771976 -554.82178 4294967295
267.52313 -52.608402 -554.60803 4294967295
269.47476 -52.701992 -554.78717 4294967295
273.54095 -53.004417 -554.82996 4294967295
275.67413 -53.165165 -554.58765 4294967295
277.39069 -53.306469 -554.32361 4294967295
295.25375 -53.293526 -554.96881 4294967295
297.48581 -53.333912 -554.8479 4294967295
299.42459 -53.318573 -554.76624 4294967295
301.3266 -53.565834 -554.52051 4294967295
303.3548 -52.408333 -554.98975 4294967295
305.21146 -52.430355 -554.77606 4294967295
307.42877 -52.868134 -554.26355 4294967295
307.31363 -50.268791 -554.92242 4294967295
-50.845257 -30.564417 -554.1723 4294967295
-77.308716 -28.076935 -554.30615 4294967295
-74.573868 -28.710316 -554.19141 4294967295
-72.801598 -28.579687 -554.30945 4294967295
-68.876884 -28.785511 -554.0918 4294967295
-66.093201 -29.05208 -554.05884 4294967295
-64.448509 -29.183943 -554.06305 4294967295
-58.714066 -29.887486 -554.15521 4294967295
-54.975971 -29.948334 -554.98273 4294967295
-86.807869 -24.23905 -554.25897 4294967295
-84.610901 -25.356586 -554.56274 4294967295
-82.637802 -26.848215 -554.16113 4294967295
-86.803421 -22.146919 -554.69513 4294967295
-86.77964 -19.964975 -554.4472 4294967295
327.69882 -18.083075 -554.24457 4294967295
-87.174911 -17.261143 -554.03424 4294967295
-84.487 -17.065928 -554.80011 4294967295
323.59778 -16.94899 -554.87817 4294967295
325.54083 -17.960157 -554.6192 4294967295
327.50974 -16.041714 -554.10223 4294967295
329.50046 -17.7633 -554.14014 4294967295
311.62555 -12.233378 -554.83539 4294967295
319.40546 -13.223207 -554.01215 4294967295
323.51035 -14.707309 -554.3584 4294967295
325.51358 -14.759975 -554.01782 4294967295
285.27371 -9.261385 -554.164 4294967295
287.65469 -9.5093765 -554.04407 4294967295
299.40155 -10.793562 -554.00769 4294967295
303.0141 -11.061446 -554.02002 4294967295
309.47803 -11.54475 -554.03461 4294967295
207.32246 -4.0702066 -554.80328 4294967295
161.49568 -0.93434417 -554.97809 4294967295
109.38834 2.8114781 -554.90411 4294967295
111.2397 2.6701949 -554.95935 4294967295
115.32461 2.3776126 -554.82684 4294967295
123.81599 1.7676241 -554.88666 4294967295
97.294136 3.7639432 -554.91455 4294967295
105.23296 3.1167889 -554.87317 4294967295
-90.934662 8.7912502 -554.57544 4294967295
67.714027 6.2007465 -554.901 4294967295
-93.259232 11.860827 -554.17828 4294967295
-92.08606 13.224399 -554.71429 4294967295
-90.662468 13.986542 -554.95129 4294967295
-90.090965 15.132075 -554.79309 4294967295
-84.975952 17.608738 -554.39569 4294967295
295.19046 -54.263065 -553.44189 4294967295
297.3685 -54.386021 -553.16296 4294967295
299.44308 -54.408253 -553.28986 4294967295
303.47604 -54.529221 -553.58807 4294967295
305.30093 -54.564007 -553.49292 4294967295
307.33691 -54.464218 -553.24207 4294967295
309.65878 -54.360657 -553.0329 4294967295
247.28838 -51.061573 -553.69122 4294967295
249.4998 -51.27512 -553.66309 4294967295
251.46446 -51.450935 -553.64227 4294967295
253.37209 -51.620117 -553.6283 4294967295
255.29794 -51.848434 -553.94281 4294967295
257.43735 -52.059429 -553.79724 4294967295
261.62024 -52.276646 -553.89685 4294967295
279.62686 -53.424458 -553.93237 4294967295
281.69366 -53.50695 -553.95453 4294967295
285.31061 -53.698544 -553.96844 4294967295
287.36172 -53.844601 -553.82056 4294967295
289.86014 -53.991989 -553.71582 4294967295
311.34933 -52.217606 -553.97485 4294967295
313.54657 -53.175743 -553.40906 4294967295
315.26343 -52.462273 -553.54144 4294967295
317.39188 -52.51804 -553.2442 4294967295
319.53867 -52.47176 -553.01208 4294967295
219.17725 -48.812428 -553.67236 4294967295
221.40962 -48.982372 -553.59698 4294967295
223.57944 -49.095806 -553.2948 4294967295
225.49319 -49.26413 -553.44495 4294967295
231.37846 -49.790012 -553.59943 4294967295
233.73543 -49.95052 -553.34601 4294967295
239.31468 -50.433609 -553.62592 4294967295
241.38887 -50.556461 -553.53082 4294967295
243.28229 -50.668034 -553.47607 4294967295
245.27086 -50.851158 -553.60931 4294967295
315.43097 -50.105247 -553.93591 4294967295
317.51834 -50.105782 -553.61218 4294967295
319.20993 -50.15279 -553.36188 4294967295
175.22208 -45.371895 -553.09308 4294967295
177.23181 -45.508842 -553.01422 4294967295
179.56979 -45.723133 -553.17639 4294967295
183.41142 -46.065327 -553.35437 4294967295
185.37639 -46.238029 -553.54761 4294967295
205.07573 -47.550194 -553.13751 4294967295
207.46199 -47.760788 -553.23511 4294967295
157.31944 -44.09697 -553.48389 4294967295
159.54482 -44.288857 -553.43518 4294967295
161.29732 -44.471905 -553.57715 4294967295
163.42374 -44.593269 -553.37134 4294967295
165.30638 -44.730392 -553.42535 4294967295
167.15837 -44.813095 -553.19165 4294967295
89.44429 -39.084549 -553.18988 4294967295
97.409561 -39.686695 -553.09741 4294967295
99.285599 -39.837284 -553.10516 4294967295
101.24556 -39.984062 -553.07825 4294967295
111.26373 -40.669548 -553.10834 4294967295
117.01765 -41.049023 -553.13318 4294967295
119.5044 -41.210663 -553.02686 4294967295
121.22466 -41.343864 -553.10675 4294967295
125.3058 -41.637386 -553.10645 4294967295
127.18244 -41.758263 -553.11719 4294967295
129.22691 -41.888577 -553.00391 4294967295
41.138275 -36.197582 -553.409 4294967295
43.281776 -36.31765 -553.32349 4294967295
45.357101 -36.3801 -553.03998 4294967295
47.181725 -36.487865 -553.17737 4294967295
49.361916 -36.595028 -553.11469 4294967295
53.352543 -36.801609 -553.01172 4294967295
61.109016 -37.25016 -553.08331 4294967295
65.719109 -37.552334 -553.02496 4294967295
69.354156 -37.830616 -553.2475 4294967295
71.348831 -37.93325 -553.03253 4294967295
83.298599 -38.625469 -553.05017 4294967295
-8.7758722 -33.009701 -553.5459 4294967295
-4.5506706 -33.249619 -553.43774 4294967295
1.448639 -33.573574 -553.01416 4294967295
3.0583296 -33.733833 -553.51941 4294967295
7.420856 -34.025875 -553.59344 4294967295
13.273156 -34.482052 -553.73047 4294967295
15.32126 -34.593727 -553.50562 4294967295
17.376087 -34.734123 -553.58917 4294967295
19.074528 -34.837654 -553.68066 4294967295
21.173756 -34.925541 -553.53705 4294967295
23.284538 -35.047516 -553.54877 4294967295
-42.965565 -30.959627 -553.90442 4294967295
-40.326344 -31.096409 -553.9079 4294967295
-39.073055 -31.195261 -553.95416 4294967295
-36.906815 -31.388504 -553.97015 4294967295
-34.86179 -31.522465 -553.75104 4294967295
-32.813343 -31.672958 -553.89325 4294967295
-30.632706 -31.811581 -553.88544 4294967295
-26.690142 -32.024185 -553.73798 4294967295
-24.83798 -31.980148 -553.84021 4294967295
-22.272593 -32.315128 -553.71106 4294967295
-20.447662 -32.425674 -553.74561 4294967295
-17.12043 -32.639973 -553.95667 4294967295
-12.360248 -32.787518 -553.51208 4294967295
-80.795326 -27.683603 -553.7262 4294967295
-69.804321 -28.89056 -553.15619 4294967295
-61.198978 -29.495691 -553.89697 4294967295
-88.480072 -25.293303 -553.35376 4294967295
-86.405075 -26.022058 -553.40509 4294967295
-84.771988 -26.731503 -553.50079 4294967295
-90.549232 -22.292 -553.4328 4294967295
-88.698441 -19.39472 -553.76379 4294967295
331.9978 -17.3435 -553.80438 4294967295
315.21649 -12.28344 -553.67285 4294967295
317.43951 -12.446754 -553.20068 4294967295
323.3197 -13.53508 -553.60773 4294967295
325.2326 -13.751834 -553.44208 4294967295
327.35458 -14.226192 -553.36359 4294967295
329.57684 -14.647272 -553.18231 4294967295
281.43704 -9.0474663 -553.85724 4294967295
311.88684 -11.801511 -553.83215 4294967295
237.59827 -6.0950618 -553.07666 4294967295
239.1801 -6.1997666 -553.2514 4294967295
241.0827 -6.3783183 -553.11743 4294967295
243.53342 -6.5674944 -553.00726 4294967295
247.67503 -6.8299708 -553.02985 4294967295
249.27757 -6.9214616 -553.13507 4294967295
253.43193 -7.1589117 -553.42181 4294967295
257.17413 -7.4169559 -553.53046 4294967295
259.46423 -7.5879798 -553.3493 4294967295
265.63593 -7.9539537 -553.60614 4294967295
269.44379 -8.2695007 -553.82166 4294967295
271.65976 -8.2649174 -553.84454 4294967295
273.4306 -8.5245695 -553.99353 4294967295
275.52591 -8.5762033 -553.96149 4294967295
279.76172 -8.9288521 -553.92596 4294967295
219.45099 -4.853137 -553.04321 4294967295
223.51976 -5.1817479 -553.03522 4294967295
233.35085 -5.7485046 -553.17786 4294967295
235.17548 -5.8766165 -553.21301 4294967295
-94.87442 9.385088 -553.01013 4294967295
-92.742706 9.0526247 -553.87823 4294967295
-95.183281 14.168643 -553.20197 4294967295
-94.730995 12.047095 -553.55035 4294967295
-46.578644 14.455763 -553.1452 4294967295
-42.789173 14.132925 -553.06299 4294967295
-40.758244 13.986979 -553.12366 4294967295
-34.82122 13.588821 -553.33057 4294967295
-30.456207 13.269469 -553.16992 4294967295
-20.497679 12.55846 -553.19934 4294967295
-16.472082 12.247619 -553.07562 4294967295
-14.581001 12.119651 -553.07562 4294967295
-94.476555 15.657645 -553.13763 4294967295
-92.961197 15.503019 -553.63831 4294967295
-90.804451 16.620176 -553.67114 4294967295
-88.2341 17.379023 -553.47363 4294967295
-80.027802 17.530981 -553.98608 4294967295
-74.299042 17.033579 -553.28235 4294967295
-68.518944 16.444542 -553.84882 4294967295
-66.708839 16.332134 -553.93011 4294967295
287.32932 -54.148899 -552.09155 4294967295
291.43332 -54.644703 -552.30035 4294967295
293.53531 -54.549641 -552.10742 4294967295
295.57382 -54.632191 -552.03369 4294967295
301.60062 -54.929234 -552.29858 4294967295
311.4119 -54.252937 -552.97705 4294967295
313.29303 -54.696514 -552.49377 4294967295
319.38141 -54.098118 -552.47443 4294967295
321.4758 -54.106297 -552.20428 4294967295
317.18906 -53.982613 -552.72784 4294967295
321.35056 -52.36034 -552.79034 4294967295
323.40686 -52.547569 -552.45776 4294967295
325.32294 -52.338486 -552.14722 4294967295
321.61182 -50.037441 -552.9776 4294967295
323.48129 -49.524895 -552.63849 4294967295
325.38947 -49.788849 -552.34265 4294967295
171.4995 -45.080414 -552.9704 4294967295
173.65765 -45.218746 -552.84943 4294967295
203.61263 -47.434765 -552.96332 4294967295
91.313629 -39.179329 -552.88672 4294967295
93.448181 -39.360367 -552.94702 4294967295
95.664513 -39.532978 -552.93854 4294967295
103.23179 -40.114086 -552.97412 4294967295
107.62464 -40.408752 -552.93365 4294967295
113.45021 -40.781578 -552.92316 4294967295
123.45631 -41.472088 -552.8598 4294967295
57.519253 -37.03281 -552.99408 4294967295
63.399956 -37.372871 -552.87427 4294967295
67.490425 -37.687447 -552.9104 4294967295
81.422852 -38.503532 -552.95837 4294967295
85.36248 -38.760544 -552.99097 4294967295
87.380318 -38.915249 -552.98877 4294967295
-84.882759 -27.548824 -552.04211 4294967295
-78.890167 -28.620266 -552.33081 4294967295
-76.57415 -28.796429 -552.06799 4294967295
-69.194092 -29.116457 -552.10382 4294967295
-90.69014 -24.221693 -552.96869 4294967295
-93.140427 -21.871529 -552.42987 4294967295
-92.398628 -17.06288 -552.38324 4294967295
337.68674 -17.183884 -552.47113 4294967295
321.56052 -12.41526 -552.16925 4294967295
331.47964 -14.584491 -552.83588 4294967295
333.50031 -14.952518 -552.64594 4294967295
301.26373 -10.57627 -552.02496 4294967295
305.51917 -10.75431 -552.09692 4294967295
307.77328 -11.12437 -552.82922 4294967295
311.745 -11.499434 -552.78186 4294967295
313.61401 -11.565689 -552.15271 4294967295
315.64914 -11.650126 -552.10974 4294967295
217.46931 -4.818419 -552.98529 4294967295
221.38637 -5.0583143 -552.95282 4294967295
225.78885 -5.3156285 -552.98486 4294967295
161.12012 -1.0524566 -552.95605 4294967295
185.51942 -2.7099912 -552.78442 4294967295
189.4332 -2.9399097 -552.89136 4294967295
115.02061 2.2625985 -552.84253 4294967295
129.43544 1.2121702 -552.89917 4294967295
93.487396 3.9446182 -552.83081 4294967295
95.547989 3.7633951 -552.76337 4294967295
39.602631 8.1391363 -552.92206 4294967295
-96.72245 11.67802 -552.51465 4294967295
-12.657413 11.934075 -552.9718 4294967295
19.493521 9.6469679 -552.87958 4294967295
-52.480114 14.931967 -552.92279 4294967295
-33.057629 13.425941 -552.94171 4294967295
-18.368885 12.411714 -552.71069 4294967295
-91.545364 17.670248 -552.14771 4294967295
-89.050484 17.961464 -552.03247 4294967295
-56.214222 15.223096 -552.85742 4294967295
-87.064148 18.181818 -552.35034 4294967295
303.71188 -55.11277 -551.95178 4294967295
307.67175 -55.180794 -551.74963 4294967295
311.55206 -55.394768 -551.45679 4294967295
313.349 -55.626534 -551.05139 4294967295
317.36536 -55.578625 -551.48865 4294967295
319.41992 -55.299873 -551.68274 4294967295
321.35461 -55.435856 -551.3302 4294967295
323.36353 -54.223206 -551.91241 4294967295
325.20355 -54.339489 -551.59723 4294967295
327.5054 -54.411457 -551.27521 4294967295
329.43292 -54.350334 -551.04565 4294967295
263.37598 -52.135105 -551.43854 4294967295
265.28946 -52.26506 -551.39966 4294967295
267.45892 -52.43758 -551.47528 4294967295
269.23486 -52.601963 -551.71472 4294967295
271.47644 -52.798637 -551.63031 4294967295
273.33353 -53.016838 -551.72583 4294967295
275.47134 -53.305279 -551.9967 4294967295
277.33917 -53.481785 -551.93994 4294967295
279.79916 -53.649456 -551.64844 4294967295
281.45566 -53.796551 -551.77228 4294967295
283.79031 -53.992691 -551.8598 4294967295
327.22153 -52.364033 -551.86371 4294967295
329.70163 -52.495499 -551.59241 4294967295
331.17899 -52.381145 -551.22192 4294967295
219.61998 -48.45673 -551.08759 4294967295
221.4622 -48.591389 -551.03784 4294967295
223.49109 -48.750179 -551.01398 4294967295
243.1321 -50.340561 -551.06244 4294967295
327.64841 -49.677677 -551.90912 4294967295
329.63339 -49.194126 -551.51624 4294967295
331.47452 -49.521564 -551.19849 4294967295
177.07826 -45.204281 -551.01569 4294967295
201.25143 -47.033394 -551.02765 4294967295
205.61034 -47.326313 -551.04779 4294967295
157.45624 -43.678207 -551.02295 4294967295
47.232601 -36.223568 -551.02533 4294967295
51.482655 -36.445198 -551.01544 4294967295
-2.7763364 -33.043625 -551.09082 4294967295
19.477785 -34.448006 -551.02625 4294967295
22.880526 -34.661983 -551.14722 4294967295
-30.544422 -31.337831 -551.1261 4294967295
-26.701645 -31.628487 -551.27368 4294967295
-24.649698 -31.745052 -551.16486 4294967295
-8.5548019 -32.679363 -551.05176 4294967295
-6.7283731 -32.777744 -551.03455 4294967295
-88.290878 -27.191109 -551.35217 4294967295
-82.456673 -27.996693 -551.96362 4294967295
-70.504295 -29.036179 -551.80347 4294967295
-66.652664 -29.198772 -551.63129 4294967295
-64.69796 -29.250765 -551.20624 4294967295
-62.849434 -29.390463 -551.50751 4294967295
-94.743416 -24.046244 -551.45526 4294967295
-92.386383 -25.940592 -551.34534 4294967295
341.37344 -17.901619 -551.71759 4294967295
319.63821 -12.178994 -551.9931 4294967295
327.3317 -13.072543 -551.85889 4294967295
329.57516 -13.241164 -551.57324 4294967295
331.71161 -13.385219 -551.26648 4294967295
333.62759 -13.725995 -551.45599 4294967295
337.36868 -14.626399 -551.57019 4294967295
339.48126 -14.684083 -551.06659 4294967295
281.29758 -9.0306339 -551.43756 4294967295
285.5658 -9.2891626 -551.3623 4294967295
289.43945 -9.6399746 -551.60797 4294967295
291.5014 -9.8228636 -551.64056 4294967295
299.23929 -10.297617 -551.99878 4294967295
303.48315 -10.603799 -551.98712 4294967295
251.44714 -7.229454 -551.13306 4294967295
255.54498 -7.5153518 -551.08832 4294967295
257.33603 -7.6613159 -551.0788 4294967295
261.33682 -7.924787 -551.16876 4294967295
267.36682 -8.3838654 -551.10602 4294967295
271.55673 -8.6378326 -551.06122 4294967295
276.94534 -8.8753347 -551.40308 4294967295
-96.802795 8.1160927 -551.88293 4294967295
-98.847702 11.230199 -551.28461 4294967295
-54.35733 14.854622 -551.07568 4294967295
-22.880863 12.514441 -551.18695 4294967295
299.51141 -55.153187 -550.05469 4294967295
301.57324 -55.191685 -550.09521 4294967295
303.64316 -55.500866 -550.04291 4294967295
305.49243 -55.45179 -550.17749 4294967295
309.28494 -55.585846 -550.05835 4294967295
315.58331 -56.164406 -550.04175 4294967295
317.25723 -56.255768 -550.10242 4294967295
323.44855 -55.557705 -550.95715 4294967295
327.52753 -55.441551 -550.62585 4294967295
329.48523 -55.560944 -550.34753 4294967295
331.39459 -54.940228 -550.45288 4294967295
333.16223 -54.425186 -550.45886 4294967295
335.47589 -54.436321 -550.07648 4294967295
251.59001 -51.038357 -550.96686 4294967295
253.31908 -51.178284 -550.90649 4294967295
333.54831 -52.339584 -550.79309 4294967295
337.48148 -52.225288 -550.14661 4294967295
339.17355 -52.413223 -550.01221 4294967295
247.41617 -50.681355 -550.98114 4294967295
249.53241 -50.886738 -550.97131 4294967295
333.65768 -49.711575 -550.85333 4294967295
335.53241 -49.651608 -550.52521 4294967295
175.65083 -45.071033 -550.76025 4294967295
179.47922 -45.393646 -550.93237 4294967295
181.44447 -45.571926 -550.97552 4294967295
203.65877 -47.191498 -550.93384 4294967295
209.41205 -47.616875 -550.99854 4294967295
161.28354 -43.946548 -550.79968 4294967295
163.39369 -44.150974 -550.9455 4294967295
171.47519 -44.738312 -550.63348 4294967295
173.40573 -44.947227 -550.99927 4294967295
97.491302 -39.389072 -550.79669 4294967295
99.57637 -39.573029 -550.8028 4294967295
101.70617 -39.715263 -550.81201 4294967295
105.61105 -39.9939 -550.84753 4294967295
123.39963 -41.195427 -550.80548 4294967295
125.61872 -41.319679 -550.76324 4294967295
127.55495 -41.461754 -550.88544 4294967295
131.42459 -41.72847 -550.93915 4294967295
49.33963 -36.286709 -550.86566 4294967295
53.563313 -36.562664 -550.87067 4294967295
63.137054 -37.063858 -550.72449 4294967295
65.530861 -37.27845 -550.96661 4294967295
69.521904 -37.559895 -550.99915 4294967295
87.394302 -38.650555 -550.77545 4294967295
89.512115 -38.800922 -550.77899 4294967295
91.53669 -38.914455 -550.77991 4294967295
5.4061885 -33.55455 -550.98059 4294967295
17.456108 -34.381931 -550.93427 4294967295
21.51894 -34.524246 -550.66559 4294967295
25.37892 -34.785046 -550.96954 4294967295
43.563675 -35.989624 -550.92462 4294967295
-36.40728 -30.910889 -550.83777 4294967295
-34.210316 -31.069136 -550.95483 4294967295
-28.502722 -31.460873 -550.99548 4294967295
-22.393801 -31.861408 -550.9259 4294967295
-87.033279 -27.796448 -550.33557 4294967295
-85.141151 -28.173145 -550.08063 4294967295
-82.837708 -28.411825 -550.06848 4294967295
-75.43074 -28.799446 -550.85529 4294967295
-96.766205 -24.343153 -550.34705 4294967295
-96.791603 -22.420378 -550.83435 4294967295
343.27264 -15.607121 -550.68121 4294967295
345.66101 -17.773359 -550.86249 4294967295
347.52267 -16.18729 -550.01685 4294967295
329.69681 -12.609635 -550.05829 4294967295
331.92242 -12.98725 -550.22699 4294967295
341.38568 -14.971649 -550.797 4294967295
323.78867 -11.979279 -550.18091 4294967295
238.8073 -6.4152126 -550.89172 4294967295
241.48155 -6.6463089 -550.67847 4294967295
245.32976 -6.868216 -550.9527 4294967295
253.55508 -7.402195 -550.96692 4294967295
259.52551 -7.8144751 -550.95251 4294967295
193.87239 -3.3916099 -550.77313 4294967295
219.40347 -5.1121535 -550.68231 4294967295
223.23795 -5.343524 -550.81042 4294967295
159.41032 -1.0776962 -550.82031 4294967295
173.43272 -2.0088365 -550.85449 4294967295
187.48889 -2.9775755 -550.79602 4294967295
111.63783 2.4632576 -550.69977 4294967295
129.85719 1.0782675 -550.66589 4294967295
131.54451 0.96865833 -550.71399 4294967295
33.173893 8.5455933 -550.83636 4294967295
34.889706 8.410655 -550.89233 4294967295
37.668491 8.1900091 -550.74402 4294967295
59.311302 6.5668378 -550.87964 4294967295
61.248196 6.4282346 -550.67883 4294967295
63.64399 6.244308 -550.61243 4294967295
65.266785 6.1303453 -550.88159 4294967295
-14.53594 11.862984 -550.82538 4294967295
-12.267044 11.659438 -550.68628 4294967295
9.2803612 10.14512 -550.85114 4294967295
15.470448 9.7363911 -550.79626 4294967295
17.562305 9.5794659 -550.66986 4294967295
-52.785007 14.722514 -550.74866 4294967295
-48.506069 14.318478 -550.75574 4294967295
-43.818783 13.927683 -550.74652 4294967295
-42.680206 13.875229 -550.79425 4294967295
-18.799519 12.231771 -550.97913 4294967295
-16.624975 12.041279 -550.86188 4294967295
-72.71698 16.713854 -550.85455 4294967295
289.34674 -54.307869 -549.93646 4294967295
291.36813 -54.453751 -549.6507 4294967295
293.4725 -54.609764 -549.55872 4294967295
297.3595 -54.923958 -549.69055 4294967295
307.69406 -55.691902 -549.95679 4294967295
311.69595 -55.827171 -549.8797 4294967295
313.74103 -56.032852 -549.90759 4294967295
319.39111 -56.380165 -549.84106 4294967295
321.32462 -56.3675 -549.84656 4294967295
327.92453 -56.425285 -549.46051 4294967295
331.52701 -56.506462 -549.43848 4294967295
333.45358 -55.878201 -549.61237 4294967295
335.47348 -55.952438 -549.26917 4294967295
337.37994 -54.320465 -549.80957 4294967295
339.37714 -54.222473 -549.48773 4294967295
341.56299 -54.117771 -549.10168 4294967295
265.51816 -52.00227 -549.1358 4294967295
269.56509 -52.322464 -549.09625 4294967295
275.12817 -52.76162 -549.06049 4294967295
287.51791 -53.988087 -549.35114 4294967295
341.50226 -52.143002 -549.44159 4294967295
339.41299 -49.277866 -549.79431 4294967295
341.60748 -49.386375 -549.36877 4294967295
163.29788 -43.866306 -549.05902 4294967295
-90.974976 -27.363626 -549.49481 4294967295
-70.590523 -28.759144 -549.48193 4294967295
-67.244675 -28.926704 -549.7771 4294967295
-94.638016 -26.755552 -549.32593 4294967295
351.69165 -19.121147 -549.51489 4294967295
345.4617 -15.007817 -549.88391 4294967295
335.74298 -13.364225 -549.99487 4294967295
339.87283 -13.742111 -549.80151 4294967295
341.76004 -13.933654 -549.31891 4294967295
343.53763 -14.060193 -549.01996 4294967295
281.27499 -9.2009439 -549.15094 4294967295
285.63309 -9.4503498 -549.02301 4294967295
291.42667 -10.121099 -549.05896 4294967295
303.41281 -10.820362 -549.03461 4294967295
307.4325 -11.053444 -549.16675 4294967295
309.38635 -11.222344 -549.4234 4294967295
311.69324 -11.349403 -549.46564 4294967295
313.26398 -11.416113 -549.70288 4294967295
315.77618 -11.610074 -549.44879 4294967295
317.57697 -11.634645 -549.83319 4294967295
-90.05249 18.603823 -549.1507 4294967295
331.32178 -57.010933 -548.07446 4294967295
315.75504 -56.295086 -548.75708 4294967295
317.50735 -56.446495 -548.69672 4294967295
319.72595 -56.589619 -548.74884 4294967295
321.47433 -56.577057 -548.70544 4294967295
323.84012 -56.804218 -548.27734 4294967295
325.56329 -56.760731 -548.20905 4294967295
327.71085 -56.860836 -548.21246 4294967295
337.23196 -55.966099 -548.96368 4294967295
339.53891 -55.622162 -548.80157 4294967295
341.48529 -55.615501 -548.42749 4294967295
343.46777 -54.676918 -548.47278 4294967295
267.42578 -52.101578 -548.89429 4294967295
343.7045 -52.079052 -548.99506 4294967295
345.59811 -52.264839 -548.68951 4294967295
179.31844 -45.017399 -548.74554 4294967295
181.5432 -45.206963 -548.74097 4294967295
183.47421 -45.339054 -548.75525 4294967295
187.49208 -45.626648 -548.7569 4294967295
139.40903 -42.051868 -548.74805 4294967295
161.44733 -43.710743 -548.97821 4294967295
167.44429 -44.140049 -548.83118 4294967295
171.5929 -44.432667 -548.61206 4294967295
173.18227 -44.60141 -548.89093 4294967295
175.82169 -44.759727 -548.6886 4294967295
177.4001 -44.889782 -548.87164 4294967295
97.440498 -39.165577 -548.7821 4294967295
101.43095 -39.466438 -548.83771 4294967295
103.63303 -39.591179 -548.7309 4294967295
111.49126 -40.076023 -548.71735 4294967295
113.49493 -40.217628 -548.78064 4294967295
117.56903 -40.514553 -548.70282 4294967295
121.41933 -40.806698 -548.86426 4294967295
127.4165 -41.191132 -548.75159 4294967295
129.30255 -41.315628 -548.79437 4294967295
51.205158 -36.089161 -548.80457 4294967295
61.630577 -36.756546 -548.74231 4294967295
65.363937 -37.034111 -548.81805 4294967295
67.571709 -37.209797 -548.935 4294967295
85.406082 -38.277523 -548.70331 4294967295
89.586914 -38.595596 -548.77112 4294967295
19.55274 -34.124344 -548.80316 4294967295
23.976553 -34.322166 -548.63739 4294967295
41.229591 -35.553699 -548.96844 4294967295
43.460796 -35.663475 -548.86401 4294967295
45.479191 -35.683376 -548.85101 4294967295
47.523483 -35.787086 -548.92133 4294967295
49.543285 -35.944443 -548.56219 4294967295
-38.488358 -30.491922 -548.79388 4294967295
-34.201057 -30.789127 -548.88171 4294967295
-24.730675 -31.410954 -548.84955 4294967295
-10.519272 -32.198776 -548.88007 4294967295
-6.093924 -32.365456 -548.49097 4294967295
-72.587738 -28.574032 -548.62756 4294967295
-96.830406 -26.094465 -548.74133 4294967295
349.23874 -15.089115 -548.89447 4294967295
353.7923 -16.680906 -548.68427 4294967295
333.83276 -12.618114 -548.03925 4294967295
337.70575 -13.118066 -548.13306 4294967295
339.7308 -13.340953 -548.28375 4294967295
341.78452 -13.491853 -548.05731 4294967295
343.88345 -13.646188 -548.06512 4294967295
345.58871 -13.787998 -548.07306 4294967295
283.69461 -9.377984 -548.82013 4294967295
287.46735 -9.6522942 -548.84961 4294967295
289.52576 -9.8868399 -548.97394 4294967295
235.44324 -6.3459587 -548.6424 4294967295
237.20132 -6.4720831 -548.76654 4294967295
239.19966 -6.677515 -548.37024 4294967295
241.20305 -6.8639808 -548.66309 4294967295
242.98598 -6.922709 -548.62225 4294967295
245.42297 -7.0473495 -548.75232 4294967295
251.30693 -7.4559336 -548.81781 4294967295
255.39232 -7.7570481 -548.73578 4294967295
257.1554 -7.8798971 -548.76886 4294967295
263.06973 -8.2462082 -548.80341 4294967295
187.53728 -3.0585864 -548.29315 4294967295
189.56584 -3.1946144 -548.32483 4294967295
191.48203 -3.3228455 -548.2384 4294967295
193.56537 -3.4664996 -548.08417 4294967295
195.63965 -3.5750227 -548.62128 4294967295
197.42856 -3.6870232 -548.50787 4294967295
199.29225 -3.8057005 -548.68188 4294967295
219.46573 -5.214726 -548.46765 4294967295
221.36975 -5.3245955 -548.71997 4294967295
223.3213 -5.4598808 -548.49615 4294967295
225.53409 -5.5743141 -548.69098 4294967295
147.2057 -0.41842875 -548.00458 4294967295
153.65985 -0.83025789 -548.03082 4294967295
155.49358 -0.91587144 -548.22638 4294967295
159.3365 -1.0812287 -548.29193 4294967295
185.23709 -2.8970253 -548.62885 4294967295
129.41959 0.99494129 -548.27887 4294967295
131.56479 0.8690033 -548.24622 4294967295
133.39217 0.74073851 -548.23767 4294967295
135.31847 0.61176437 -548.38129 4294967295
79.206833 4.9651632 -548.32007 4294967295
81.391487 4.8057551 -548.07013 4294967295
85.135826 4.4965663 -548.21924 4294967295
24.976763 8.9852686 -548.25928 4294967295
27.257933 8.8182945 -548.11719 4294967295
28.762779 8.7533169 -548.57117 4294967295
31.950836 8.522233 -548.15955 4294967295
33.50581 8.4029303 -548.31134 4294967295
35.278374 8.2669601 -548.43243 4294967295
37.491489 8.101531 -548.20197 4294967295
39.442104 7.9943681 -548.33051 4294967295
41.166473 7.8913398 -548.8089 4294967295
57.347641 6.6291118 -548.04242 4294967295
59.371769 6.4708724 -548.06055 4294967295
63.352432 6.1865864 -548.22418 4294967295
65.361023 6.0093627 -548.19012 4294967295
-16.713425 11.780813 -548.37793 4294967295
-12.522375 11.458266 -548.39148 4294967295
19.158762 9.3625612 -548.35602 4294967295
23.324696 9.1036024 -548.39105 4294967295
-50.144642 14.257581 -548.64172 4294967295
-48.729233 14.125134 -548.85504 4294967295
-44.603142 13.779311 -548.54907 4294967295
-68.690704 16.173346 -548.78015 4294967295
329.63062 -57.026672 -547.95984 4294967295
333.74484 -57.202888 -547.67621 4294967295
335.27625 -57.243359 -547.40149 4294967295
337.57285 -57.334377 -547.18225 4294967295
293.49786 -54.147228 -547.00671 4294967295
296.93335 -54.388088 -547.28845 4294967295
309.47891 -55.625938 -547.67261 4294967295
311.48547 -55.850815 -547.73608 4294967295
339.29419 -56.875614 -547.78247 4294967295
341.45883 -56.895901 -547.45294 4294967295
343.46951 -56.788044 -547.22961 4294967295
345.34665 -55.579449 -547.6745 4294967295
347.38785 -54.087669 -547.94513 4294967295
349.51251 -54.043072 -547.38385 4294967295
291.39084 -53.974262 -547.08258 4294967295
-88.847298 -27.912279 -547.91162 4294967295
-86.599136 -28.067598 -547.67542 4294967295
-84.112022 -28.151424 -547.20813 4294967295
-72.637665 -28.474968 -547.21869 4294967295
355.47131 -15.983948 -547.6322 4294967295
357.38638 -16.011927 -547.18439 4294967295
359.88419 -17.980093 -547.21472 4294967295
329.40286 -12.425753 -547.85382 4294967295
347.39871 -14.000577 -547.96228 4294967295
349.8468 -14.136754 -547.30981 4294967295
311.29083 -11.584086 -547.13074 4294967295
115.02274 2.0699294 -547.9751 4294967295
127.16901 1.0842341 -547.94019 4294967295
67.175499 5.8096695 -547.95697 4294967295
61.685925 6.297915 -547.91199 4294967295
-90.384163 18.582563 -547.63739 4294967295
329.6803 -57.272518 -546.04718 4294967295
331.45844 -57.537399 -546.005 4294967295
333.58194 -57.547806 -546.02771 4294967295
339.52521 -57.81601 -546.00897 4294967295
347.26685 -57.166367 -546.03845 4294967295
345.23862 -56.923286 -546.74884 4294967295
349.69946 -55.70816 -546.66199 4294967295
351.68515 -54.161617 -546.77747 4294967295
353.50034 -54.132908 -546.12122 4294967295
265.28934 -51.585857 -546.86896 4294967295
269.68231 -51.935337 -546.76031 4294967295
201.40013 -46.414665 -546.56036 4294967295
205.4581 -46.771572 -546.91718 4294967295
207.14755 -46.882381 -546.7702 4294967295
219.88286 -47.750389 -546.34296 4294967295
143.31616 -42.041458 -546.24908 4294967295
145.44495 -42.164127 -546.05322 4294967295
167.4147 -43.843807 -546.39673 4294967295
171.2816 -44.136372 -546.40009 4294967295
173.31039 -44.274559 -546.23755 4294967295
177.47206 -44.585663 -546.29309 4294967295
179.3344 -44.776066 -546.76074 4294967295
181.36824 -44.832382 -546.07947 4294967295
183.7314 -44.999084 -546.03009 4294967295
99.487572 -39.015324 -546.04431 4294967295
101.39039 -39.169785 -546.11456 4294967295
105.37545 -39.464058 -546.44641 4294967295
107.49253 -39.565189 -546.3266 4294967295
111.23522 -39.750725 -546.19373 4294967295
113.4062 -39.847771 -546.02771 4294967295
121.45668 -40.462578 -546.11938 4294967295
123.27388 -40.590733 -546.04034 4294967295
125.45015 -40.762154 -546.08398 4294967295
127.53954 -40.91114 -546.10101 4294967295
129.66092 -41.040001 -546.0116 4294967295
137.66917 -41.615074 -546.12177 4294967295
141.5408 -41.908249 -546.18542 4294967295
61.475246 -36.458385 -546.3269 4294967295
63.905243 -36.636223 -546.1134 4294967295
79.013336 -37.608109 -546.34039 4294967295
81.421356 -37.76202 -546.24121 4294967295
89.601303 -38.281677 -546.10315 4294967295
17.257122 -33.76498 -546.83636 4294967295
19.399868 -33.836201 -546.4649 4294967295
21.524378 -33.905964 -546.18365 4294967295
23.689672 -34.065628 -546.40436 4294967295
25.518064 -34.182598 -546.32617 4294967295
27.740358 -34.342548 -546.37341 4294967295
41.539455 -35.211517 -546.43176 4294967295
45.512627 -35.450851 -546.27094 4294967295
47.622295 -35.545849 -546.11481 4294967295
51.230087 -35.768997 -546.1709 4294967295
53.642029 -35.918758 -546.07257 4294967295
-34.345181 -30.483709 -546.73584 4294967295
-32.739506 -30.63327 -546.94519 4294967295
-28.825117 -30.854765 -546.68665 4294967295
-26.721834 -31.019302 -546.92212 4294967295
-24.586493 -31.124777 -546.77612 4294967295
-22.608664 -31.25321 -546.80511 4294967295
-20.76885 -31.364969 -546.74316 4294967295
-18.749269 -31.468021 -546.64294 4294967295
-14.410529 -31.654587 -546.7807 4294967295
-10.712752 -31.881014 -546.65576 4294967295
-8.619441 -31.996256 -546.62634 4294967295
-6.2011065 -32.141212 -546.42102 4294967295
-5.1490645 -32.267921 -546.92035 4294967295
-94.964516 -27.532951 -546.29205 4294967295
-91.046021 -27.781088 -546.03406 4294967295
-74.444862 -28.353079 -546.04419 4294967295
-70.346413 -28.480511 -546.65033 4294967295
-97.049995 -26.984947 -546.87799 4294967295
361.82962 -23.067064 -546.07288 4294967295
361.88095 -20.2698 -546.70392 4294967295
359.55569 -15.971118 -546.41467 4294967295
361.49118 -17.858366 -546.66443 4294967295
341.83145 -13.142809 -546.1593 4294967295
343.80066 -13.224462 -546.12823 4294967295
345.49698 -13.366404 -546.44208 4294967295
349.84351 -13.448874 -546.25842 4294967295
271.33261 -9.0297184 -546.34344 4294967295
273.5014 -9.1889725 -546.17169 4294967295
275.62921 -9.2863207 -546.61566 4294967295
277.43045 -9.4061947 -546.24335 4294967295
281.18253 -9.5160723 -546.48657 4294967295
285.48822 -9.7397223 -546.31628 4294967295
289.66519 -10.25103 -546.60699 4294967295
305.79196 -11.304177 -546.74127 4294967295
307.85297 -11.416389 -546.60486 4294967295
309.43671 -11.485968 -546.68524 4294967295
313.47714 -11.720069 -546.85632 4294967295
235.1463 -6.459065 -546.08746 4294967295
243.03751 -7.1299934 -546.02081 4294967295
253.0253 -7.7833114 -546.1239 4294967295
257.22311 -8.1102028 -546.05975 4294967295
157.34032 -0.66222137 -546.03528 4294967295
-52.613625 14.347639 -546.02301 4294967295
-48.56385 13.953413 -546.16382 4294967295
-44.967739 13.594903 -546.05249 4294967295
-32.466404 12.793605 -546.07092 4294967295
-70.287621 16.259403 -546.69989 4294967295
335.97729 -57.704384 -545.78625 4294967295
341.78589 -57.930782 -545.72729 4294967295
343.57336 -58.032383 -545.67932 4294967295
345.69684 -58.081879 -545.255 4294967295
349.47537 -57.449669 -545.34491 4294967295
315.44489 -55.836174 -545.27985 4294967295
319.55768 -56.367565 -545.55872 4294967295
321.58975 -56.585655 -545.83423 4294967295
325.51352 -56.957134 -545.95612 4294967295
353.32175 -55.676533 -545.65906 4294967295
355.46002 -54.078136 -545.46265 4294967295
355.61664 -51.889351 -545.88275 4294967295
165.6981 -43.645947 -545.89288 4294967295
109.30518 -39.609421 -545.88605 4294967295
115.30891 -39.955971 -545.84222 4294967295
117.64005 -40.145702 -545.90381 4294967295
119.23029 -40.276474 -545.9751 4294967295
133.50996 -41.277908 -545.81903 4294967295
139.40741 -41.725998 -545.99207 4294967295
59.435993 -36.249565 -545.7843 4294967295
65.538353 -36.733402 -545.91687 4294967295
67.500847 -36.868385 -545.98108 4294967295
77.429466 -37.459789 -545.97333 4294967295
85.331139 -37.953152 -545.91437 4294967295
87.233109 -38.075855 -545.89331 4294967295
49.733528 -35.652138 -545.96716 4294967295
-93.06411 -27.682743 -545.72583 4294967295
-88.483093 -27.781416 -545.01422 4294967295
-86.92688 -27.862982 -545.14044 4294967295
363.30978 -24.958721 -545.08234 4294967295
363.85352 -19.100897 -545.83545 4294967295
360.93167 -15.593238 -545.84937 4294967295
362.27567 -16.2861 -545.74323 4294967295
337.86111 -12.924642 -545.73901 4294967295
339.96133 -12.98149 -545.92249 4294967295
357.94186 -14.573707 -545.52704 4294967295
231.55727 -6.238728 -545.76807 4294967295
233.31857 -6.2422156 -545.90771 4294967295
237.47552 -6.6224685 -545.71973 4294967295
241.18486 -7.0651956 -545.90637 4294967295
245.30789 -7.2450552 -545.98608 4294967295
247.57878 -7.3818994 -545.90295 4294967295
251.30109 -7.6637926 -545.90521 4294967295
265.77054 -8.693861 -545.80853 4294967295
187.51208 -3.0557022 -545.54187 4294967295
189.25273 -3.1020677 -545.63324 4294967295
191.37862 -3.1345725 -545.09155 4294967295
193.42694 -3.4716947 -545.59271 4294967295
195.51492 -3.5040326 -545.83954 4294967295
197.25674 -3.6349108 -545.74609 4294967295
199.40327 -3.8846231 -545.64484 4294967295
205.73683 -4.3326659 -545.61108 4294967295
217.51736 -5.1546035 -545.65619 4294967295
219.56779 -5.3785644 -545.74432 4294967295
221.31154 -5.414103 -545.72021 4294967295
223.093 -5.4938307 -545.76294 4294967295
225.54887 -5.7579198 -545.64063 4294967295
227.41505 -5.9046988 -545.75848 4294967295
229.4696 -5.9287548 -545.82086 4294967295
151.39702 -0.38971364 -545.7962 4294967295
159.46498 -0.62220538 -545.93274 4294967295
163.20268 -1.0468543 -545.95093 4294967295
164.67012 -1.2108536 -545.96716 4294967295
171.18593 -1.772588 -545.68542 4294967295
175.53345 -2.0987556 -545.72241 4294967295
177.90503 -2.142972 -545.63519 4294967295
183.4453 -2.648155 -545.6142 4294967295
185.42143 -2.9647813 -545.53674 4294967295
111.31289 2.7694037 -545.60083 4294967295
113.34127 2.55948 -545.46002 4294967295
119.47202 1.9698584 -545.82526 4294967295
129.56015 1.3329046 -545.77454 4294967295
131.52463 1.0339125 -545.7796 4294967295
133.26988 1.0841089 -545.80859 4294967295
135.06096 0.93974406 -545.83405 4294967295
137.75903 0.70213079 -545.521 4294967295
