# .PCD v0.7 - Point Cloud Data file format
VERSION 0.7
FIELDS x y z rgba
SIZE 4 4 4 4
TYPE F F F U
COUNT 1 1 1 1
WIDTH 1148
HEIGHT 1
VIEWPOINT 0 0 0 1 0 0 0
POINTS 1148
DATA ascii
534.72461 3433.8457 -179.85184 4294967117
547.23718 3433.4644 -179.78052 4294967117
553.21368 3432.9126 -179.83064 4294967117
557.8963 3432.1028 -179.43457 4294967117
475.26346 3437.9939 -179.76003 4294967117
479.41245 3437.6724 -179.74582 4294967117
481.53818 3437.6182 -179.96817 4294967117
435.47232 3440.5618 -179.0293 4294967117
443.45978 3440.4204 -179.93764 4294967117
449.38293 3439.8926 -179.99118 4294967117
463.60852 3438.906 -179.93115 4294967117
471.1178 3438.3 -179.58737 4294967117
473.02188 3438.2056 -179.8212 4294967117
409.14816 3442.5149 -179.84953 4294967117
416.77347 3442.0295 -179.73335 4294967117
419.60672 3441.8508 -179.96474 4294967117
421.45935 3441.7217 -179.95641 4294967117
425.12598 3441.5315 -179.95786 4294967117
583.7077 3407.2466 -178.50018 4294967118
585.89319 3407.0054 -178.35744 4294967118
589.8783 3406.6272 -178.00761 4294967118
591.66296 3406.4978 -178.09947 4294967118
595.64984 3406.7488 -178.89941 4294967118
597.14435 3407.082 -178.642 4294967118
598.01483 3407.9849 -178.19215 4294967118
558.29938 3409.9839 -178.20921 4294967118
599.16779 3409.2881 -178.09531 4294967118
600.32867 3410.2527 -178.71974 4294967118
503.90005 3413.8899 -178.48337 4294967118
507.97867 3413.6714 -178.95898 4294967118
511.94791 3413.5037 -178.54721 4294967118
515.41846 3413.3188 -178.05145 4294967118
542.07544 3411.2671 -178.44235 4294967118
601.07825 3412.4146 -178.39484 4294967118
457.64734 3416.8054 -178.879 4294967118
459.90002 3416.5859 -178.87068 4294967118
461.22049 3416.6555 -178.22446 4294967118
463.58835 3416.4775 -178.18175 4294967118
467.64545 3416.2117 -178.37071 4294967118
469.34714 3416.156 -178.01591 4294967118
473.8147 3415.6907 -178.19707 4294967118
475.55737 3415.5933 -178.06308 4294967118
479.3952 3415.4304 -178.19951 4294967118
487.72101 3414.96 -178.69403 4294967118
493.6001 3414.5115 -178.53737 4294967118
496.13379 3414.1436 -178.87582 4294967118
501.86853 3414.022 -178.07915 4294967118
601.85266 3415.2881 -178.16125 4294967118
429.46875 3419.0593 -178.37866 4294967118
431.68503 3418.8701 -178.18088 4294967118
433.15555 3418.7368 -178.35509 4294967118
449.46405 3417.7996 -178.03432 4294967118
451.45642 3417.45 -178.32259 4294967118
453.45645 3417.3811 -178.15489 4294967118
602.89801 3418.0664 -178.38016 4294967118
403.44006 3421.0029 -178.01669 4294967118
409.49088 3420.5896 -178.01669 4294967118
603.59283 3420.0161 -178.68211 4294967118
602.52325 3424.593 -178.39642 4294967118
600.47955 3428.3267 -178.82428 4294967118
601.42365 3427.0837 -178.48798 4294967118
583.48456 3430.364 -178.64502 4294967118
585.37848 3430.3406 -178.71346 4294967118
587.5423 3430.3501 -178.31595 4294967118
431.32974 3440.8184 -178.35518 4294967118
433.77368 3440.8152 -178.07706 4294967118
437.3822 3440.415 -178.31006 4294967118
441.27899 3440.2087 -178.08914 4294967118
443.35318 3440.0737 -178.30756 4294967118
447.38669 3439.7422 -178.11581 4294967118
449.543 3439.5403 -178.21211 4294967118
450.83383 3439.4241 -178.0137 4294967118
453.14938 3439.4099 -178.16046 4294967118
455.74252 3439.2681 -178.0112 4294967118
459.41104 3438.9453 -178.00993 4294967118
467.4201 3438.2742 -178.23653 4294967118
470.11993 3438.0696 -178.48354 4294967118
397.40704 3442.8538 -178.17618 4294967118
399.25449 3442.7312 -178.42503 4294967118
403.38629 3442.4761 -178.10983 4294967118
408.35233 3442.1592 -178.774 4294967118
409.09979 3442.1038 -178.15118 4294967118
411.7121 3442.0854 -178.04973 4294967118
415.4693 3441.7041 -178.29344 4294967118
421.48715 3441.4399 -178.16711 4294967118
425.51736 3441.2307 -178.34883 4294967118
596.72021 3407.5542 -177.45926 4294967119
561.34027 3409.6426 -177.98067 4294967119
563.5733 3409.3823 -177.21944 4294967119
565.42432 3409.2327 -177.0186 4294967119
573.59521 3408.5378 -177.05544 4294967119
505.49802 3413.8672 -177.61937 4294967119
508.92755 3413.6606 -177.65654 4294967119
513.55292 3413.4272 -177.81711 4294967119
517.07489 3413.2205 -177.51665 4294967119
519.78082 3413.1177 -177.9409 4294967119
523.34613 3412.8618 -177.7511 4294967119
525.26758 3412.7385 -177.61731 4294967119
543.08893 3411.332 -177.07765 4294967119
546.8855 3411.1636 -177.32193 4294967119
483.02502 3415.2017 -177.23425 4294967119
489.27414 3414.9106 -177.65552 4294967119
423.28287 3419.6196 -177.66093 4294967119
425.59567 3419.3713 -177.89067 4294967119
435.38678 3418.7029 -177.94371 4294967119
437.23785 3418.6204 -177.77501 4294967119
441.27786 3418.4111 -177.75301 4294967119
455.64746 3417.3096 -177.99879 4294967119
600.64319 3417.2529 -177.01601 4294967119
397.64984 3421.6755 -177.68102 4294967119
399.53598 3421.3147 -177.90645 4294967119
402.24765 3421.094 -177.92926 4294967119
405.51489 3420.9128 -177.92357 4294967119
413.30679 3420.458 -177.92905 4294967119
415.34048 3420.1672 -177.75778 4294967119
417.61337 3420.0464 -177.98752 4294967119
602.30774 3421.0281 -177.84665 4294967119
600.8941 3425.7114 -177.33432 4294967119
601.3819 3423.3818 -177.2981 4294967119
599.43286 3428.2905 -177.32816 4294967119
590.27765 3430.4702 -177.86272 4294967119
592.15009 3430.2075 -177.15443 4294967119
597.86932 3429.7019 -177.92619 4294967119
523.04694 3434.938 -177.50725 4294967119
527.06549 3434.5837 -177.53149 4294967119
530.21893 3434.2761 -177.84145 4294967119
537.95654 3433.9358 -177.53856 4294967119
541.0473 3433.8042 -177.56345 4294967119
549.45642 3433.7693 -177.00247 4294967119
557.54089 3432.3271 -177.16507 4294967119
475.37326 3437.863 -177.74681 4294967119
477.20364 3437.7024 -177.8889 4294967119
479.64066 3437.5403 -177.52267 4294967119
481.66812 3437.4136 -177.73434 4294967119
483.33002 3437.303 -177.97572 4294967119
486.67435 3437.312 -177.1142 4294967119
491.40973 3436.9238 -177.90538 4294967119
492.95233 3436.8889 -177.56503 4294967119
495.2117 3436.7156 -177.99843 4294967119
497.93549 3436.5417 -177.69518 4294967119
498.88007 3436.4453 -177.84811 4294967119
501.108 3436.2729 -177.67538 4294967119
503.51071 3436.0918 -177.98126 4294967119
504.69995 3436.106 -177.03795 4294967119
515.52533 3435.3474 -177.85889 4294967119
519.72229 3435.1499 -177.85443 4294967119
521.35315 3435.0701 -177.54065 4294967119
429.03827 3440.9766 -177.88318 4294967119
444.4964 3440.0322 -177.78522 4294967119
457.17575 3439.1038 -177.9231 4294967119
465.18912 3438.5051 -177.90625 4294967119
473.44171 3438.0063 -177.75006 4294967119
401.5672 3442.6187 -177.99734 4294967119
413.51758 3441.8538 -177.92444 4294967119
419.24521 3441.45 -177.84747 4294967119
584.42834 3407.1357 -176.63112 4294967120
594.09241 3406.9602 -176.47182 4294967120
595.63922 3407.2156 -176.38849 4294967120
559.48059 3409.6719 -176.86966 4294967120
569.2934 3408.8911 -176.34314 4294967120
598.21417 3409.3533 -176.95015 4294967120
537.3114 3411.6506 -176.99454 4294967120
598.50201 3411.2527 -176.38745 4294967120
489.83954 3414.9236 -176.06596 4294967120
490.44601 3414.813 -176.96538 4294967120
497.79544 3414.145 -176.19489 4294967120
599.25482 3414.9812 -176.36084 4294967120
600.86053 3419.2622 -176.98161 4294967120
600.06848 3421.3557 -176.39853 4294967120
599.04596 3426.7351 -176.15373 4294967120
560.8653 3431.9133 -176.87589 4294967120
563.93292 3431.7625 -176.91884 4294967120
581.55969 3430.7917 -176.25377 4294967120
583.47052 3430.6956 -176.21648 4294967120
524.97717 3434.7427 -176.84122 4294967120
542.9483 3433.8928 -176.9064 4294967120
551.15015 3433.6033 -176.75237 4294967120
553.24982 3433.1074 -176.90915 4294967120
554.9953 3432.8962 -176.78239 4294967120
559.3443 3432.0244 -176.97778 4294967120
579.24585 3407.6489 -175.89481 4294967121
587.42023 3407.0154 -175.72968 4294967121
589.53986 3407.1995 -175.35109 4294967121
591.85413 3407.0483 -175.95222 4294967121
594.27496 3407.4346 -175.43311 4294967121
560.19653 3409.3706 -175.33664 4294967121
596.51221 3409.0349 -175.76183 4294967121
597.02496 3410.7881 -175.00159 4294967121
501.65726 3413.9646 -175.1837 4294967121
506.0419 3413.7629 -175.18123 4294967121
510.01453 3413.5669 -175.80228 4294967121
514.05731 3413.3418 -175.48177 4294967121
517.71326 3413.1272 -175.19507 4294967121
523.39496 3412.8159 -175.52075 4294967121
531.84357 3412.3191 -175.51447 4294967121
535.23132 3411.9834 -175.43854 4294967121
537.40588 3411.7188 -175.10194 4294967121
539.33148 3411.4988 -175.20372 4294967121
543.37128 3411.2837 -175.24603 4294967121
545.51074 3411.1406 -175.05916 4294967121
459.13669 3416.991 -175.0024 4294967121
461.27911 3416.8132 -175.32671 4294967121
465.31644 3416.553 -175.36359 4294967121
466.89536 3416.425 -175.12712 4294967121
469.71146 3416.231 -175.3924 4294967121
471.51315 3416.0552 -175.55911 4294967121
499.55804 3414.0625 -175.16783 4294967121
597.48267 3416.0815 -175.03827 4294967121
425.27316 3419.7451 -175.43443 4294967121
427.67914 3419.553 -175.52521 4294967121
429.3223 3419.4221 -175.19667 4294967121
431.93854 3419.29 -175.83952 4294967121
433.18057 3419.2104 -175.70021 4294967121
435.54697 3419.0762 -175.8432 4294967121
437.29422 3418.959 -175.51085 4294967121
439.55569 3418.8169 -175.5526 4294967121
443.44977 3418.4768 -175.59346 4294967121
445.52808 3418.2341 -175.15608 4294967121
447.93781 3418.0781 -175.98474 4294967121
449.67535 3417.927 -175.68826 4294967121
451.23605 3417.7864 -175.35414 4294967121
453.55518 3417.6033 -175.56789 4294967121
455.44296 3417.4082 -175.71608 4294967121
457.44217 3417.1709 -175.5367 4294967121
598.16522 3418.6135 -175.38872 4294967121
399.5376 3421.7805 -175.72971 4294967121
403.38144 3421.4871 -175.60544 4294967121
407.03665 3421.2026 -175.61795 4294967121
411.41336 3420.8774 -175.83607 4294967121
417.31122 3420.4573 -175.48505 4294967121
598.15222 3421.7998 -175.17776 4294967121
599.33191 3424.2366 -175.91319 4294967121
585.98499 3430.707 -175.67935 4294967121
588.01801 3430.4243 -175.66754 4294967121
590.11902 3430.2793 -175.43501 4294967121
591.85547 3430.1558 -175.62125 4294967121
593.96667 3430.0063 -175.7282 4294967121
597.25885 3429.0388 -175.82315 4294967121
561.03882 3432.0735 -175.00323 4294967121
477.10074 3437.9421 -175.17317 4294967121
495.30338 3436.8892 -175.08447 4294967121
439.22769 3440.6001 -175.57149 4294967121
441.49915 3440.4856 -175.25133 4294967121
443.4071 3440.3657 -175.36919 4294967121
444.95776 3440.2825 -175.18021 4294967121
447.30057 3440.074 -175.68045 4294967121
448.94064 3439.9949 -175.18829 4294967121
451.2446 3439.7783 -175.41347 4294967121
453.14191 3439.7168 -175.1102 4294967121
455.53561 3439.5068 -175.50777 4294967121
471.55075 3438.2629 -175.67009 4294967121
473.49512 3438.1885 -175.13315 4294967121
475.29422 3438.0378 -175.64258 4294967121
397.08466 3443.1816 -175.43398 4294967121
400.0181 3443.0269 -175.50351 4294967121
401.60757 3442.9819 -175.18811 4294967121
411.98303 3442.1819 -175.70932 4294967121
413.46027 3442.1321 -175.23495 4294967121
415.27524 3442.0151 -175.32716 4294967121
417.48199 3441.8523 -175.35191 4294967121
419.51306 3441.7 -175.42717 4294967121
421.5083 3441.5222 -175.43756 4294967121
423.32303 3441.4216 -175.35526 4294967121
425.28867 3441.3203 -175.60114 4294967121
427.77853 3441.2361 -175.43584 4294967121
587.64313 3407.6667 -174.075 4294967122
591.52124 3407.6575 -174.43709 4294967122
548.95081 3410.8542 -174.56374 4294967122
555.12469 3409.9407 -174.61543 4294967122
561.18549 3409.0889 -174.50992 4294967122
563.57782 3408.9653 -174.563 4294967122
569.48175 3408.8069 -174.48558 4294967122
573.65521 3408.4841 -174.95805 4294967122
575.48267 3408.1069 -174.06433 4294967122
502.57852 3413.9548 -174.03246 4294967122
507.29819 3413.7029 -174.67612 4294967122
519.30365 3413.0522 -174.87546 4294967122
541.21423 3411.4407 -174.4296 4294967122
596.81879 3413.7507 -174.59297 4294967122
597.07904 3411.7537 -174.77785 4294967122
595.73566 3418.8525 -174.00375 4294967122
597.67279 3423.968 -174.51913 4294967122
595.44873 3428.0115 -174.04723 4294967122
597.6723 3426.843 -174.76979 4294967122
563.67871 3431.9741 -174.91512 4294967122
565.30029 3431.8694 -174.5667 4294967122
574.10455 3431.3398 -174.55501 4294967122
537.55884 3434.0974 -174.8367 4294967122
550.04822 3433.4065 -174.69063 4294967122
553.04376 3433.0872 -174.81174 4294967122
554.82458 3432.9136 -174.88322 4294967122
558.12634 3432.3369 -174.71681 4294967122
559.72351 3432.1621 -174.86313 4294967122
491.92282 3437.1208 -174.86305 4294967122
493.15063 3437.0977 -174.92065 4294967122
497.23969 3436.8262 -174.45377 4294967122
498.98538 3436.6946 -174.85361 4294967122
501.62006 3436.4849 -174.79706 4294967122
433.8992 3440.9414 -174.99983 4294967122
437.7066 3440.6707 -174.93367 4294967122
469.0217 3438.5681 -174.49686 4294967122
577.49927 3407.8564 -173.48163 4294967123
581.6507 3407.4832 -173.87666 4294967123
585.22699 3407.5244 -173.90504 4294967123
553.25201 3410.0647 -173.0744 4294967123
593.49658 3408.8125 -173.56749 4294967123
507.36493 3413.7095 -173.02698 4294967123
519.71063 3412.948 -173.06377 4294967123
524.12323 3412.7073 -173.69284 4294967123
527.88953 3412.4094 -173.18797 4294967123
595.66229 3411.3933 -173.37895 4294967123
459.87939 3416.9509 -173.39188 4294967123
463.49142 3416.6536 -173.13559 4294967123
465.44302 3416.5298 -173.28003 4294967123
497.41913 3414.2019 -173.0369 4294967123
595.59296 3416.6956 -173.89722 4294967123
425.64691 3419.6121 -173.02394 4294967123
429.49915 3419.3708 -173.17897 4294967123
433.41016 3419.1174 -173.06917 4294967123
435.48434 3418.9885 -173.09285 4294967123
437.46237 3418.8633 -173.3094 4294967123
439.58792 3418.6912 -173.03943 4294967123
441.3631 3418.5481 -173.07829 4294967123
443.4657 3418.3704 -173.20964 4294967123
449.65375 3417.8901 -173.39601 4294967123
451.54129 3417.7144 -173.08069 4294967123
455.98065 3417.3398 -173.63071 4294967123
411.8147 3420.7642 -173.67384 4294967123
595.58832 3421.3333 -173.77701 4294967123
595.91309 3423.9719 -173.57352 4294967123
593.35333 3428.8987 -173.71967 4294967123
595.46204 3426.9255 -173.68126 4294967123
578.93347 3431.1904 -173.09418 4294967123
581.73767 3430.9951 -173.74477 4294967123
583.78857 3430.6609 -173.73196 4294967123
585.86853 3430.4136 -173.59058 4294967123
587.9248 3430.1865 -173.82387 4294967123
485.1835 3437.5583 -173.17841 4294967123
487.73459 3437.3977 -173.07088 4294967123
494.51529 3437.0217 -173.03963 4294967123
499.05679 3436.6936 -173.03133 4294967123
435.84891 3440.8208 -173.32028 4294967123
439.18564 3440.6963 -173.0748 4294967123
443.53302 3440.4648 -173.10167 4294967123
448.97699 3440.1023 -173.12192 4294967123
457.25781 3439.5688 -173.03459 4294967123
421.68826 3441.7131 -173.01816 4294967123
431.51605 3441.1399 -173.09203 4294967123
579.8772 3407.9263 -172.32257 4294967124
547.15674 3410.9253 -172.4886 4294967124
550.24762 3410.6001 -172.17328 4294967124
557.22144 3409.301 -172.45587 4294967124
561.40393 3408.8677 -172.6777 4294967124
563.82117 3408.6653 -172.2252 4294967124
565.51379 3408.6035 -172.12354 4294967124
567.29724 3408.6177 -172.26921 4294967124
583.39105 3408.2124 -172.45757 4294967124
587.60883 3408.5347 -172.4454 4294967124
591.12164 3409.2737 -172.54936 4294967124
593.60376 3409.9578 -172.93321 4294967124
509.51776 3413.5286 -172.32181 4294967124
512.65594 3413.3213 -172.01648 4294967124
515.28351 3413.2371 -172.99405 4294967124
525.42828 3412.5286 -172.91278 4294967124
531.54382 3412.158 -172.96777 4294967124
534.72424 3411.8511 -172.91328 4294967124
539.25977 3411.4663 -172.87581 4294967124
543.86676 3411.1958 -172.62405 4294967124
593.65686 3412.7297 -172.53574 4294967124
467.37338 3416.3726 -172.90369 4294967124
469.34641 3416.1953 -172.84422 4294967124
593.5011 3416.6748 -172.76257 4294967124
423.3027 3419.782 -172.703 4294967124
427.43332 3419.488 -172.84064 4294967124
447.22919 3418.0332 -172.81989 4294967124
453.46118 3417.5608 -172.75766 4294967124
457.14093 3417.2151 -172.67963 4294967124
593.56805 3418.8115 -172.94217 4294967124
397.28397 3421.8416 -172.91177 4294967124
591.77881 3421.1133 -172.02786 4294967124
593.68774 3423.9697 -172.53781 4294967124
591.33972 3428.0215 -172.19312 4294967124
593.54517 3426.9331 -172.76924 4294967124
586.01611 3430.0024 -172.44795 4294967124
591.59808 3429.1284 -172.99261 4294967124
538.01862 3434.0735 -172.90909 4294967124
540.19055 3433.8154 -172.40965 4294967124
543.7204 3433.5635 -172.49545 4294967124
555.26208 3432.6055 -172.06042 4294967124
557.79071 3432.5132 -172.173 4294967124
560.94873 3432.304 -172.0584 4294967124
491.83621 3437.2456 -172.92963 4294967124
503.2052 3436.3809 -172.92038 4294967124
441.3786 3440.636 -172.67738 4294967124
445.54922 3440.3579 -172.78151 4294967124
461.48315 3439.3242 -172.74147 4294967124
467.31607 3438.8105 -172.62079 4294967124
475.22198 3438.1812 -172.96387 4294967124
401.40997 3443.2249 -172.89168 4294967124
411.42236 3442.48 -172.08675 4294967124
413.76685 3442.3159 -172.95682 4294967124
415.43915 3442.2263 -172.66473 4294967124
417.68692 3442.0571 -172.79309 4294967124
419.04803 3441.9609 -172.74164 4294967124
569.78931 3408.5491 -171.97453 4294967125
571.4624 3408.4443 -171.61108 4294967125
577.31458 3408.3647 -171.57693 4294967125
581.51904 3408.762 -171.02011 4294967125
589.93372 3409.9983 -171.53059 4294967125
510.78668 3413.4063 -171.02855 4294967125
535.2381 3411.6379 -171.06592 4294967125
541.21936 3411.3481 -171.58807 4294967125
589.9588 3411.7195 -171.16977 4294967125
591.49493 3411.7495 -171.70387 4294967125
592.12567 3413.7397 -171.76489 4294967125
461.82925 3416.8015 -171.45067 4294967125
467.75055 3416.3723 -171.17653 4294967125
501.78354 3414.0156 -171.1076 4294967125
589.63806 3416.7598 -171.13043 4294967125
439.86597 3418.5693 -171.16588 4294967125
443.21399 3418.2898 -171.04468 4294967125
451.8327 3417.6731 -171.06747 4294967125
456.80542 3417.2393 -171.02299 4294967125
591.49695 3418.9482 -171.97513 4294967125
591.74341 3423.8877 -171.71239 4294967125
589.62219 3427.7896 -171.49689 4294967125
591.49408 3426.6338 -171.92238 4294967125
569.82324 3431.9922 -171.64699 4294967125
574.10004 3431.6177 -171.399 4294967125
577.7699 3431.0671 -171.60725 4294967125
587.67749 3429.2876 -171.93475 4294967125
534.00378 3434.1973 -171.1239 4294967125
548.15045 3433.248 -171.77124 4294967125
551.82288 3432.8875 -171.48004 4294967125
565.65271 3432.2156 -171.90521 4294967125
494.64584 3437.0452 -171.01421 4294967125
461.35382 3439.467 -171.08678 4294967125
548.30463 3410.8506 -170.15204 4294967126
552.13208 3410.3513 -170.50523 4294967126
553.89972 3409.9954 -170.07352 4294967126
555.67157 3409.343 -170.40337 4294967126
557.61713 3408.9673 -170.24229 4294967126
576.39331 3408.6533 -170.68152 4294967126
577.94708 3408.7217 -170.56647 4294967126
578.95178 3408.929 -170.35124 4294967126
583.39166 3409.1709 -170.86813 4294967126
585.5788 3409.7854 -170.83678 4294967126
587.42389 3410.262 -170.87386 4294967126
507.18793 3413.6045 -170.71646 4294967126
519.91125 3412.8115 -170.73257 4294967126
523.3587 3412.4453 -170.06636 4294967126
525.92932 3412.3323 -170.87654 4294967126
529.18591 3412.1423 -170.99391 4294967126
531.79724 3411.8984 -170.6163 4294967126
537.03394 3411.636 -170.06978 4294967126
539.39038 3411.4541 -170.42174 4294967126
587.65222 3412.8401 -170.22351 4294967126
465.20569 3416.5222 -170.61179 4294967126
473.42459 3415.8635 -170.79324 4294967126
477.5437 3415.6021 -170.95734 4294967126
587.30084 3416.7556 -170.19119 4294967126
589.94501 3414.3213 -170.9502 4294967126
429.20227 3419.2827 -170.74544 4294967126
431.73328 3419.1335 -170.96468 4294967126
437.50217 3418.7253 -170.81833 4294967126
449.08954 3417.8254 -170.71146 4294967126
587.48651 3420.969 -170.31149 4294967126
587.65472 3423.7144 -170.09645 4294967126
589.65698 3423.6052 -170.87204 4294967126
585.51434 3428.4172 -170.36644 4294967126
587.6748 3427.8909 -170.851 4294967126
581.74628 3430.123 -170.5443 4294967126
525.49072 3434.8984 -170.51553 4294967126
529.5686 3434.5022 -170.284 4294967126
535.49884 3434.1487 -170.10666 4294967126
538.32867 3433.7908 -170.00327 4294967126
548.98724 3433.0222 -170.09209 4294967126
550.08331 3432.8914 -170.14029 4294967126
553.65918 3432.6047 -170.41347 4294967126
554.57971 3432.4612 -170.19623 4294967126
558.07977 3432.1182 -170.41629 4294967126
489.16953 3437.3848 -170.77933 4294967126
491.96307 3437.2207 -170.90561 4294967126
497.98703 3436.8064 -170.70244 4294967126
499.18982 3436.7166 -170.87753 4294967126
501.52875 3436.5264 -170.86578 4294967126
504.68488 3436.2725 -170.56873 4294967126
507.48233 3436.105 -170.72383 4294967126
515.89447 3435.5891 -170.70767 4294967126
437.43503 3440.9331 -170.66623 4294967126
439.70392 3440.8298 -170.72368 4294967126
445.78268 3440.4121 -170.98274 4294967126
457.68405 3439.8044 -170.63931 4294967126
465.42453 3439.0608 -170.85445 4294967126
471.08267 3438.5403 -170.98743 4294967126
474.0148 3438.3787 -170.90616 4294967126
413.60934 3442.4773 -170.70657 4294967126
417.73062 3442.1863 -170.79759 4294967126
419.1185 3442.0935 -170.74014 4294967126
421.2196 3441.9287 -170.75125 4294967126
423.64221 3441.7607 -170.84857 4294967126
425.29074 3441.6921 -170.78436 4294967126
433.37729 3441.1902 -170.45714 4294967126
435.51654 3441.0337 -170.70793 4294967126
550.47528 3410.7344 -169.18549 4294967127
560.79718 3408.4514 -169.71498 4294967127
564.11664 3408.4946 -169.14911 4294967127
565.33936 3408.4961 -169.43858 4294967127
573.21075 3408.8152 -169.4778 4294967127
580.5177 3409.5984 -169.77719 4294967127
583.33826 3410.6533 -169.75237 4294967127
542.92993 3411.3174 -169.12564 4294967127
545.77356 3411.1182 -169.80629 4294967127
583.64514 3411.9163 -169.04814 4294967127
585.52588 3413.9082 -169.48294 4294967127
461.47342 3416.8225 -169.20222 4294967127
584.10773 3416.5503 -169.06441 4294967127
585.40222 3416.626 -169.50024 4294967127
585.13263 3418.7161 -169.44601 4294967127
411.59039 3420.5383 -169.00113 4294967127
585.84735 3420.8745 -169.72609 4294967127
585.72797 3423.7578 -169.37634 4294967127
567.89398 3431.8689 -169.89421 4294967127
571.20746 3431.4285 -169.50284 4294967127
573.72949 3431.197 -169.64207 4294967127
575.98047 3430.947 -169.85341 4294967127
577.79181 3430.6587 -169.92259 4294967127
581.65411 3429.051 -169.22725 4294967127
541.21497 3433.3992 -169.18834 4294967127
543.66199 3433.1719 -169.13258 4294967127
546.05536 3433.0037 -169.34027 4294967127
548.07355 3433.0151 -169.66573 4294967127
552.93176 3432.3916 -169.39003 4294967127
554.16205 3432.2129 -169.10907 4294967127
555.79669 3432.0474 -169.34467 4294967127
563.77698 3432.1138 -169.79587 4294967127
523.16071 3435.1897 -169.83582 4294967127
553.0495 3410.5803 -168.09172 4294967128
555.63306 3409.8176 -168.41621 4294967128
559.97852 3408.8005 -168.31868 4294967128
567.65436 3408.718 -168.88916 4294967128
570.01923 3408.8469 -168.98854 4294967128
575.37073 3409.7449 -168.36398 4294967128
579.6778 3410.7527 -168.64188 4294967128
503.52911 3413.7673 -168.72247 4294967128
505.72653 3413.6243 -168.96936 4294967128
507.16577 3413.5034 -168.65146 4294967128
509.33463 3413.3743 -168.66698 4294967128
511.41638 3413.2639 -168.78745 4294967128
515.46124 3413.0327 -168.72902 4294967128
517.8819 3412.8542 -168.65053 4294967128
519.89923 3412.6826 -168.38295 4294967128
523.61884 3412.345 -168.3564 4294967128
525.57672 3412.1733 -168.19612 4294967128
531.8811 3411.7356 -168.84712 4294967128
533.6842 3411.4739 -168.03017 4294967128
535.19531 3411.7166 -168.30177 4294967128
538.61639 3411.6687 -168.06961 4294967128
540.59418 3411.4309 -168.96951 4294967128
547.43054 3411.1296 -168.49521 4294967128
548.8139 3411.0139 -168.41304 4294967128
581.63141 3412.0952 -168.3828 4294967128
583.37683 3413.8101 -168.64615 4294967128
459.19647 3416.9919 -168.93098 4294967128
463.43109 3416.6709 -168.80135 4294967128
467.30249 3416.3662 -168.53893 4294967128
473.40338 3415.8684 -168.73499 4294967128
475.18689 3415.7529 -168.65065 4294967128
477.48602 3415.605 -168.78793 4294967128
481.13541 3415.3379 -168.65251 4294967128
581.35211 3415.2493 -168.09332 4294967128
427.39554 3419.2483 -168.51596 4294967128
431.77094 3419.0017 -168.79715 4294967128
435.39261 3418.7285 -168.51503 4294967128
439.32584 3418.4685 -168.86749 4294967128
441.29184 3418.3137 -168.83803 4294967128
443.39999 3418.1365 -168.72992 4294967128
445.41568 3417.9871 -168.94379 4294967128
447.11847 3417.8347 -168.49167 4294967128
451.25519 3417.5879 -168.59505 4294967128
453.39227 3417.468 -168.87259 4294967128
455.26898 3417.3086 -168.69281 4294967128
583.34863 3418.8184 -168.92303 4294967128
397.14532 3421.5085 -168.34192 4294967128
401.44547 3421.2434 -168.6142 4294967128
409.6225 3420.6711 -168.57481 4294967128
413.3634 3420.364 -168.66516 4294967128
581.47528 3420.8574 -168.22055 4294967128
583.56427 3420.9333 -168.9398 4294967128
581.83167 3424.7183 -168.08124 4294967128
583.70062 3423.5208 -168.7252 4294967128
581.60034 3428.0806 -168.60277 4294967128
583.58441 3426.2441 -168.65205 4294967128
554.92859 3431.7151 -168.11057 4294967128
560.7796 3431.6418 -168.82288 4294967128
567.38617 3431.3137 -168.18832 4294967128
569.48016 3431.1509 -168.17656 4294967128
573.39282 3430.4636 -168.07307 4294967128
579.28632 3429.2649 -168.57399 4294967128
533.65118 3434.1799 -168.09663 4294967128
547.9505 3432.616 -168.19916 4294967128
549.55774 3432.6528 -168.79706 4294967128
551.50818 3432.2844 -168.7206 4294967128
487.04861 3437.6831 -168.48831 4294967128
489.86005 3437.4976 -168.58473 4294967128
493.28204 3437.2358 -168.53171 4294967128
499.16977 3436.8953 -168.10735 4294967128
503.03793 3436.5803 -168.20335 4294967128
505.49854 3436.3713 -168.129 4294967128
507.38904 3436.2327 -168.30194 4294967128
509.56345 3436.0906 -168.42915 4294967128
511.32343 3436.0557 -168.08646 4294967128
441.26169 3440.801 -168.62173 4294967128
443.7392 3440.6521 -168.47803 4294967128
445.58139 3440.5142 -168.65244 4294967128
460.16464 3439.5735 -168.79428 4294967128
463.57092 3439.2966 -168.76999 4294967128
469.53769 3438.7827 -168.76599 4294967128
401.5036 3443.5313 -168.20097 4294967128
403.43796 3443.3982 -168.23701 4294967128
407.38123 3443.0864 -168.07066 4294967128
411.93756 3442.7329 -168.29974 4294967128
413.71347 3442.6116 -168.35019 4294967128
416.0098 3442.4431 -168.41725 4294967128
418.98154 3442.2446 -168.36017 4294967128
421.35916 3442.0876 -168.22092 4294967128
425.09891 3441.824 -168.3461 4294967128
429.15076 3441.6533 -168.01625 4294967128
431.89514 3441.3347 -168.80771 4294967128
435.46619 3441.0908 -168.58777 4294967128
436.86087 3441.0107 -168.6537 4294967128
557.74927 3409.2085 -167.71933 4294967129
564.37408 3408.7593 -167.32585 4294967129
567.69641 3408.9355 -167.84244 4294967129
569.69531 3409.4607 -167.07864 4294967129
573.61676 3410.5615 -167.17999 4294967129
529.30359 3411.8196 -167.81792 4294967129
541.44031 3411.5564 -167.33813 4294967129
542.49585 3411.5288 -167.33302 4294967129
543.35034 3411.5845 -167.20496 4294967129
544.53253 3411.4241 -167.89822 4294967129
546.16046 3411.5623 -167.22318 4294967129
549.8819 3411.1594 -167.57253 4294967129
551.3111 3411.0593 -167.4673 4294967129
577.38794 3411.8572 -167.47986 4294967129
579.54968 3413.6367 -167.47278 4294967129
463.93756 3416.6167 -167.09846 4294967129
577.47968 3416.3015 -167.05066 4294967129
579.64459 3416.3469 -167.66536 4294967129
577.26733 3418.4639 -167.08031 4294967129
579.61267 3418.7185 -167.77866 4294967129
577.22034 3421.1306 -167.13556 4294967129
579.60846 3423.6792 -167.4903 4294967129
577.40527 3427.9749 -167.31981 4294967129
579.80414 3426.3699 -167.41458 4294967129
549.42517 3431.9961 -167.28711 4294967129
553.62488 3431.4294 -167.51462 4294967129
555.21887 3431.0581 -167.12917 4294967129
556.07001 3431.324 -167.72607 4294967129
557.94684 3431.2168 -167.96455 4294967129
563.44537 3431.6379 -167.87093 4294967129
567.22803 3430.6875 -167.10947 4294967129
571.13672 3430.7039 -167.85616 4294967129
575.29333 3429.2178 -167.39444 4294967129
525.979 3434.9717 -167.84088 4294967129
529.60901 3434.6584 -167.90395 4294967129
531.46368 3434.4819 -167.94176 4294967129
536.19995 3433.5833 -167.49535 4294967129
539.0199 3433.3811 -167.71117 4294967129
540.49408 3433.0637 -167.16739 4294967129
542.87708 3432.8066 -167.40611 4294967129
544.73651 3432.4487 -167.12105 4294967129
548.2348 3432.0396 -167.0309 4294967129
550.52588 3432.073 -167.73293 4294967129
521.09387 3435.4836 -167.9283 4294967129
398.69241 3443.6992 -167.73946 4294967129
554.86493 3410.7256 -166.58836 4294967130
556.59253 3410.0979 -166.09024 4294967130
559.27679 3409.5649 -166.32318 4294967130
561.63922 3409.1299 -166.65431 4294967130
563.42615 3409.1736 -166.27617 4294967130
499.42633 3413.8708 -166.13031 4294967130
501.53592 3413.6716 -166.29311 4294967130
507.34024 3413.1768 -166.16429 4294967130
511.6532 3413.0002 -166.34663 4294967130
524.26556 3412.2002 -166.48225 4294967130
533.56 3412.1218 -166.08856 4294967130
536.26569 3412.0833 -166.33369 4294967130
539.92041 3411.7852 -166.81677 4294967130
540.82953 3411.9099 -166.16766 4294967130
546.97943 3411.9863 -166.10838 4294967130
548.44 3411.6873 -166.66829 4294967130
550.75 3411.7727 -166.25955 4294967130
552.62134 3411.3965 -166.43019 4294967130
553.7179 3411.0522 -166.55844 4294967130
575.58118 3412.707 -166.69473 4294967130
577.54309 3413.5889 -166.90329 4294967130
458.84955 3416.9729 -166.55455 4294967130
465.49268 3416.4272 -166.16602 4294967130
471.70148 3415.9358 -166.69168 4294967130
473.58203 3415.7976 -166.30089 4294967130
475.59912 3415.6868 -166.65079 4294967130
477.40869 3415.5134 -166.09853 4294967130
479.58115 3415.3379 -166.07785 4294967130
481.61621 3415.1953 -166.40404 4294967130
573.64844 3415.9341 -166.00636 4294967130
575.09265 3416.3813 -166.40536 4294967130
431.74139 3418.813 -166.08759 4294967130
433.55368 3418.6431 -166.25771 4294967130
437.24762 3418.384 -166.05205 4294967130
441.332 3418.0762 -166.20357 4294967130
443.74426 3417.9536 -166.52673 4294967130
447.46069 3417.6228 -166.22401 4294967130
449.43295 3417.5095 -166.02133 4294967130
453.60709 3417.3252 -166.48332 4294967130
455.2919 3417.2141 -166.25919 4294967130
457.3219 3417.0862 -166.53847 4294967130
573.47601 3418.783 -166.24477 4294967130
403.02734 3420.925 -166.10173 4294967130
573.70068 3420.9666 -166.35457 4294967130
573.76392 3424.53 -166.11583 4294967130
575.46637 3423.3499 -166.52771 4294967130
578.02545 3425.9172 -166.96199 4294967130
575.64514 3426.0591 -166.55 4294967130
551.45648 3430.9663 -166.47029 4294967130
554.97528 3430.2698 -166.30087 4294967130
556.64484 3430.0374 -166.38345 4294967130
558.48395 3430.0449 -166.44502 4294967130
559.96808 3430.5769 -166.91391 4294967130
561.48438 3430.4509 -166.42174 4294967130
563.6377 3430.6802 -166.58678 4294967130
565.6308 3429.9507 -166.29738 4294967130
567.28455 3429.3887 -166.13989 4294967130
569.9314 3429.2727 -166.45689 4294967130
571.57013 3429.5044 -166.84872 4294967130
573.26233 3429.1816 -166.98665 4294967130
532.78113 3433.5188 -166.24228 4294967130
536.75238 3433.0708 -166.02318 4294967130
538.10907 3432.9495 -166.03313 4294967130
539.61676 3432.9031 -166.32095 4294967130
541.65302 3432.8003 -166.90945 4294967130
542.46411 3432.2388 -166.14005 4294967130
546.86432 3432.0518 -166.87988 4294967130
498.46573 3437.1284 -166.04539 4294967130
445.3284 3440.7668 -166.01772 4294967130
461.67273 3439.645 -166.18811 4294967130
463.66479 3439.5149 -166.01123 4294967130
467.20215 3439.2588 -166.17252 4294967130
427.26733 3442.03 -166.07745 4294967130
433.2742 3441.5095 -166.01443 4294967130
435.52084 3441.3167 -166.11378 4294967130
441.22668 3441.0334 -166.07004 4294967130
565.15039 3409.6875 -165.4189 4294967131
567.56494 3410.1064 -165.58347 4294967131
569.22131 3410.6707 -165.83076 4294967131
505.3663 3413.4397 -165.64577 4294967131
509.181 3413.2185 -165.59874 4294967131
513.21606 3412.8909 -165.73679 4294967131
515.72968 3412.8755 -165.71667 4294967131
517.62561 3412.6235 -165.5945 4294967131
520.4079 3412.5923 -165.47574 4294967131
525.73364 3412.1792 -165.60141 4294967131
531.36511 3411.9045 -165.5387 4294967131
538.2334 3412.3328 -165.56407 4294967131
542.15497 3412.1309 -165.84944 4294967131
544.3465 3412.1494 -165.98199 4294967131
546.09021 3412.5842 -165.41727 4294967131
547.66156 3412.7607 -165.18063 4294967131
549.51453 3412.5603 -165.41809 4294967131
550.82733 3412.8689 -165.05246 4294967131
552.6427 3412.572 -165.13231 4294967131
554.26868 3411.7583 -165.50404 4294967131
555.7713 3411.3521 -165.42258 4294967131
569.63531 3412.9045 -165.19655 4294967131
571.77106 3412.0208 -165.83159 4294967131
573.54132 3413.438 -165.84225 4294967131
469.13699 3416.0769 -165.81998 4294967131
483.1748 3415.0383 -165.974 4294967131
569.56622 3416.2964 -165.20421 4294967131
571.70398 3416.1523 -165.58751 4294967131
413.7735 3419.9932 -165.86583 4294967131
427.68509 3418.9546 -165.97346 4294967131
429.14722 3418.988 -165.51561 4294967131
439.09515 3418.2366 -165.8273 4294967131
397.10193 3421.3005 -165.61656 4294967131
399.29639 3421.1304 -165.77693 4294967131
401.26022 3421.0081 -165.63483 4294967131
405.37183 3420.8267 -165.8551 4294967131
409.52634 3420.4241 -165.81244 4294967131
410.43188 3420.4126 -165.04224 4294967131
564.14728 3425.4744 -165.09529 4294967131
565.87268 3423.075 -165.04532 4294967131
567.61151 3425.7673 -165.09265 4294967131
555.59589 3428.8638 -165.39828 4294967131
556.90314 3428.1331 -165.16917 4294967131
558.23047 3428.7847 -165.57025 4294967131
559.56628 3427.9165 -165.23392 4294967131
561.84766 3427.6738 -165.38693 4294967131
565.02075 3427.9309 -165.63322 4294967131
568.08887 3427.7241 -165.59363 4294967131
569.3269 3427.0742 -165.64154 4294967131
571.86218 3426.082 -165.67197 4294967131
543.52081 3431.8455 -165.86476 4294967131
544.74518 3431.4429 -165.53714 4294967131
545.79822 3431.499 -165.78552 4294967131
548.94916 3430.8269 -165.70442 4294967131
550.87665 3429.6133 -165.02319 4294967131
553.91882 3429.469 -165.58894 4294967131
559.90143 3429.1885 -165.85933 4294967131
563.55347 3429.2212 -165.97084 4294967131
523.7572 3434.9683 -165.89864 4294967131
524.75757 3434.6914 -165.2719 4294967131
527.45911 3434.5378 -165.79738 4294967131
529.69635 3434.2776 -165.9749 4294967131
535.32013 3432.7422 -165.49052 4294967131
537.06891 3432.436 -165.02338 4294967131
539.30334 3432.2146 -165.1263 4294967131
540.797 3432.3069 -165.73827 4294967131
541.82208 3432.1841 -165.85237 4294967131
484.63654 3437.9924 -165.65939 4294967131
491.63547 3437.5366 -165.5246 4294967131
493.09534 3437.6165 -165.51157 4294967131
494.8934 3437.3416 -165.58554 4294967131
499.14432 3437.1169 -165.70201 4294967131
502.34674 3436.718 -165.93167 4294967131
503.20926 3436.6602 -165.73022 4294967131
505.94553 3436.5696 -165.84029 4294967131
507.59644 3436.2563 -165.6433 4294967131
511.40381 3435.9587 -165.71793 4294967131
513.12946 3436.0642 -165.95816 4294967131
515.50122 3435.8687 -165.66789 4294967131
521.35181 3435.3992 -165.70554 4294967131
443.76517 3440.8887 -165.92535 4294967131
447.35367 3440.6284 -165.92743 4294967131
451.13351 3440.4927 -165.7885 4294967131
479.3251 3438.3472 -165.91585 4294967131
396.84641 3443.6934 -165.50755 4294967131
399.41632 3443.5505 -165.73146 4294967131
403.3208 3443.4707 -165.41464 4294967131
407.30698 3443.0623 -165.90294 4294967131
409.38205 3442.908 -165.71519 4294967131
415.72037 3442.5889 -165.94331 4294967131
421.33414 3442.2451 -165.81909 4294967131
422.88815 3442.0322 -165.55299 4294967131
425.09967 3442.011 -165.80667 4294967131
429.74738 3441.8865 -165.92033 4294967131
437.18182 3441.2754 -165.85281 4294967131
559.34375 3410.8257 -164.83864 4294967132
561.48108 3410.5085 -164.90039 4294967132
509.72018 3413.3262 -164.23555 4294967132
533.41248 3412.7942 -164.20113 4294967132
534.59076 3412.6487 -164.43283 4294967132
535.67896 3412.8438 -164.12073 4294967132
536.76495 3412.8662 -164.32649 4294967132
539.9928 3412.7007 -164.87318 4294967132
543.28729 3413.2385 -164.57068 4294967132
544.95233 3413.853 -164.29588 4294967132
552.2995 3413.8818 -164.29352 4294967132
553.36798 3413.5605 -164.36748 4294967132
554.33063 3413.1008 -164.48164 4294967132
555.68188 3412.9023 -164.40793 4294967132
557.19879 3412.9961 -164.28746 4294967132
558.75916 3412.7803 -164.30809 4294967132
560.66949 3412.9246 -164.38263 4294967132
563.62781 3413.1218 -164.57861 4294967132
565.6449 3412.9878 -164.39427 4294967132
566.01294 3411.4089 -164.76794 4294967132
497.93015 3414.0825 -164.19118 4294967132
546.90881 3414.2451 -164.10526 4294967132
548.8429 3414.2266 -164.12891 4294967132
550.6239 3414.146 -164.20164 4294967132
561.54346 3415.5815 -164.16429 4294967132
563.39587 3415.7656 -164.40237 4294967132
565.17371 3416.0352 -164.61389 4294967132
567.83936 3416.1853 -164.91284 4294967132
445.96716 3417.8958 -164.33273 4294967132
561.27893 3418.4707 -164.14731 4294967132
563.30273 3417.9585 -164.43823 4294967132
415.37827 3420.1555 -164.10388 4294967132
559.56848 3421.2063 -164.10353 4294967132
560.95337 3420.5549 -164.25305 4294967132
561.18573 3422.387 -164.46007 4294967132
563.33209 3420.9619 -164.62556 4294967132
555.45056 3425.3574 -164.09027 4294967132
557.3941 3425.064 -164.28598 4294967132
558.85797 3424.2515 -164.36827 4294967132
561.14441 3424.9016 -164.74954 4294967132
563.17065 3423.3687 -164.79393 4294967132
548.25153 3428.6926 -164.02141 4294967132
549.80927 3428.929 -164.36794 4294967132
551.22174 3427.7019 -164.00124 4294967132
552.50012 3428.7261 -164.83325 4294967132
554.07007 3427.6001 -164.56201 4294967132
555.0835 3427.7305 -164.80261 4294967132
556.42871 3426.9907 -164.66377 4294967132
558.19928 3427.0432 -164.85255 4294967132
559.88794 3426.6267 -164.89897 4294967132
532.69171 3431.7007 -164.03554 4294967132
537.4696 3431.7773 -164.27991 4294967132
540.20288 3431.2229 -164.36551 4294967132
542.06897 3430.9114 -164.66006 4294967132
543.97382 3430.2788 -164.46854 4294967132
545.50336 3430.2012 -164.52422 4294967132
546.98743 3430.4431 -164.99741 4294967132
525.00952 3434.3977 -164.44939 4294967132
527.47003 3434.2151 -164.82381 4294967132
529.3288 3433.928 -164.7307 4294967132
530.56036 3433.0842 -164.56406 4294967132
538.17542 3432.1824 -164.78389 4294967132
511.96353 3435.8992 -164.57779 4294967132
517.14484 3435.3423 -164.33549 4294967132
519.35156 3435.0229 -164.44182 4294967132
413.67868 3442.3364 -164.11264 4294967132
429.67502 3441.5571 -164.08667 4294967132
503.21494 3413.843 -163.621 4294967133
507.12128 3413.5061 -163.85985 4294967133
511.36029 3413.4229 -163.55609 4294967133
513.61829 3413.259 -163.75659 4294967133
519.29004 3413.0259 -163.5531 4294967133
521.7149 3412.8335 -163.73117 4294967133
526.33722 3412.5505 -163.73775 4294967133
527.34454 3412.5845 -163.63847 4294967133
529.96674 3412.4302 -163.86792 4294967133
531.86383 3413.3672 -163.50348 4294967133
533.59399 3413.478 -163.17181 4294967133
534.78577 3413.3857 -163.23721 4294967133
537.74664 3413.9656 -163.29778 4294967133
541.52393 3413.9941 -163.78015 4294967133
460.84955 3416.9236 -163.11935 4294967133
465.95169 3416.2703 -163.90251 4294967133
473.68216 3415.8193 -163.86156 4294967133
475.52414 3415.7253 -163.6893 4294967133
479.27704 3415.5005 -163.59583 4294967133
481.28156 3415.137 -163.46524 4294967133
493.79156 3414.384 -163.70172 4294967133
539.56647 3414.3198 -163.27496 4294967133
543.41699 3415.2754 -163.32813 4294967133
548.47754 3416.375 -163.27058 4294967133
550.46918 3415.9009 -163.44386 4294967133
552.26733 3415.4685 -163.61389 4294967133
553.68903 3416.7004 -163.33862 4294967133
554.31287 3414.8191 -163.76825 4294967133
555.07349 3416.7976 -163.38446 4294967133
556.21777 3415.2139 -163.60635 4294967133
557.37817 3415.0054 -163.66618 4294967133
558.05908 3416.4844 -163.62807 4294967133
559.31097 3415.3623 -163.89632 4294967133
419.54498 3419.8333 -163.83725 4294967133
423.33951 3419.7437 -163.67886 4294967133
425.74576 3419.2449 -163.95711 4294967133
429.52258 3419.1689 -163.75487 4294967133
433.6311 3418.8828 -163.76273 4294967133
441.34659 3418.2532 -163.86043 4294967133
443.14722 3418.1201 -163.60638 4294967133
447.4895 3417.7014 -163.60735 4294967133
451.40485 3417.5713 -163.62485 4294967133
453.72867 3417.4023 -163.78323 4294967133
455.46841 3417.3613 -163.22209 4294967133
552.30762 3417.561 -163.15462 4294967133
554.39026 3418.8093 -163.20538 4294967133
556.59576 3418.0149 -163.43909 4294967133
557.32343 3419.4824 -163.57497 4294967133
559.15271 3418.8938 -163.83905 4294967133
397.27359 3421.8049 -163.698 4294967133
399.38678 3421.5974 -163.71394 4294967133
401.44672 3421.4653 -163.76227 4294967133
403.16147 3421.3398 -163.75996 4294967133
405.46408 3421.0278 -163.81244 4294967133
409.21054 3420.7837 -163.38347 4294967133
411.00235 3420.5652 -163.54794 4294967133
413.77188 3420.3601 -163.5226 4294967133
552.5979 3420.2495 -163.0145 4294967133
554.66907 3421.824 -163.39534 4294967133
556.40662 3421.4844 -163.63785 4294967133
557.83679 3420.9475 -163.78978 4294967133
551.14233 3424.9023 -163.19662 4294967133
552.96613 3423.3887 -163.28827 4294967133
541.32367 3428.4514 -163.08517 4294967133
543.00012 3428.2502 -163.26752 4294967133
544.75989 3428.0295 -163.33771 4294967133
546.49597 3428.2109 -163.57573 4294967133
549.55609 3426.7039 -163.38513 4294967133
552.96973 3426.3491 -163.89108 4294967133
529.50598 3431.7317 -163.09428 4294967133
536.00647 3431.1965 -163.85382 4294967133
537.03638 3430.207 -163.20767 4294967133
538.28131 3431.0464 -163.88033 4294967133
539.46448 3430.0317 -163.42474 4294967133
540.67151 3429.9778 -163.63564 4294967133
527.49933 3432.908 -163.01566 4294967133
529.27429 3433.0234 -163.44496 4294967133
484.84717 3437.7197 -163.66716 4294967133
491.84705 3437.457 -163.66122 4294967133
495.0798 3437.2153 -163.47307 4294967133
499.2908 3436.7874 -163.74237 4294967133
502.34857 3436.4744 -163.77206 4294967133
505.55618 3436.3279 -163.76831 4294967133
435.52618 3440.9885 -163.63257 4294967133
439.76001 3440.7778 -163.74088 4294967133
443.63168 3440.6001 -163.93672 4294967133
445.11353 3440.4614 -163.71771 4294967133
450.96573 3440.1145 -163.72443 4294967133
459.10703 3439.4761 -163.53961 4294967133
481.3204 3438.0112 -163.70831 4294967133
399.35571 3443.1877 -163.87462 4294967133
401.4696 3443.0667 -163.83774 4294967133
405.13263 3442.8237 -163.65382 4294967133
407.2962 3442.6985 -163.78685 4294967133
411.32199 3442.45 -163.91124 4294967133
419.10574 3441.8513 -163.79759 4294967133
423.53778 3441.7478 -163.80763 4294967133
425.29556 3441.6858 -163.85875 4294967133
431.58627 3441.2844 -163.60394 4294967133
432.72449 3441.2188 -163.7606 4294967133
509.31607 3413.9397 -162.44009 4294967134
512.02545 3413.6709 -162.79289 4294967134
513.22955 3413.7529 -162.54489 4294967134
515.82996 3413.6353 -162.57751 4294967134
517.47711 3413.4375 -162.86133 4294967134
519.24219 3413.4277 -162.37863 4294967134
523.19696 3413.2671 -162.61032 4294967134
525.4071 3413.4626 -162.11063 4294967134
527.38776 3413.342 -162.32597 4294967134
465.77585 3416.7156 -162.20689 4294967134
473.8158 3416.189 -162.12146 4294967134
479.84973 3415.8777 -162.02107 4294967134
485.28143 3415.0815 -162.93756 4294967134
489.06415 3414.8145 -162.7455 4294967134
494.42569 3414.7756 -162.44579 4294967134
495.50638 3414.7532 -162.47177 4294967134
497.50388 3414.7297 -162.20135 4294967134
499.8136 3414.5742 -162.4337 4294967134
501.08524 3414.4365 -162.53871 4294967134
505.21381 3414.1204 -162.51112 4294967134
529.43402 3414.4045 -162.21222 4294967134
532.73303 3414.76 -162.12108 4294967134
534.16705 3414.5166 -162.26924 4294967134
535.74677 3414.0103 -162.83008 4294967134
536.27655 3415.24 -162.15721 4294967134
537.11426 3415.521 -162.18825 4294967134
538.21393 3416.4331 -162.15955 4294967134
540.18219 3415.6174 -162.68584 4294967134
541.56116 3416.6299 -162.58434 4294967134
427.67865 3419.7405 -162.5479 4294967134
431.62155 3419.5513 -162.15892 4294967134
433.48761 3419.3643 -162.37433 4294967134
435.47089 3419.2761 -162.32741 4294967134
437.02493 3419.1348 -162.5022 4294967134
441.25677 3418.7361 -162.33295 4294967134
447.94788 3418.1685 -162.26955 4294967134
539.6781 3418.0498 -162.01765 4294967134
543.19421 3418.5569 -162.39951 4294967134
545.85278 3417.2957 -162.96556 4294967134
548.57751 3419.6028 -162.70386 4294967134
550.5155 3418.4214 -162.94498 4294967134
399.534 3422.3296 -162.17607 4294967134
403.32413 3421.7336 -162.58977 4294967134
405.4729 3421.4355 -162.44577 4294967134
407.09219 3421.2993 -162.25012 4294967134
411.3233 3420.8821 -162.15634 4294967134
413.50665 3420.7524 -162.05965 4294967134
417.50171 3420.5859 -162.50095 4294967134
542.52429 3422.3281 -162.07785 4294967134
544.65417 3421.5745 -162.33348 4294967134
546.91132 3421.9753 -162.52383 4294967134
550.8172 3421.5811 -162.80316 4294967134
541.90179 3425.7539 -162.35907 4294967134
543.76727 3425.2249 -162.45724 4294967134
545.71063 3425.1511 -162.65533 4294967134
547.67456 3425.7781 -162.91495 4294967134
549.10913 3423.3853 -162.73512 4294967134
532.26178 3428.3215 -162.24472 4294967134
533.54938 3427.1238 -162.02339 4294967134
535.55206 3427.9832 -162.2991 4294967134
537.39349 3427.5957 -162.36801 4294967134
538.69476 3427.074 -162.24913 4294967134
539.76642 3428.584 -162.83438 4294967134
540.16486 3426.4302 -162.2599 4294967134
525.5592 3431.9199 -162.07986 4294967134
527.53644 3431.7515 -162.2917 4294967134
528.22968 3430.0146 -162.1488 4294967134
530.76752 3429.3848 -162.48325 4294967134
533.78986 3429.4419 -162.75946 4294967134
535.99994 3429.5981 -162.86688 4294967134
515.18323 3433.9395 -162.3116 4294967134
519.54285 3433.6311 -162.54672 4294967134
521.79364 3432.9885 -162.1895 4294967134
523.64655 3432.8999 -162.47124 4294967134
525.39081 3433.2546 -162.97021 4294967134
493.36252 3436.7473 -162.23788 4294967134
497.59967 3436.5046 -162.47885 4294967134
499.31625 3436.343 -162.5183 4294967134
501.37418 3436.1489 -162.55188 4294967134
503.33731 3436.0142 -162.7458 4294967134
505.42163 3435.5051 -162.27505 4294967134
507.39536 3435.3142 -162.43503 4294967134
417.54752 3440.9766 -162.0731 4294967134
425.45883 3440.8486 -162.02472 4294967134
432.95029 3440.7554 -162.53625 4294967134
435.68771 3440.4985 -162.35669 4294967134
437.58807 3440.6018 -162.46085 4294967134
439.72778 3440.4282 -162.631 4294967134
441.16635 3440.3567 -162.56149 4294967134
443.77899 3440.196 -162.49075 4294967134
447.20541 3439.7612 -162.0666 4294967134
449.89981 3439.8228 -162.58267 4294967134
453.96661 3439.5828 -162.47763 4294967134
464.10889 3438.8403 -162.63142 4294967134
397.35193 3442.5339 -162.45248 4294967134
401.17285 3442.395 -162.4436 4294967134
402.96115 3442.1785 -162.2438 4294967134
405.94476 3442.3708 -162.80112 4294967134
409.72287 3442.0737 -162.6653 4294967134
413.9632 3441.8689 -162.9256 4294967134
415.48013 3441.1169 -162.09372 4294967134
426.51715 3441.1162 -162.41171 4294967134
429.55353 3441.2043 -162.98033 4294967134
469.20926 3416.5303 -161.98518 4294967135
477.36118 3416.0627 -161.908 4294967135
482.87564 3415.6838 -161.76482 4294967135
485.3858 3415.3567 -161.89969 4294967135
487.34906 3415.2324 -161.7692 4294967135
490.771 3415.1978 -161.53633 4294967135
507.35736 3414.9146 -161.08037 4294967135
513.62115 3414.7986 -161.10249 4294967135
515.47089 3414.7302 -161.18207 4294967135
519.52667 3414.4292 -161.37256 4294967135
521.07104 3414.4202 -161.36491 4294967135
523.3476 3414.4597 -161.37943 4294967135
527.45471 3416.2161 -161.02313 4294967135
529.08447 3416.2495 -161.28366 4294967135
531.0567 3415.6128 -161.69615 4294967135
532.35419 3416.1958 -161.37061 4294967135
533.39325 3415.7966 -161.54402 4294967135
534.711 3416.1292 -161.63599 4294967135
444.52426 3418.7432 -161.85509 4294967135
449.46561 3418.189 -161.8605 4294967135
453.63397 3417.8518 -161.86189 4294967135
455.75925 3417.6108 -161.96515 4294967135
457.46677 3417.4509 -161.84508 4294967135
463.08395 3417.0684 -161.68538 4294967135
530.26703 3417.2925 -161.0986 4294967135
531.409 3418.3994 -161.05853 4294967135
532.94727 3418.4238 -161.0845 4294967135
534.30011 3418.9106 -161.1826 4294967135
535.51587 3419.916 -161.31348 4294967135
536.43445 3418.1641 -161.55515 4294967135
537.91174 3419.4414 -161.67308 4294967135
