# .PCD v0.7 - Point Cloud Data file format
VERSION 0.7
FIELDS x y z rgba
SIZE 4 4 4 4
TYPE F F F U
COUNT 1 1 1 1
WIDTH 1147
HEIGHT 1
VIEWPOINT 0 0 0 1 0 0 0
POINTS 1147
DATA ascii
387.34808 3403.7788 -720.75372 4294966576
389.55551 3404.1626 -720.62634 4294966576
391.45471 3404.196 -720.52368 4294966576
393.31485 3404.1204 -720.42523 4294966576
395.37683 3404.3394 -720.3092 4294966576
267.20697 3407.8601 -720.20612 4294966576
269.62369 3407.8445 -720.41803 4294966576
271.2294 3407.7173 -720.51483 4294966576
273.09714 3407.7122 -720.69244 4294966576
275.44214 3406.4348 -720.16901 4294966576
277.53632 3407.6174 -720.93359 4294966576
279.19287 3407.6077 -720.99878 4294966576
283.37347 3406.4556 -720.52386 4294966576
287.22363 3406.554 -720.65558 4294966576
289.59323 3406.3105 -720.59558 4294966576
291.46628 3406.4531 -720.7132 4294966576
293.48105 3406.3396 -720.71936 4294966576
295.3551 3406.0708 -720.70758 4294966576
299.11127 3405.9089 -720.85046 4294966576
303.54813 3406.46 -720.49866 4294966576
305.37582 3406.8508 -720.70654 4294966576
306.54172 3406.4741 -720.49182 4294966576
308.28146 3406.5503 -720.54413 4294966576
310.62943 3406.7705 -720.7666 4294966576
313.41776 3406.5591 -720.71002 4294966576
314.72815 3405.2576 -720.01312 4294966576
315.85217 3406.375 -720.6673 4294966576
318.02023 3406.0764 -720.49774 4294966576
320.34427 3407.1047 -720.99725 4294966576
321.67377 3405.6116 -720.33936 4294966576
323.59784 3405.5022 -720.37262 4294966576
325.20377 3406.3945 -720.83234 4294966576
328.99188 3406.2463 -720.91888 4294966576
381.50983 3406.7175 -720.73645 4294966576
385.71399 3406.6003 -720.68414 4294966576
387.57944 3406.6584 -720.61682 4294966576
213.24043 3410.6763 -720.29962 4294966576
215.27501 3410.1602 -720.2608 4294966576
217.75471 3410.4492 -720.46814 4294966576
221.07863 3410.4863 -720.70361 4294966576
225.33202 3410.519 -720.87878 4294966576
227.53383 3410.4324 -720.87201 4294966576
229.47806 3410.5337 -720.97937 4294966576
233.44453 3408.7485 -720.0954 4294966576
235.44762 3409.1677 -720.67853 4294966576
237.3923 3408.9143 -720.0213 4294966576
238.89066 3409.6707 -720.73102 4294966576
240.15895 3409.438 -720.65601 4294966576
241.28284 3408.947 -720.20648 4294966576
242.41003 3409.3633 -720.71625 4294966576
243.56129 3409.2502 -720.61346 4294966576
245.07014 3409.7175 -720.89227 4294966576
247.40469 3409.1077 -720.13965 4294966576
249.54924 3410.2395 -720.67743 4294966576
252.0352 3409.7087 -720.10559 4294966576
254.08125 3410.8762 -720.53601 4294966576
263.72592 3410.3093 -720.45825 4294966576
265.13895 3408.2759 -720.14478 4294966576
267.10367 3409.6609 -720.77234 4294966576
383.41101 3408.7058 -720.85822 4294966576
211.42238 3412.5854 -720.45593 4294966576
215.15552 3412.2898 -720.80426 4294966576
253.02228 3411.9805 -720.92084 4294966576
255.73721 3411.3286 -720.55524 4294966576
257.33517 3411.8923 -720.67493 4294966576
258.13242 3413.3711 -720.97327 4294966576
259.58578 3412.4565 -720.7287 4294966576
261.46329 3411.8389 -720.68091 4294966576
263.24258 3412.8176 -720.93103 4294966576
265.16104 3411.9294 -720.89124 4294966576
391.63403 3411.7488 -720.97479 4294966576
205.08673 3415.6558 -720.11841 4294966576
207.47647 3415.6277 -720.43365 4294966576
208.91858 3415.7241 -720.56085 4294966576
211.54045 3415.7112 -720.74115 4294966576
213.39166 3415.9329 -720.87531 4294966576
381.45425 3416.6047 -720.79095 4294966576
391.44049 3415.2957 -720.74048 4294966576
393.59961 3415.1104 -720.61475 4294966576
395.61551 3414.1355 -720.72931 4294966576
207.30733 3418.5337 -720.1308 4294966576
209.64404 3418.5625 -720.36359 4294966576
215.40277 3418.7678 -720.86652 4294966576
308.8172 3419.9426 -720.67346 4294966576
312.94849 3419.6057 -720.44202 4294966576
319.12286 3419.1897 -720.89484 4294966576
320.44623 3419.8726 -720.43451 4294966576
321.97211 3419.6602 -720.46381 4294966576
323.14563 3419.5745 -720.5036 4294966576
324.29349 3419.4128 -720.49207 4294966576
325.33978 3419.261 -720.55762 4294966576
326.14322 3418.8977 -720.72723 4294966576
327.66687 3418.9163 -720.75824 4294966576
328.80591 3419.6084 -720.66162 4294966576
347.41367 3419.866 -720.63586 4294966576
349.55078 3419.4172 -720.7937 4294966576
351.45728 3419.4194 -720.73322 4294966576
353.36035 3419.0242 -720.92084 4294966576
355.19827 3418.9336 -720.89941 4294966576
357.54715 3418.9751 -720.68762 4294966576
359.22122 3418.9199 -720.57654 4294966576
363.63541 3418.8848 -720.53693 4294966576
377.52805 3417.4167 -720.45972 4294966576
383.51971 3417.3027 -720.47272 4294966576
385.34872 3417.063 -720.5257 4294966576
387.28979 3417.0808 -720.37842 4294966576
389.41492 3417.1296 -720.33673 4294966576
205.57138 3421.0066 -720.01324 4294966576
207.16296 3420.814 -720.23792 4294966576
249.29483 3422.6577 -720.76013 4294966576
251.38498 3422.3293 -720.7099 4294966576
254.82611 3421.9502 -720.76855 4294966576
256.616 3421.197 -720.85608 4294966576
257.54147 3422.5879 -720.51007 4294966576
258.8327 3420.9878 -720.84534 4294966576
260.36493 3422.0557 -720.64893 4294966576
262.13934 3421.9299 -720.7384 4294966576
265.0144 3421.9666 -720.82642 4294966576
299.82651 3421.9194 -720.99634 4294966576
302.4595 3422.4631 -720.07538 4294966576
304.66507 3421.5642 -720.32623 4294966576
306.07416 3420.3635 -720.80334 4294966576
307.52264 3420.9019 -720.30939 4294966576
315.71729 3420.0945 -720.29272 4294966576
317.61212 3420.5686 -720.02972 4294966576
329.82382 3420.1389 -720.46411 4294966576
331.71674 3420.8445 -720.27679 4294966576
333.54041 3420.7446 -720.78699 4294966576
335.40338 3420.697 -720.61768 4294966576
337.28113 3420.4785 -720.60797 4294966576
339.41422 3420.3342 -720.53796 4294966576
343.63507 3420.145 -720.48004 4294966576
345.61914 3420.3027 -720.20752 4294966576
205.38933 3423.7009 -720.24963 4294966576
207.3378 3423.4673 -720.44739 4294966576
211.47003 3423.3931 -720.83948 4294966576
235.1674 3424.9924 -720.41278 4294966576
237.35394 3424.7983 -720.26495 4294966576
239.19325 3423.7649 -720.86206 4294966576
240.71008 3424.8777 -720.18787 4294966576
242.24623 3423.8853 -720.74524 4294966576
243.97659 3424.7712 -720.26459 4294966576
245.61996 3423.1733 -720.98608 4294966576
247.35201 3424.1655 -720.41919 4294966576
253.34146 3423.2476 -720.40588 4294966576
254.82349 3423.8657 -720.17535 4294966576
256.15482 3423.1997 -720.37268 4294966576
258.70258 3423.1399 -720.31732 4294966576
261.65649 3424.0234 -720.03845 4294966576
263.10458 3423.3376 -720.38104 4294966576
266.95877 3424.4697 -720.30542 4294966576
269.53326 3425.2029 -720.87604 4294966576
271.60687 3425.2476 -720.86688 4294966576
277.14972 3424.885 -720.96344 4294966576
283.03995 3424.5425 -720.71033 4294966576
203.48929 3426.6409 -720.08563 4294966576
207.34543 3427.3403 -720.54431 4294966576
209.45375 3427.0234 -720.73315 4294966576
211.27888 3427.3401 -720.75745 4294966576
213.7769 3427.8989 -720.87885 4294966576
217.32364 3428.9768 -720.45959 4294966576
218.98985 3427.7461 -720.97467 4294966576
219.30537 3428.8613 -720.40063 4294966576
221.24376 3428.7117 -720.33099 4294966576
223.37463 3427.4817 -720.87689 4294966576
225.49248 3427.3005 -720.95282 4294966576
230.09293 3426.6926 -720.62024 4294966576
232.85291 3426.343 -720.01971 4294966576
209.35745 3429.1499 -720.10608 4294966576
215.35434 3429.1797 -720.53247 4294966576
379.47815 3398.9966 -719.24152 4294966577
381.50342 3398.99 -719.27924 4294966577
383.72531 3398.7644 -719.11652 4294966577
387.42184 3398.637 -719.07269 4294966577
389.47635 3398.6289 -719.10388 4294966577
391.7272 3398.6035 -719.08325 4294966577
393.35495 3398.4795 -719.01978 4294966577
331.45105 3401.6941 -719.05554 4294966577
335.64041 3401.5249 -719.33875 4294966577
337.46216 3401.3093 -719.37695 4294966577
339.78662 3401.3779 -719.41827 4294966577
341.68008 3401.2244 -719.30103 4294966577
343.29535 3401.2573 -719.53784 4294966577
345.7131 3401.0652 -719.44012 4294966577
347.51663 3401.0164 -719.51312 4294966577
349.16992 3401.0491 -719.64728 4294966577
351.27136 3400.9688 -719.65948 4294966577
353.97113 3400.6182 -719.48724 4294966577
355.70959 3400.6147 -719.65002 4294966577
359.41428 3399.8174 -719.50598 4294966577
361.36453 3400.0703 -719.95874 4294966577
363.26709 3399.575 -719.5495 4294966577
365.52332 3399.4434 -719.50446 4294966577
367.22229 3399.3774 -719.51257 4294966577
369.51099 3399.1416 -719.28503 4294966577
373.52438 3399.1538 -719.29883 4294966577
377.47519 3399.0488 -719.30029 4294966577
385.47131 3399.8879 -719.93475 4294966577
387.31342 3399.8687 -719.93616 4294966577
389.39984 3399.8816 -719.90784 4294966577
391.29962 3399.7297 -719.82361 4294966577
393.53381 3399.7324 -719.79614 4294966577
395.21796 3399.7227 -719.73962 4294966577
293.56375 3404.8279 -719.6778 4294966577
298.15866 3403.9316 -719.12701 4294966577
299.75888 3403.813 -719.14929 4294966577
303.435 3404.9912 -719.48584 4294966577
309.40015 3404.9329 -719.39606 4294966577
312.66446 3404.6899 -719.42065 4294966577
314.13644 3404.2629 -719.08643 4294966577
316.26224 3404.5183 -719.36249 4294966577
318.25522 3404.2466 -719.28125 4294966577
320.02759 3404.7236 -719.73297 4294966577
322.23004 3403.9182 -719.20227 4294966577
324.8688 3403.6223 -719.36603 4294966577
327.25409 3402.636 -719.58929 4294966577
329.45758 3402.7253 -719.87219 4294966577
235.66719 3407.9072 -719.04712 4294966577
263.43079 3407.0342 -719.11633 4294966577
265.39993 3406.9683 -719.33771 4294966577
269.48096 3406.4226 -719.45532 4294966577
271.7793 3405.7681 -719.10236 4294966577
272.97928 3405.6304 -719.03058 4294966577
273.49701 3406.3574 -719.97607 4294966577
277.57846 3405.4968 -719.43512 4294966577
279.53418 3405.4355 -719.49103 4294966577
281.52719 3405.3481 -719.45563 4294966577
285.59976 3405.1892 -719.49707 4294966577
287.44183 3405.1633 -719.59479 4294966577
289.48026 3405.054 -719.60767 4294966577
291.78134 3405.0715 -719.76617 4294966577
301.31259 3405.2717 -719.92462 4294966577
305.15161 3405.603 -719.96368 4294966577
306.98334 3405.1543 -719.56891 4294966577
311.43097 3405.2761 -719.8808 4294966577
313.75546 3405.0894 -719.86237 4294966577
211.48438 3410.439 -719.77643 4294966577
215.46465 3409.7087 -719.85083 4294966577
217.36987 3409.2517 -719.48254 4294966577
219.1503 3409.4585 -719.77985 4294966577
223.25699 3409.3301 -719.96252 4294966577
225.10464 3409.1809 -719.86096 4294966577
227.47827 3409.0703 -719.84473 4294966577
229.26967 3409.0447 -719.96161 4294966577
231.27542 3408.7766 -719.85486 4294966577
239.44943 3408.6309 -719.64679 4294966577
242.90733 3408.5811 -719.78058 4294966577
244.3131 3408.6458 -719.85602 4294966577
245.60477 3408.4524 -719.55634 4294966577
248.94679 3408.6511 -719.78821 4294966577
250.0462 3408.585 -719.60974 4294966577
254.65047 3409.2393 -719.61664 4294966577
257.4585 3409.3853 -719.5769 4294966577
258.89615 3409.522 -719.72595 4294966577
261.03329 3409.5103 -719.82794 4294966577
263.00192 3408.4641 -719.6676 4294966577
201.29924 3413.7776 -719.32123 4294966577
203.1989 3412.9575 -719.30005 4294966577
205.32178 3412.7813 -719.59827 4294966577
207.4158 3411.9382 -719.64801 4294966577
209.25737 3411.2524 -719.71411 4294966577
197.6113 3415.6309 -719.00983 4294966577
199.26726 3415.7173 -719.34247 4294966577
201.39291 3415.8833 -719.526 4294966577
203.58626 3415.949 -719.85315 4294966577
395.3114 3416.7124 -719.70782 4294966577
199.58768 3418.7039 -719.05219 4294966577
201.58159 3418.6667 -719.3598 4294966577
203.33803 3418.6729 -719.64966 4294966577
205.14665 3418.7437 -719.86548 4294966577
359.31653 3419.9238 -719.2359 4294966577
361.76218 3419.7961 -719.02887 4294966577
365.23953 3419.7297 -719.28564 4294966577
373.423 3419.0798 -719.02594 4294966577
377.20331 3418.5457 -719.09131 4294966577
379.28775 3418.4844 -719.0097 4294966577
381.31192 3418.3635 -719.30835 4294966577
385.34698 3418.324 -719.16742 4294966577
391.28113 3417.0823 -719.87238 4294966577
393.49304 3417.1191 -719.49286 4294966577
199.58191 3420.835 -719.06 4294966577
201.48544 3420.9802 -719.39789 4294966577
203.13469 3420.7939 -719.63928 4294966577
304.26273 3422.7222 -719.6001 4294966577
306.38937 3421.6592 -719.9646 4294966577
307.51941 3422.123 -719.38788 4294966577
308.88998 3421.6086 -719.61212 4294966577
310.50778 3420.7832 -719.98846 4294966577
314.75534 3421.3665 -719.21039 4294966577
319.21661 3420.9558 -719.62268 4294966577
321.04059 3421.3447 -719.01141 4294966577
323.35605 3420.8174 -719.39355 4294966577
325.85266 3420.4487 -719.57593 4294966577
328.21906 3420.533 -719.80707 4294966577
329.73038 3421.4067 -719.27045 4294966577
331.19046 3422.0808 -719.35437 4294966577
333.6452 3421.9358 -719.23639 4294966577
339.50357 3421.4421 -719.13763 4294966577
345.28055 3421.032 -719.17444 4294966577
347.37372 3420.8577 -719.22394 4294966577
349.36835 3420.7517 -719.21332 4294966577
351.28467 3420.5928 -719.30493 4294966577
353.6073 3420.4863 -719.21271 4294966577
355.47794 3420.3293 -719.22565 4294966577
357.18814 3420.1062 -719.32556 4294966577
195.64838 3425.6821 -719.01001 4294966577
197.46776 3425.9988 -719.23834 4294966577
201.20114 3423.3726 -719.48993 4294966577
239.2588 3425.3843 -719.85272 4294966577
245.66151 3425.4854 -719.76721 4294966577
248.75429 3425.4724 -719.6554 4294966577
250.39798 3424.8804 -719.84344 4294966577
252.07623 3424.9692 -719.73047 4294966577
254.16573 3425.4609 -719.26874 4294966577
255.77814 3424.7747 -719.71008 4294966577
257.44305 3424.4414 -719.80194 4294966577
259.55978 3424.7356 -719.62054 4294966577
263.69656 3424.9639 -719.45935 4294966577
275.27753 3425.9873 -719.68341 4294966577
277.20377 3425.9861 -719.3045 4294966577
280.1459 3425.666 -719.36426 4294966577
281.45782 3425.6204 -719.1673 4294966577
285.27994 3425.1011 -719.66382 4294966577
287.43015 3424.9861 -719.64496 4294966577
289.49008 3424.8303 -719.67578 4294966577
291.52417 3424.8972 -719.42621 4294966577
293.38501 3424.6294 -719.41846 4294966577
295.70453 3424.5825 -719.28778 4294966577
197.1541 3428.2717 -719.11798 4294966577
199.48631 3427.4077 -719.25446 4294966577
200.99208 3426.043 -719.66052 4294966577
201.33127 3428.0735 -719.57086 4294966577
203.758 3428.0393 -719.97156 4294966577
225.58206 3428.8896 -719.89355 4294966577
227.55548 3428.8286 -719.97107 4294966577
231.42467 3427.2881 -719.94177 4294966577
242.38705 3426.2146 -719.12421 4294966577
244.24495 3426.3359 -719.11871 4294966577
247.24521 3426.2615 -719.09174 4294966577
251.14746 3426.0828 -719.0799 4294966577
267.14777 3426.3967 -719.3847 4294966577
269.69272 3426.3601 -719.2063 4294966577
273.41037 3426.064 -719.763 4294966577
201.3782 3429.2368 -719.1496 4294966577
205.00563 3429.1985 -719.73615 4294966577
207.5359 3429.9131 -719.68378 4294966577
209.16354 3429.8035 -719.85944 4294966577
211.34985 3430.342 -719.22583 4294966577
213.31055 3430.2295 -719.40375 4294966577
215.25098 3430.2295 -719.38519 4294966577
217.31566 3429.9731 -719.29968 4294966577
223.56473 3429.0251 -719.85345 4294966577
229.41872 3429.2615 -719.18091 4294966577
367.33704 3398.7314 -718.18524 4294966578
369.65268 3398.5674 -718.06677 4294966578
371.71005 3398.4309 -718.02216 4294966578
395.50003 3398.3611 -718.9292 4294966578
331.52304 3401.1448 -718.0592 4294966578
333.25992 3401.1716 -718.13873 4294966578
335.32541 3400.8857 -718.11304 4294966578
337.28351 3400.7644 -718.07043 4294966578
351.10132 3400.0574 -718.04346 4294966578
359.31094 3399.2341 -718.06335 4294966578
361.56555 3399.085 -718.17487 4294966578
277.63623 3404.7952 -718.05347 4294966578
280.99738 3404.7585 -718.14056 4294966578
302.229 3403.8525 -718.08844 4294966578
305.01944 3404.3557 -718.7796 4294966578
311.12604 3404.2837 -718.92181 4294966578
319.34952 3403.5347 -718.65881 4294966578
320.62869 3403.4238 -718.65454 4294966578
231.27371 3407.9509 -718.23102 4294966578
235.51971 3407.5791 -718.10193 4294966578
237.46138 3407.998 -718.64227 4294966578
244.27864 3407.79 -718.00018 4294966578
246.80634 3407.7605 -718.39111 4294966578
248.86179 3407.5913 -718.31055 4294966578
250.92751 3407.751 -718.46405 4294966578
252.81238 3407.7952 -718.40002 4294966578
257.42538 3407.6392 -718.1004 4294966578
261.65936 3407.4417 -718.59467 4294966578
272.62433 3405.2698 -718.06683 4294966578
275.13788 3405.0859 -718.14233 4294966578
205.57321 3410.9668 -718.62268 4294966578
207.76384 3410.7183 -718.90515 4294966578
209.44768 3410.1445 -718.49908 4294966578
216.7047 3408.9204 -718.15979 4294966578
219.08879 3408.7576 -718.21198 4294966578
221.79883 3408.5715 -718.13733 4294966578
225.56807 3408.322 -718.18921 4294966578
227.30832 3408.2451 -718.27429 4294966578
229.36234 3408.0972 -718.1908 4294966578
241.48653 3408.1235 -718.82428 4294966578
256.2229 3408.3157 -718.81171 4294966578
259.29819 3408.0583 -718.66107 4294966578
193.39732 3413.3875 -718.28223 4294966578
195.43436 3413.5244 -718.53052 4294966578
197.42542 3412.332 -718.29358 4294966578
199.29973 3413.5408 -718.98376 4294966578
201.42616 3412.1909 -718.78955 4294966578
203.16954 3411.062 -718.22925 4294966578
187.72473 3415.4807 -718.00024 4294966578
189.03877 3415.7207 -718.19421 4294966578
191.25079 3414.9573 -718.63843 4294966578
193.4093 3415.6897 -718.63422 4294966578
195.27489 3415.5144 -718.77881 4294966578
189.34143 3418.1367 -718.18298 4294966578
191.40765 3418.115 -718.34613 4294966578
193.2709 3418.228 -718.47516 4294966578
195.32944 3418.2878 -718.64069 4294966578
198.02252 3418.821 -718.88269 4294966578
375.36899 3418.811 -718.92584 4294966578
379.07285 3418.8701 -718.13916 4294966578
381.51807 3418.8716 -718.2785 4294966578
383.89871 3418.8782 -718.14606 4294966578
387.33801 3418.5898 -718.211 4294966578
389.74066 3418.3618 -718.15936 4294966578
393.2319 3417.855 -718.32562 4294966578
395.55521 3417.7654 -718.04657 4294966578
191.77597 3420.8506 -718.20978 4294966578
197.44466 3421.0146 -718.78156 4294966578
306.02332 3422.9861 -718.74817 4294966578
308.59204 3422.9219 -718.14227 4294966578
310.13129 3422.1726 -718.85626 4294966578
311.8233 3421.8721 -718.80475 4294966578
313.54974 3421.8342 -718.64301 4294966578
316.4838 3421.6558 -718.88318 4294966578
318.02011 3421.7446 -718.76923 4294966578
319.34415 3422.0718 -718.09467 4294966578
322.44171 3421.7383 -718.35352 4294966578
324.599 3421.4045 -718.5932 4294966578
331.38806 3422.5122 -718.18042 4294966578
335.54492 3422.2476 -718.13965 4294966578
337.5256 3422.1624 -718.31848 4294966578
339.18466 3421.9495 -718.07739 4294966578
341.41745 3421.7668 -718.02771 4294966578
351.25995 3421.0229 -718.35254 4294966578
357.44269 3420.5535 -718.20239 4294966578
359.32706 3420.3977 -718.06262 4294966578
191.26659 3425.6738 -718.6228 4294966578
193.6723 3425.9609 -718.79907 4294966578
258.11774 3425.8589 -718.82782 4294966578
261.33136 3425.7617 -718.89935 4294966578
287.2897 3425.6353 -718.04492 4294966578
289.38586 3425.4739 -718.04553 4294966578
297.78143 3425.0605 -718.14868 4294966578
300.58148 3423.874 -718.64313 4294966578
302.51001 3423.592 -718.90894 4294966578
303.9079 3423.4092 -718.87152 4294966578
185.27251 3428.6035 -718.28162 4294966578
187.42084 3428.7983 -718.23663 4294966578
189.44412 3428.6165 -718.44513 4294966578
191.11497 3428.8237 -718.53186 4294966578
193.64919 3428.1243 -718.7558 4294966578
231.44797 3428.3669 -718.5979 4294966578
235.91853 3426.8499 -718.76373 4294966578
238.51448 3426.6257 -718.66626 4294966578
240.4052 3426.4587 -718.81708 4294966578
243.71515 3427.1519 -718.15729 4294966578
245.54297 3427.0991 -718.11914 4294966578
248.42229 3426.749 -718.63873 4294966578
249.9344 3426.8601 -718.23334 4294966578
252.27266 3426.7798 -718.15015 4294966578
256.26505 3426.1755 -718.53857 4294966578
259.49353 3426.3042 -718.34399 4294966578
262.55548 3426.1182 -718.52271 4294966578
265.88705 3426.3679 -718.19641 4294966578
267.38022 3426.9158 -718.13531 4294966578
273.2337 3426.6479 -718.02258 4294966578
275.60941 3426.4905 -718.04712 4294966578
283.26813 3426.043 -718.05139 4294966578
187.30936 3429.9167 -718.03967 4294966578
191.3335 3429.9009 -718.28857 4294966578
193.34978 3429.687 -718.43103 4294966578
195.72148 3429.4065 -718.54517 4294966578
204.95267 3430.3401 -718.90302 4294966578
213.12791 3430.5684 -718.37177 4294966578
219.39584 3430.3181 -718.04663 4294966578
221.13795 3430.1431 -718.08307 4294966578
229.55846 3429.6841 -718.08453 4294966578
375.11752 3398.3347 -717.87946 4294966579
377.48828 3398.2295 -717.88055 4294966579
379.70816 3398.113 -717.84271 4294966579
381.60828 3398.0503 -717.87 4294966579
385.38998 3397.8521 -717.75903 4294966579
387.45065 3397.7483 -717.55975 4294966579
389.91092 3397.5271 -717.20752 4294966579
393.34418 3397.3599 -717.28003 4294966579
395.30072 3397.2764 -717.31641 4294966579
325.46173 3401.8311 -717.84698 4294966579
327.53793 3401.6558 -717.95337 4294966579
329.45926 3401.4849 -717.99969 4294966579
339.69525 3400.7195 -717.93262 4294966579
343.74704 3400.4436 -717.93494 4294966579
345.64255 3400.3218 -717.95154 4294966579
349.05826 3400.127 -717.96326 4294966579
354.07675 3399.793 -717.90149 4294966579
355.66483 3399.6919 -717.9397 4294966579
283.64276 3404.583 -717.89209 4294966579
285.37964 3404.4812 -717.91858 4294966579
287.35263 3404.3542 -717.90057 4294966579
289.39456 3404.217 -717.87598 4294966579
291.18188 3404.0901 -717.8576 4294966579
293.40598 3403.8989 -717.883 4294966579
297.69617 3403.5112 -717.85968 4294966579
299.95746 3403.3494 -717.87732 4294966579
304.8999 3403.5271 -717.42426 4294966579
307.45074 3403.8391 -717.91229 4294966579
309.98859 3403.7859 -717.99103 4294966579
312.39526 3403.593 -717.85046 4294966579
315.25784 3403.3538 -717.72632 4294966579
317.87985 3403.2012 -717.84973 4294966579
320.04721 3402.8 -717.55396 4294966579
321.55966 3402.8511 -717.89923 4294966579
323.21765 3402.5793 -717.77972 4294966579
234.13652 3407.6829 -717.99457 4294966579
239.41457 3407.7683 -717.87213 4294966579
247.84683 3407.2007 -717.32562 4294966579
248.51772 3407.0635 -717.09369 4294966579
254.52827 3407.5364 -717.94116 4294966579
255.88091 3407.1216 -717.23889 4294966579
258.41815 3407.0217 -717.15686 4294966579
260.03091 3406.9626 -717.55231 4294966579
261.51639 3406.2603 -717.43146 4294966579
263.43021 3406.146 -717.65613 4294966579
265.72992 3405.8464 -717.47473 4294966579
267.48343 3405.7139 -717.79303 4294966579
269.42194 3405.5652 -717.99658 4294966579
271.8602 3405.2783 -717.87793 4294966579
199.23299 3410.9827 -717.81335 4294966579
201.85516 3410.7527 -717.9292 4294966579
205.64723 3410.0315 -717.20068 4294966579
207.57143 3409.7869 -717.24854 4294966579
209.38559 3409.6086 -717.40741 4294966579
213.37854 3409.1187 -717.97247 4294966579
183.23854 3413.7085 -717.09863 4294966579
185.06921 3413.5913 -717.26752 4294966579
187.69664 3413.6277 -717.61664 4294966579
191.284 3412.1084 -717.26208 4294966579
193.45381 3412.3401 -717.80688 4294966579
195.60309 3411.2029 -717.1814 4294966579
185.20251 3415.5403 -717.69269 4294966579
181.13855 3418.0193 -717.11633 4294966579
183.3983 3418.1638 -717.45093 4294966579
185.40324 3418.0291 -717.73639 4294966579
187.243 3418.4988 -717.93622 4294966579
377.18951 3419.0728 -717.86475 4294966579
391.87955 3418.1323 -717.94232 4294966579
189.21565 3420.8098 -717.99426 4294966579
310.73248 3422.9958 -717.51929 4294966579
315.34473 3422.5278 -717.57123 4294966579
317.72403 3422.5652 -717.21301 4294966579
320.46039 3422.2449 -717.65802 4294966579
321.73599 3422.335 -717.26404 4294966579
323.67426 3422.0381 -717.56494 4294966579
325.40195 3421.8333 -717.7851 4294966579
327.64194 3421.9241 -717.61591 4294966579
330.14297 3422.304 -717.75348 4294966579
343.71332 3421.6072 -717.99921 4294966579
346.00854 3421.4734 -717.88989 4294966579
353.54221 3420.9543 -717.95691 4294966579
361.7627 3420.2517 -717.82977 4294966579
368.25293 3420.1653 -717.41309 4294966579
371.65775 3420.0222 -717.57721 4294966579
303.22208 3424.0732 -717.75513 4294966579
304.89978 3423.8613 -717.71271 4294966579
306.12274 3423.9187 -717.08887 4294966579
307.43207 3423.6833 -717.12378 4294966579
181.57417 3428.7317 -717.81696 4294966579
233.9259 3428.1016 -717.83984 4294966579
241.4848 3427.293 -717.77295 4294966579
242.67731 3427.4304 -717.62604 4294966579
247.82259 3427.5623 -717.25134 4294966579
254.36357 3427.0386 -717.52869 4294966579
257.85367 3426.9531 -717.39209 4294966579
259.52771 3427.0664 -717.05646 4294966579
260.66541 3426.7197 -717.72717 4294966579
261.83456 3426.6162 -717.8233 4294966579
263.46588 3426.6565 -717.42761 4294966579
277.21069 3426.4282 -717.95123 4294966579
279.68127 3426.2383 -717.75555 4294966579
183.29457 3431.0681 -717.14124 4294966579
187.72041 3431.218 -717.45923 4294966579
189.37105 3431.2385 -717.48254 4294966579
195.49193 3430.8447 -717.82471 4294966579
197.54527 3430.8301 -717.76953 4294966579
199.41737 3430.769 -717.85632 4294966579
201.55023 3430.8555 -717.83185 4294966579
207.00848 3430.9968 -717.88855 4294966579
209.53632 3430.8677 -717.83954 4294966579
215.23924 3430.7061 -717.06873 4294966579
223.26579 3430.0637 -717.90753 4294966579
225.53096 3429.9492 -717.89264 4294966579
363.17023 3398.9214 -716.86255 4294966580
367.23227 3398.6719 -716.95673 4294966580
369.59509 3398.4414 -716.2041 4294966580
371.6445 3398.2842 -716.13007 4294966580
373.4989 3398.2209 -716.70111 4294966580
375.1507 3398.0217 -716.16339 4294966580
377.53796 3397.877 -716.16162 4294966580
379.71045 3397.7576 -716.22943 4294966580
382.83594 3397.6836 -716.77252 4294966580
385.41968 3397.4548 -716.09906 4294966580
395.37143 3396.875 -716.12262 4294966580
323.42844 3401.6643 -716.11145 4294966580
327.40912 3401.4233 -716.76019 4294966580
329.88306 3401.2603 -716.81293 4294966580
331.30826 3401.0981 -716.64117 4294966580
333.23022 3400.988 -716.96271 4294966580
335.31445 3400.8198 -716.71515 4294966580
339.55057 3400.4797 -716.0498 4294966580
341.58234 3400.3228 -716.15277 4294966580
345.49503 3399.8953 -716.18756 4294966580
349.36102 3399.657 -716.14117 4294966580
351.60233 3399.7581 -716.46423 4294966580
353.55679 3399.5688 -716.06573 4294966580
355.29645 3399.5222 -716.81085 4294966580
357.45673 3399.3474 -716.79529 4294966580
359.15744 3399.198 -716.57605 4294966580
361.75375 3399.0115 -716.73425 4294966580
271.81992 3404.8875 -716.10504 4294966580
273.28497 3404.917 -716.16296 4294966580
275.2352 3404.8582 -716.82117 4294966580
277.45541 3404.6692 -716.01917 4294966580
279.3577 3404.4063 -716.34937 4294966580
285.3873 3404.2495 -716.10229 4294966580
289.48779 3403.7651 -716.07599 4294966580
291.41965 3403.6426 -716.01184 4294966580
295.26926 3403.3418 -716.82129 4294966580
297.46951 3403.3213 -716.12274 4294966580
303.57364 3402.918 -716.00702 4294966580
306.23004 3403.1775 -716.21283 4294966580
316.80753 3402.6689 -716.22113 4294966580
321.72452 3402.1875 -716.13916 4294966580
225.39726 3407.9678 -716.78528 4294966580
227.24522 3407.8477 -716.95099 4294966580
229.29161 3407.7212 -716.82159 4294966580
231.09213 3407.5874 -716.86237 4294966580
237.26317 3407.3555 -716.82861 4294966580
241.55505 3407.5562 -716.81171 4294966580
246.70242 3407.2563 -716.59558 4294966580
248.19186 3406.9976 -716.05743 4294966580
249.06454 3406.9878 -716.57605 4294966580
250.26027 3407.0479 -716.5907 4294966580
251.73914 3407.0933 -716.91034 4294966580
253.17976 3406.9729 -716.45386 4294966580
254.54247 3406.8518 -716.41217 4294966580
257.06024 3406.9407 -716.901 4294966580
265.44574 3405.592 -716.01056 4294966580
267.47882 3405.3953 -716.23029 4294966580
269.54675 3405.2144 -716.05426 4294966580
201.40207 3409.8896 -716.15228 4294966580
213.3136 3409.0532 -716.6272 4294966580
215.1906 3408.8787 -716.84412 4294966580
217.11012 3408.5515 -716.54419 4294966580
218.83122 3408.616 -716.78986 4294966580
221.51395 3408.2319 -716.77911 4294966580
223.9859 3408.0559 -716.6698 4294966580
183.54042 3411.9993 -716.24255 4294966580
185.76471 3412.4426 -716.6947 4294966580
187.52486 3412.3882 -716.91418 4294966580
193.34624 3411.2524 -716.79053 4294966580
179.01877 3415.5586 -716.76495 4294966580
180.79657 3414.8569 -716.84589 4294966580
179.01556 3417.9136 -716.81403 4294966580
377.38153 3419.4553 -716.10077 4294966580
383.85126 3419.3875 -716.15277 4294966580
387.73453 3419.1152 -716.20575 4294966580
390.08853 3418.8127 -716.02289 4294966580
391.44885 3418.4353 -716.83069 4294966580
393.75769 3418.4407 -716.67682 4294966580
395.70172 3418.3599 -716.06641 4294966580
313.04752 3422.9758 -716.95612 4294966580
319.93637 3422.7551 -716.16046 4294966580
322.84583 3422.627 -716.03351 4294966580
331.70087 3422.8918 -716.02673 4294966580
335.99124 3422.7512 -716.09918 4294966580
341.37689 3422.2668 -716.34186 4294966580
346.95242 3421.6658 -716.42651 4294966580
349.49048 3421.5696 -716.02673 4294966580
355.51663 3421.1919 -716.10107 4294966580
173.70087 3423.9692 -716.09076 4294966580
176.39253 3425.3218 -716.45477 4294966580
302.37405 3424.5652 -716.26465 4294966580
311.327 3423.459 -716.27972 4294966580
314.95251 3423.1628 -716.00269 4294966580
173.85022 3426.666 -716.07892 4294966580
174.3548 3428.3574 -716.07532 4294966580
175.5397 3427.6633 -716.30548 4294966580
177.81833 3428.0264 -716.68066 4294966580
234.46109 3428.7878 -716.27472 4294966580
235.67709 3428.3755 -716.6106 4294966580
237.77617 3427.9973 -716.68689 4294966580
240.09598 3427.7268 -716.8642 4294966580
242.19116 3427.9661 -716.2804 4294966580
244.00305 3427.7991 -716.80634 4294966580
249.3486 3427.8135 -716.43549 4294966580
251.04654 3427.6892 -716.34991 4294966580
252.89145 3427.5979 -716.42017 4294966580
256.00946 3427.3948 -716.73395 4294966580
257.18933 3427.4917 -716.3515 4294966580
265.5304 3427.3887 -716.0058 4294966580
175.5705 3429.6912 -716.02222 4294966580
178.46579 3430.7344 -716.23077 4294966580
185.45793 3431.5903 -716.93433 4294966580
191.70338 3431.7561 -716.84802 4294966580
199.26576 3431.7378 -716.03619 4294966580
210.9998 3430.967 -716.98651 4294966580
219.17876 3430.5339 -716.79443 4294966580
221.52141 3430.4636 -716.11145 4294966580
223.57159 3430.4988 -716.10297 4294966580
226.97092 3430.3628 -716.1181 4294966580
233.15776 3429.0232 -716.19489 4294966580
181.13985 3432.0645 -716.23102 4294966580
193.16473 3432.0537 -716.14044 4294966580
387.85904 3397.3167 -715.8974 4294966581
389.65613 3397.1882 -715.91046 4294966581
337.40723 3400.6074 -715.98657 4294966581
281.65637 3404.4214 -715.84778 4294966581
287.30423 3403.9299 -715.96716 4294966581
299.98254 3403.1821 -715.90399 4294966581
309.79718 3403.0649 -715.84656 4294966581
314.18179 3402.7908 -715.84918 4294966581
319.19119 3402.3782 -715.92841 4294966581
233.75275 3407.4387 -715.96729 4294966581
239.29875 3407.239 -715.96051 4294966581
243.52786 3407.3838 -715.63177 4294966581
245.42731 3407.2783 -715.5899 4294966581
255.28175 3406.7021 -715.57727 4294966581
256.28113 3406.7173 -715.86371 4294966581
257.48059 3406.6138 -715.49255 4294966581
259.45822 3406.3789 -715.79718 4294966581
261.56622 3405.7437 -715.81317 4294966581
191.44247 3410.8784 -715.42651 4294966581
193.60013 3410.6479 -715.58337 4294966581
195.5307 3410.5364 -715.84161 4294966581
198.99605 3410.2078 -715.93152 4294966581
205.59689 3409.6907 -715.93158 4294966581
179.95094 3412.9729 -715.84625 4294966581
181.41353 3412.5615 -715.97906 4294966581
183.47025 3411.5371 -715.31158 4294966581
185.27693 3411.3513 -715.17694 4294966581
187.35231 3411.2529 -715.37726 4294966581
189.43929 3411.0547 -715.30273 4294966581
168.18292 3416.5742 -715.20172 4294966581
170.05573 3416.6831 -715.33075 4294966581
171.35011 3415.8352 -715.12048 4294966581
172.93599 3415.8391 -715.1828 4294966581
175.57582 3415.5491 -715.44586 4294966581
177.45023 3414.3689 -715.95459 4294966581
158.74648 3419.3171 -715.03784 4294966581
162.02855 3418.2722 -715.33752 4294966581
163.8094 3418.9841 -715.6073 4294966581
165.4938 3418.5371 -715.55957 4294966581
166.84036 3418.2937 -715.57245 4294966581
168.06369 3418.0972 -715.56104 4294966581
169.16313 3417.7075 -715.54248 4294966581
170.23044 3419.0168 -715.73486 4294966581
171.60185 3417.9309 -715.64185 4294966581
173.66621 3417.8035 -715.75586 4294966581
375.98187 3419.7146 -715.59753 4294966581
379.56268 3419.3923 -715.83179 4294966581
381.29526 3419.3411 -715.86316 4294966581
159.63335 3422.6636 -715.32294 4294966581
160.92313 3420.366 -715.52734 4294966581
163.11156 3421.1025 -715.73907 4294966581
165.48015 3421.3042 -715.84375 4294966581
167.84424 3421.5054 -715.8324 4294966581
169.32518 3422.2854 -715.87244 4294966581
170.36725 3421.1228 -715.87073 4294966581
173.01344 3420.6384 -715.97656 4294966581
321.64624 3422.751 -715.86121 4294966581
325.02686 3422.5254 -715.63715 4294966581
329.35745 3422.5828 -715.91473 4294966581
333.57382 3422.8208 -715.9632 4294966581
339.38138 3422.446 -715.86273 4294966581
343.71521 3421.9512 -715.69934 4294966581
345.71127 3421.8125 -715.90411 4294966581
351.90344 3421.4866 -715.95422 4294966581
353.45438 3421.366 -715.99677 4294966581
357.66968 3420.8843 -715.85425 4294966581
359.42273 3420.7258 -715.82971 4294966581
361.57959 3420.5564 -715.93768 4294966581
363.55969 3420.5901 -715.79712 4294966581
371.53882 3420.1897 -715.74573 4294966581
162.19 3423.9053 -715.46722 4294966581
164.58067 3424.2107 -715.61487 4294966581
166.38467 3423.9641 -715.76868 4294966581
167.91551 3425.2502 -715.70282 4294966581
169.36287 3424.2061 -715.81714 4294966581
170.5891 3425.3203 -715.79309 4294966581
171.15944 3423.3123 -715.89734 4294966581
172.06775 3425.6282 -715.88745 4294966581
293.35904 3425.5913 -715.82422 4294966581
299.44586 3425.2942 -715.4201 4294966581
304.94891 3424.3445 -715.97412 4294966581
307.01022 3424.1267 -715.90369 4294966581
309.29688 3423.7786 -715.81525 4294966581
313.92596 3423.384 -715.49402 4294966581
316.67419 3423.0815 -715.65808 4294966581
318.19275 3423.0029 -715.61243 4294966581
166.34171 3426.4382 -715.42242 4294966581
168.22672 3427.5818 -715.37396 4294966581
169.68382 3427.2515 -715.53333 4294966581
170.99672 3427.1006 -715.67047 4294966581
172.35878 3427.4268 -715.79028 4294966581
173.20738 3428.2793 -715.8634 4294966581
236.6738 3428.6313 -715.48425 4294966581
239.24098 3428.3174 -715.49103 4294966581
245.96771 3427.9756 -715.93188 4294966581
247.44583 3428.1379 -715.39038 4294966581
248.41937 3428.0828 -715.68829 4294966581
254.42001 3427.7012 -715.74316 4294966581
255.57564 3427.7292 -715.53015 4294966581
256.51526 3427.6765 -715.62598 4294966581
258.49561 3427.5266 -715.36499 4294966581
260.16916 3427.5088 -715.02527 4294966581
261.27176 3427.2349 -715.95508 4294966581
263.6843 3427.2483 -715.27478 4294966581
267.32684 3427.3848 -715.96783 4294966581
271.12234 3427.1292 -715.92657 4294966581
273.73071 3426.9453 -715.52295 4294966581
275.73926 3426.8337 -715.74036 4294966581
276.87671 3426.7637 -715.85352 4294966581
279.58051 3426.5825 -715.5661 4294966581
281.36942 3426.4937 -715.83337 4294966581
283.4888 3426.2937 -715.59753 4294966581
285.49091 3426.1707 -715.92871 4294966581
287.4382 3426.0232 -715.74817 4294966581
171.88148 3429.5425 -715.33667 4294966581
173.55116 3430.2371 -715.47162 4294966581
174.54756 3431.2656 -715.25848 4294966581
176.20316 3431.3623 -715.55634 4294966581
201.30894 3431.6646 -715.97864 4294966581
203.38664 3431.627 -715.79919 4294966581
207.59119 3431.4065 -715.87518 4294966581
213.46686 3430.9951 -715.84607 4294966581
217.67844 3430.7173 -715.70459 4294966581
229.82431 3430.1812 -715.71381 4294966581
231.3544 3429.5159 -715.91968 4294966581
177.2012 3432.5193 -715.26428 4294966581
179.47206 3432.4912 -715.73718 4294966581
183.8436 3432.6101 -715.32782 4294966581
185.14674 3432.5635 -715.36725 4294966581
189.12804 3432.322 -715.80365 4294966581
197.64377 3432.0222 -715.92896 4294966581
381.022 3397.6174 -714.04828 4294966582
321.20929 3401.8301 -714.00238 4294966582
247.46039 3407.1313 -714.01508 4294966582
249.38063 3406.9619 -714.72223 4294966582
251.63789 3406.9202 -714.31097 4294966582
253.96968 3406.7583 -714.4342 4294966582
187.24327 3410.8511 -714.21271 4294966582
189.39328 3410.7129 -714.03094 4294966582
195.21574 3410.2354 -714.1629 4294966582
197.35558 3409.9089 -714.51337 4294966582
201.4548 3409.6523 -714.76532 4294966582
180.88315 3411.4287 -714.06146 4294966582
183.67114 3411.0916 -714.12927 4294966582
157.98953 3416.6807 -714.05853 4294966582
161.34879 3416.2415 -714.49731 4294966582
163.36702 3416.6536 -714.89331 4294966582
165.96994 3416.4204 -714.927 4294966582
167.15152 3414.9749 -714.2757 4294966582
168.64867 3415.3972 -714.77942 4294966582
169.77824 3414.5791 -714.383 4294966582
170.43594 3415.1963 -714.82507 4294966582
171.60114 3414.3325 -714.26697 4294966582
173.7338 3414.2214 -714.40552 4294966582
155.23541 3419.6653 -714.18036 4294966582
156.73505 3418.2339 -714.42682 4294966582
160.06607 3417.4473 -714.78223 4294966582
155.63518 3422.9004 -714.35577 4294966582
157.28937 3421.1843 -714.90503 4294966582
327.54199 3422.6248 -714.85858 4294966582
312.21277 3423.6602 -714.75983 4294966582
158.8246 3428.0786 -714.0285 4294966582
164.23665 3428.2236 -714.65875 4294966582
166.86885 3428.7024 -714.97229 4294966582
238.02647 3428.6895 -714.17914 4294966582
240.92778 3428.417 -714.13898 4294966582
243.90335 3428.2559 -714.49658 4294966582
248.04616 3428.2322 -714.73004 4294966582
249.418 3428.1101 -714.60052 4294966582
252.28606 3427.939 -714.21271 4294966582
166.68188 3430.1814 -714.31879 4294966582
169.01421 3429.9785 -714.73419 4294966582
170.78493 3430.9216 -714.56384 4294966582
171.95508 3431.6704 -714.24615 4294966582
235.08717 3429.0461 -714.36639 4294966582
173.50517 3432.2473 -714.18079 4294966582
175.2027 3432.3794 -714.59479 4294966582
178.8828 3433.2561 -714.08533 4294966582
181.05197 3433.1741 -714.00842 4294966582
183.55547 3433.0403 -714.17334 4294966582
185.14926 3432.9841 -714.06537 4294966582
189.01723 3432.5762 -714.83868 4294966582
191.29108 3432.5229 -714.65625 4294966582
195.28714 3432.4617 -714.71204 4294966582
199.38725 3432.2373 -714.02655 4294966582
201.23752 3432.1133 -714.07007 4294966582
365.61343 3398.8997 -713.69049 4294966583
367.41818 3398.7759 -713.55975 4294966583
369.43216 3398.5845 -713.73993 4294966583
371.52982 3398.4038 -713.80255 4294966583
373.53955 3398.2214 -713.85944 4294966583
375.18875 3398.0864 -713.80859 4294966583
379.85455 3397.7378 -713.74762 4294966583
383.69272 3397.52 -713.52661 4294966583
385.47729 3397.3203 -713.86572 4294966583
387.72952 3397.1699 -713.69324 4294966583
389.311 3397.0288 -713.8327 4294966583
391.52252 3396.8738 -713.86011 4294966583
395.39853 3396.5732 -713.97693 4294966583
323.4993 3401.7615 -713.55811 4294966583
325.59418 3401.625 -713.61261 4294966583
327.40753 3401.5425 -713.40906 4294966583
329.56979 3401.3218 -713.90961 4294966583
333.61676 3401.0586 -713.72943 4294966583
335.32242 3400.9194 -713.72266 4294966583
337.50739 3400.7605 -713.56635 4294966583
339.47592 3400.5903 -713.72589 4294966583
343.43771 3400.3062 -713.7207 4294966583
347.30356 3400.0332 -713.8418 4294966583
349.34039 3400.0049 -713.37402 4294966583
351.6785 3399.9229 -713.33771 4294966583
353.38638 3399.8572 -713.00867 4294966583
355.31348 3399.6475 -713.44073 4294966583
357.55576 3399.4438 -713.633 4294966583
361.43735 3399.1804 -713.66174 4294966583
363.05493 3399.0996 -713.46399 4294966583
275.67819 3404.9578 -713.72479 4294966583
277.42563 3404.8718 -713.32166 4294966583
279.16513 3404.7056 -713.82794 4294966583
283.74841 3404.4751 -713.42291 4294966583
289.2121 3404.1182 -713.57776 4294966583
291.04355 3403.9978 -713.52472 4294966583
293.43109 3403.8269 -713.60413 4294966583
297.54242 3403.5505 -713.46088 4294966583
299.69241 3403.354 -713.7146 4294966583
301.52844 3403.2573 -713.56586 4294966583
303.54355 3403.1768 -713.23596 4294966583
305.54736 3402.9468 -713.81708 4294966583
317.42264 3402.1609 -713.69885 4294966583
233.71307 3407.9243 -713.35309 4294966583
235.17499 3407.8457 -713.27954 4294966583
237.42079 3407.7051 -713.39532 4294966583
239.45189 3407.5764 -713.23993 4294966583
241.37164 3407.3872 -713.73376 4294966583
245.0809 3407.1807 -713.4212 4294966583
255.90657 3406.6719 -713.55768 4294966583
258.06946 3406.4495 -713.27026 4294966583
259.37613 3405.9919 -713.68292 4294966583
263.65262 3405.762 -713.38495 4294966583
267.44379 3405.436 -713.73175 4294966583
269.31396 3405.3674 -713.52777 4294966583
271.6196 3405.3083 -713.07349 4294966583
191.29416 3410.5471 -713.9375 4294966583
203.66112 3409.6689 -713.31775 4294966583
205.35027 3409.4263 -713.87048 4294966583
207.37959 3409.2495 -713.92944 4294966583
209.04364 3409.3501 -713.97754 4294966583
211.32123 3409.2742 -713.13226 4294966583
215.61235 3409.0664 -713.22083 4294966583
217.16743 3408.9197 -713.60516 4294966583
219.04434 3408.8335 -713.49872 4294966583
223.7343 3408.6199 -713.17822 4294966583
225.24846 3408.4797 -713.42468 4294966583
227.358 3408.3469 -713.48792 4294966583
229.03632 3408.2339 -713.48145 4294966583
231.18889 3408.0613 -713.61987 4294966583
170.11617 3413.3972 -713.20831 4294966583
173.15453 3413.1177 -713.43811 4294966583
175.61948 3412.208 -713.27032 4294966583
182.94133 3411.1096 -713.46234 4294966583
156.16772 3416.4202 -713.51898 4294966583
159.63248 3414.8577 -713.1283 4294966583
161.97493 3415.092 -713.80908 4294966583
163.75275 3414.7676 -713.61987 4294966583
165.42564 3414.4453 -713.5257 4294966583
168.49829 3414.1191 -713.76953 4294966583
153.64973 3418.1499 -713.21014 4294966583
155.16867 3417.46 -713.67041 4294966583
375.81372 3419.6492 -713.28625 4294966583
379.61414 3419.3538 -713.06659 4294966583
389.62238 3418.7964 -713.49329 4294966583
391.68201 3418.5645 -713.07739 4294966583
395.34143 3418.3118 -713.17242 4294966583
153.34129 3420.9924 -713.50769 4294966583
321.91055 3422.9436 -713.89099 4294966583
329.73837 3422.7788 -713.22308 4294966583
339.54587 3422.1829 -713.2243 4294966583
341.32172 3422.0259 -713.11719 4294966583
345.35626 3421.7275 -713.40222 4294966583
351.3981 3421.3076 -713.07599 4294966583
353.34381 3421.1499 -713.02808 4294966583
355.65924 3420.936 -713.08881 4294966583
359.24088 3420.6265 -713.05377 4294966583
361.32367 3420.4875 -713.2348 4294966583
153.99272 3424.6516 -713.55878 4294966583
303.50824 3424.7363 -713.78876 4294966583
307.12692 3424.3718 -713.7384 4294966583
310.14398 3424.0879 -713.3089 4294966583
315.12817 3423.4648 -713.88391 4294966583
318.33096 3423.2073 -713.71356 4294966583
154.6655 3427.9668 -713.02948 4294966583
156.31665 3426.4004 -713.99786 4294966583
246.96825 3428.2668 -713.26355 4294966583
255.49268 3427.8035 -713.81848 4294966583
260.61191 3427.5239 -713.55096 4294966583
262.91461 3427.3765 -713.71948 4294966583
265.25726 3427.3101 -713.13379 4294966583
269.42374 3427.0022 -713.11377 4294966583
273.33466 3426.7571 -713.11127 4294966583
283.50543 3426.0764 -713.19482 4294966583
157.02914 3429.4993 -713.05194 4294966583
161.45448 3429.6643 -713.70551 4294966583
165.71037 3431.0664 -713.52722 4294966583
167.8239 3431.7529 -713.41138 4294966583
170.17632 3431.9851 -713.60803 4294966583
203.32762 3431.9558 -713.56647 4294966583
205.27487 3431.8049 -713.76337 4294966583
207.4005 3431.5703 -713.59149 4294966583
211.52423 3431.0862 -713.13184 4294966583
213.19215 3430.9773 -713.83704 4294966583
217.34624 3430.5898 -713.10809 4294966583
219.3578 3430.4543 -713.08844 4294966583
221.48442 3430.3687 -713.38348 4294966583
223.56102 3430.2954 -713.24884 4294966583
225.64993 3430.2546 -713.48077 4294966583
232.82591 3429.4719 -713.9715 4294966583
174.24713 3433.2041 -713.15265 4294966583
175.64507 3433.4155 -713.73114 4294966583
281.23828 3404.7371 -712.81805 4294966584
287.62021 3404.3123 -712.94739 4294966584
243.86113 3407.3845 -712.71637 4294966584
274.23611 3405.3333 -712.1192 4294966584
185.35263 3410.6709 -712.35083 4294966584
161.836 3413.9348 -712.40948 4294966584
166.47417 3413.6328 -712.77399 4294966584
171.81773 3412.9634 -712.99152 4294966584
179.28239 3411.2117 -712.73315 4294966584
180.96843 3411.2053 -712.88538 4294966584
154.29855 3415.9885 -712.39227 4294966584
156.64998 3414.917 -712.39923 4294966584
152.19319 3418.8291 -712.72223 4294966584
373.82288 3419.8743 -712.79559 4294966584
385.56058 3419.1545 -712.90308 4294966584
393.70432 3418.3997 -712.9397 4294966584
151.33618 3420.4678 -712.47894 4294966584
333.5278 3422.5833 -712.99878 4294966584
335.58572 3422.4685 -712.90869 4294966584
338.0947 3422.2729 -712.23975 4294966584
357.80145 3420.7322 -712.88043 4294966584
151.91794 3423.238 -712.77222 4294966584
152.47998 3426.3972 -712.60461 4294966584
257.96091 3427.6897 -712.80249 4294966584
267.46109 3427.1372 -712.987 4294966584
279.40863 3426.3416 -712.98132 4294966584
281.44058 3426.197 -712.92114 4294966584
159.42116 3430.855 -712.8009 4294966584
161.67096 3431.9951 -712.22235 4294966584
163.81116 3431.3 -712.98608 4294966584
231.47707 3429.8621 -712.75531 4294966584
172.12743 3433.1641 -712.34125 4294966584
175.29054 3433.8577 -712.20795 4294966584
179.01482 3433.7722 -712.41626 4294966584
187.1089 3433.178 -712.42407 4294966584
371.07605 3398.8772 -711.16315 4294966585
373.49606 3398.7219 -711.06366 4294966585
375.38257 3398.5183 -711.00336 4294966585
379.71887 3398.1753 -711.03564 4294966585
381.66983 3398.0291 -711.0257 4294966585
387.60297 3397.6675 -711.07129 4294966585
391.14554 3397.4126 -711.21716 4294966585
395.04874 3397.1311 -711.21313 4294966585
325.52396 3401.9614 -711.03986 4294966585
333.3812 3401.5134 -711.08856 4294966585
337.21625 3401.2063 -711.10498 4294966585
343.16553 3400.7834 -711.07727 4294966585
360.98056 3399.6187 -711.00391 4294966585
365.47025 3399.3103 -711.05603 4294966585
289.36871 3404.4622 -711.03375 4294966585
293.35056 3404.219 -711.05322 4294966585
295.14929 3404.0854 -711.05798 4294966585
299.80109 3403.7705 -711.1167 4294966585
319.10358 3402.4204 -711.27051 4294966585
323.31509 3402.1025 -711.01398 4294966585
239.15462 3407.8811 -711.17255 4294966585
259.40579 3406.457 -711.09039 4294966585
263.28229 3406.175 -711.19263 4294966585
267.38409 3405.939 -711.03027 4294966585
269.3288 3405.7966 -711.10052 4294966585
277.37854 3405.2195 -711.14496 4294966585
279.67017 3405.083 -711.04144 4294966585
189.49495 3410.519 -711.7467 4294966585
191.20653 3410.4028 -711.77203 4294966585
193.39218 3410.239 -711.95398 4294966585
195.26573 3410.1782 -711.7901 4294966585
197.56721 3410.2363 -711.28809 4294966585
198.57852 3410.1375 -711.72644 4294966585
201.56808 3410.0857 -711.20776 4294966585
227.07166 3408.6533 -711.17981 4294966585
233.46303 3408.2532 -711.15698 4294966585
157.9243 3413.8865 -711.62878 4294966585
159.08484 3413.5977 -711.45837 4294966585
160.28696 3413.5769 -711.57709 4294966585
164.03778 3413.334 -711.51935 4294966585
166.06097 3412.821 -711.26648 4294966585
168.2652 3412.8318 -711.88959 4294966585
171.30872 3412.1719 -711.82733 4294966585
173.24467 3411.8896 -711.96075 4294966585
175.28833 3411.6785 -711.76245 4294966585
149.84633 3419.8318 -711.49316 4294966585
150.86212 3418.3687 -711.78131 4294966585
152.1553 3417.011 -711.93829 4294966585
377.6442 3419.457 -711.034 4294966585
395.28036 3418.2849 -711.15631 4294966585
150.15033 3422.21 -711.83179 4294966585
326.05182 3422.8123 -711.96069 4294966585
337.79114 3422.2844 -711.21063 4294966585
343.19409 3421.8279 -711.23022 4294966585
359.07602 3420.5903 -711.02875 4294966585
150.51212 3425.0198 -711.87762 4294966585
283.58105 3425.9612 -711.06976 4294966585
287.17914 3425.8667 -711.68176 4294966585
312.63461 3423.908 -711.45935 4294966585
319.5224 3423.2427 -711.30908 4294966585
150.94702 3427.8735 -711.58514 4294966585
239.4324 3428.7852 -711.31458 4294966585
250.03926 3428.1267 -711.75739 4294966585
259.28476 3427.6326 -711.0874 4294966585
263.31696 3427.3933 -711.13031 4294966585
281.16061 3426.1099 -711.00201 4294966585
153.06097 3429.3291 -711.96808 4294966585
155.37196 3430.7903 -711.92578 4294966585
157.70288 3431.9497 -711.72839 4294966585
203.1676 3431.7012 -711.19421 4294966585
215.58679 3430.6025 -711.01324 4294966585
221.26567 3430.27 -711.20538 4294966585
236.79504 3429.0457 -711.77625 4294966585
159.83536 3432.7305 -711.39319 4294966585
163.73474 3433.0203 -711.40637 4294966585
166.17218 3432.7778 -711.97406 4294966585
169.14233 3433.2957 -711.64667 4294966585
174.01595 3433.7356 -711.52454 4294966585
183.59758 3433.46 -711.75165 4294966585
