# .PCD v0.7 - Point Cloud Data file format
VERSION 0.7
FIELDS x y z rgba
SIZE 4 4 4 4
TYPE F F F U
COUNT 1 1 1 1
WIDTH 1147
HEIGHT 1
VIEWPOINT 0 0 0 1 0 0 0
POINTS 1147
DATA ascii
403.39673 1170.5946 -83.009239 4294967213
404.17514 1172.9122 -83.112671 4294967213
405.1897 1170.8419 -83.418869 4294967213
407.05481 1172.9792 -83.834831 4294967213
405.59674 1129.7461 -82.668556 4294967214
403.25287 1132.2642 -82.214111 4294967214
405.267 1132.2761 -82.675125 4294967214
407.58344 1133.5117 -82.791718 4294967214
439.14737 1133.4974 -82.715607 4294967214
443.61743 1132.9344 -82.634476 4294967214
445.77893 1132.5927 -82.20649 4294967214
454.03839 1132.2163 -82.810753 4294967214
409.60416 1134.3356 -82.878578 4294967214
429.22134 1134.6436 -82.894127 4294967214
433.5903 1134.1565 -82.926125 4294967214
457.34702 1146.9399 -82.843948 4294967214
457.88574 1149.4397 -82.770149 4294967214
454.00153 1157.1301 -82.557899 4294967214
455.48889 1156.5787 -82.553444 4294967214
415.50504 1159.6586 -82.140633 4294967214
426.42026 1158.6115 -82.690689 4294967214
431.26663 1158.3738 -82.894936 4294967214
435.37448 1158.1735 -82.954269 4294967214
439.66245 1158.0555 -82.234833 4294967214
443.41074 1158.0192 -82.724823 4294967214
445.64508 1158.024 -82.528503 4294967214
447.89578 1158.0396 -82.241615 4294967214
404.43652 1162.3616 -82.602814 4294967214
399.89435 1164.1543 -82.203865 4294967214
401.68112 1165.4253 -82.950699 4294967214
402.50238 1164.1982 -82.791344 4294967214
397.98712 1168.8145 -82.133766 4294967214
399.22479 1169.5367 -82.312454 4294967214
402.19495 1167.4913 -82.997871 4294967214
398.63928 1171.4065 -82.169983 4294967214
401.87067 1172.7872 -82.635155 4294967214
399.48068 1129.8396 -81.061501 4294967215
401.47226 1129.7587 -81.483681 4294967215
403.27982 1129.89 -81.939804 4294967215
399.89862 1133.9164 -81.02066 4294967215
401.3775 1132.7651 -81.747063 4294967215
403.4631 1133.6555 -81.723976 4294967215
448.20804 1132.2288 -81.866936 4294967215
450.33096 1132.1001 -81.826424 4294967215
405.32181 1134.9226 -81.355568 4294967215
407.05286 1135.2285 -81.584961 4294967215
411.17627 1135.8124 -81.156616 4294967215
413.43698 1135.6337 -81.812149 4294967215
417.20041 1135.7113 -81.752007 4294967215
419.0813 1135.6923 -81.66478 4294967215
421.27682 1135.5264 -81.681374 4294967215
423.08191 1135.3475 -81.3946 4294967215
455.78271 1144.8589 -81.687202 4294967215
455.79993 1147.0448 -81.400681 4294967215
456.12897 1149.5562 -81.126839 4294967215
452.16422 1157.4954 -81.808784 4294967215
406.48279 1160.5984 -81.369316 4294967215
409.48447 1160.5743 -81.860352 4294967215
412.86499 1159.8826 -81.832283 4294967215
420.84991 1159.095 -81.140465 4294967215
426.23044 1158.774 -81.028259 4294967215
433.61987 1158.4125 -81.066681 4294967215
393.47864 1163.8351 -81.161705 4294967215
395.87088 1163.1495 -81.070557 4294967215
396.75815 1163.0696 -81.176544 4294967215
399.59772 1162.3594 -81.475601 4294967215
401.19485 1162.7887 -81.952026 4294967215
404.09872 1161.1412 -81.241066 4294967215
383.33505 1165.7754 -81.000763 4294967215
389.51038 1165.6913 -81.243004 4294967215
391.65445 1165.676 -81.368828 4294967215
393.37939 1166.0419 -81.605484 4294967215
394.79388 1165.427 -81.870644 4294967215
397.05295 1164.0597 -81.65786 4294967215
389.19443 1167.8198 -81.290726 4294967215
391.18588 1168.2913 -81.400032 4294967215
393.77377 1168.7822 -81.611855 4294967215
395.65103 1168.4718 -81.872871 4294967215
392.93408 1170.9781 -81.399712 4294967215
395.64908 1129.6486 -80.332596 4294967216
397.57748 1130.0493 -80.72303 4294967216
391.52585 1131.9196 -80.127419 4294967216
393.33923 1132.1549 -80.362007 4294967216
397.35062 1132.7424 -80.737648 4294967216
435.45853 1133.887 -80.891701 4294967216
437.2323 1133.6769 -80.697365 4294967216
441.78116 1133.1146 -80.549339 4294967216
443.70645 1132.8616 -80.071548 4294967216
446.05377 1132.6215 -80.09845 4294967216
397.46445 1134.2384 -80.389954 4294967216
401.49442 1134.8811 -80.783524 4294967216
425.15131 1135.0986 -80.925926 4294967216
455.71744 1137.7772 -80.95681 4294967216
451.91693 1157.0688 -80.248726 4294967216
454.07855 1156.2487 -80.31884 4294967216
405.0231 1160.4161 -80.295639 4294967216
408.76639 1160.4275 -80.971313 4294967216
429.35803 1158.6312 -80.903099 4294967216
431.50797 1158.5538 -80.545204 4294967216
436.98999 1158.2185 -80.382904 4294967216
442.22546 1158.0497 -80.48642 4294967216
444.39865 1158.0588 -80.373215 4294967216
379.11823 1163.9249 -80.147217 4294967216
389.03806 1162.8031 -80.421844 4294967216
390.82031 1163.7375 -80.909889 4294967216
392.82602 1162.5071 -80.441696 4294967216
359.35004 1165.9694 -80.018127 4294967216
363.08435 1165.6713 -80.310249 4294967216
365.16226 1165.528 -80.169678 4294967216
370.02402 1166.4214 -80.81443 4294967216
375.79059 1165.5364 -80.843613 4294967216
377.81424 1164.5029 -80.362144 4294967216
378.59003 1166.0585 -80.80777 4294967216
381.69409 1165.2625 -80.829948 4294967216
385.26477 1164.9625 -80.93853 4294967216
387.25049 1164.8268 -80.926666 4294967216
343.21692 1168.0022 -80.235046 4294967216
345.05148 1169.8375 -80.577789 4294967216
347.44357 1168.1417 -80.359795 4294967216
349.67514 1168.328 -80.453644 4294967216
351.04272 1169.3794 -80.680252 4294967216
354.96564 1167.7743 -80.355537 4294967216
355.95438 1169.9985 -80.629662 4294967216
357.88397 1169.8575 -80.638412 4294967216
359.18103 1167.7 -80.686035 4294967216
361.21451 1167.8743 -80.720871 4294967216
389.35999 1126.8848 -79.054771 4294967217
393.02466 1127.1357 -79.518684 4294967217
383.50668 1129.3723 -79.081375 4294967217
385.34702 1129.111 -79.100655 4294967217
387.58203 1129.5348 -79.285316 4294967217
389.59653 1129.2804 -79.425072 4294967217
391.53973 1129.524 -79.685204 4294967217
393.24597 1129.6604 -79.936562 4294967217
381.33472 1131.8512 -79.523903 4294967217
383.52234 1132.0747 -79.658112 4294967217
385.39471 1132.0049 -79.695335 4294967217
387.61118 1132.0657 -79.781006 4294967217
389.63373 1133.5453 -79.544975 4294967217
361.61639 1135.9812 -79.052895 4294967217
367.36194 1135.0696 -79.109116 4294967217
373.79297 1135.2832 -79.186867 4294967217
377.47598 1135.882 -79.083771 4294967217
379.60742 1134.8914 -79.263733 4294967217
381.60052 1134.8278 -79.246674 4294967217
383.3772 1135.3124 -79.020103 4294967217
387.28143 1134.4009 -79.183891 4294967217
391.328 1134.5063 -79.197479 4294967217
393.50986 1134.7264 -79.420219 4294967217
395.75696 1135.1803 -79.503021 4294967217
401.04593 1136.1694 -79.165077 4294967217
405.2554 1136.1814 -79.713928 4294967217
413.42294 1136.2438 -79.884613 4294967217
415.10287 1136.1533 -79.642921 4294967217
418.94745 1135.7512 -79.325058 4294967217
453.38736 1144.9083 -79.568817 4294967217
399.134 1160.9584 -79.362465 4294967217
401.0957 1160.7677 -79.669968 4294967217
411.28622 1159.8652 -79.989182 4294967217
413.30722 1159.6963 -79.743919 4294967217
417.19809 1159.5022 -79.07235 4294967217
435.54227 1158.3113 -79.0345 4294967217
445.94205 1158.3086 -79.893127 4294967217
448.44009 1158.0753 -79.840157 4294967217
367.90707 1163.8076 -79.715828 4294967217
375.46234 1162.8519 -79.515961 4294967217
378.91696 1163.3024 -79.8302 4294967217
381.7128 1162.4639 -79.294212 4294967217
382.74045 1163.0948 -79.927429 4294967217
385.94495 1161.7616 -79.190392 4294967217
386.17651 1162.5061 -79.90197 4294967217
387.75137 1161.7267 -79.124741 4294967217
389.89682 1161.4684 -79.11908 4294967217
391.36954 1161.5127 -79.081718 4294967217
341.4404 1166.6886 -79.402176 4294967217
345.19006 1166.6158 -79.585144 4294967217
346.867 1166.8536 -79.663963 4294967217
350.46924 1165.8048 -79.264832 4294967217
351.28891 1166.5283 -79.857368 4294967217
353.68079 1166.3579 -79.788002 4294967217
355.604 1166.1508 -79.810036 4294967217
358.76959 1165.0725 -79.481812 4294967217
361.85394 1164.2401 -79.09832 4294967217
365.05673 1164.1349 -79.369781 4294967217
305.57898 1169.7622 -79.405746 4294967217
307.24686 1169.6903 -79.166199 4294967217
309.61966 1169.7408 -79.148659 4294967217
310.909 1169.8445 -79.335342 4294967217
327.68143 1168.1367 -79.362938 4294967217
333.30063 1167.8876 -79.617851 4294967217
337.14633 1168.0623 -79.807953 4294967217
339.52695 1167.8391 -79.843651 4294967217
341.33234 1167.9114 -79.942284 4294967217
387.33832 1127.0946 -78.992493 4294967218
435.49957 1133.8159 -78.791382 4294967218
437.54553 1133.5159 -78.430603 4294967218
439.99615 1133.2155 -78.064003 4294967218
447.90021 1133.0817 -78.091949 4294967218
355.55701 1136.8494 -78.971176 4294967218
357.77066 1136.7184 -78.958443 4294967218
369.09692 1136.2462 -78.979065 4294967218
381.22806 1136.9769 -78.259109 4294967218
385.51678 1135.1731 -78.988441 4294967218
397.26688 1136.0688 -78.800957 4294967218
427.33499 1134.7932 -78.761307 4294967218
433.24597 1134.0739 -78.516106 4294967218
297.58997 1138.09 -78.104645 4294967218
299.5116 1137.7241 -78.033669 4294967218
301.45456 1137.9492 -78.081818 4294967218
303.2598 1138.0253 -78.055519 4294967218
305.73764 1138.0017 -78.36792 4294967218
307.6702 1138.0137 -78.204285 4294967218
309.71927 1137.8762 -78.404411 4294967218
311.73434 1139.95 -78.007278 4294967218
313.4187 1138.0837 -78.147438 4294967218
315.44061 1138.6289 -78.245644 4294967218
316.46075 1139.8236 -78.026154 4294967218
323.50684 1138.6199 -78.637886 4294967218
325.34845 1138.8673 -78.261497 4294967218
327.12781 1139.2539 -78.109383 4294967218
329.43658 1138.1649 -78.387856 4294967218
333.56689 1138.431 -78.316574 4294967218
353.50119 1138.3666 -78.486435 4294967218
355.37851 1139.1656 -78.174957 4294967218
356.62625 1137.9033 -78.567047 4294967218
359.34848 1137.0439 -78.862465 4294967218
361.72437 1137.395 -78.715958 4294967218
365.54483 1137.3262 -78.62394 4294967218
371.22028 1137.3627 -78.611244 4294967218
373.36838 1137.3103 -78.579483 4294967218
379.22461 1137.2169 -78.325447 4294967218
281.52603 1140.8223 -78.015251 4294967218
289.74307 1140.2723 -78.080147 4294967218
291.40283 1140.6931 -78.133858 4294967218
293.69141 1140.1454 -78.231293 4294967218
297.31857 1140.2474 -78.058678 4294967218
299.62393 1140.347 -78.285378 4294967218
301.41934 1140.0361 -78.045723 4294967218
303.50586 1140.0101 -78.021622 4294967218
305.70096 1140.0292 -78.223228 4294967218
309.75504 1140.0859 -78.276543 4294967218
319.16071 1140.1235 -78.252754 4294967218
440.45505 1157.9618 -78.482918 4294967218
443.32306 1157.9268 -78.54229 4294967218
446.0502 1157.7627 -78.176689 4294967218
451.46753 1156.4557 -78.304459 4294967218
397.97501 1160.8378 -78.611748 4294967218
401.54605 1160.3569 -78.248116 4294967218
404.86337 1160.1643 -78.014938 4294967218
419.01428 1159.4041 -78.964417 4294967218
426.99167 1158.911 -78.929428 4294967218
429.70367 1158.726 -78.577629 4294967218
431.44745 1158.6104 -78.467705 4294967218
433.42148 1158.4498 -78.378769 4294967218
437.56555 1158.1423 -78.291695 4294967218
373.38187 1162.3889 -78.749275 4294967218
382.89941 1161.6508 -78.017845 4294967218
386.00754 1161.4442 -78.497398 4294967218
390.99637 1161.1121 -78.081985 4294967218
393.13983 1161.0358 -78.184219 4294967218
395.52386 1161.0326 -78.695503 4294967218
325.24667 1166.9106 -78.449745 4294967218
329.65176 1166.4363 -78.551949 4294967218
331.58896 1166.4142 -78.718857 4294967218
333.88019 1166.2134 -78.914207 4294967218
337.02261 1166.3324 -78.944511 4294967218
339.57224 1165.9558 -78.754639 4294967218
343.77652 1165.9067 -78.968201 4294967218
345.47 1165.5183 -78.697807 4294967218
350.04352 1165.1536 -78.681931 4294967218
353.0704 1165.0966 -78.916199 4294967218
355.40237 1164.8083 -78.932922 4294967218
357.40222 1164.4998 -78.818802 4294967218
303.64377 1168.1244 -78.465187 4294967218
305.1033 1168.3359 -78.615715 4294967218
308.33789 1168.0977 -78.393562 4294967218
313.57193 1168.4844 -78.956184 4294967218
326.8327 1167.3232 -78.854027 4294967218
445.88187 1133.0872 -77.76664 4294967219
383.49939 1136.8912 -77.992554 4294967219
389.76303 1136.4825 -77.17276 4294967219
393.81241 1136.6964 -77.104889 4294967219
396.81528 1136.6904 -77.699272 4294967219
399.49579 1136.7749 -77.819351 4294967219
403.27673 1136.8052 -77.747353 4294967219
407.2139 1136.6978 -77.744705 4294967219
409.36804 1136.6545 -77.786629 4294967219
411.23669 1136.5582 -77.700333 4294967219
415.34122 1136.0698 -77.146027 4294967219
269.44583 1139.8719 -77.687546 4294967219
290.99942 1137.7844 -77.777252 4294967219
295.54657 1137.5811 -77.910797 4294967219
329.49875 1139.5775 -77.972397 4294967219
331.20038 1139.2584 -77.992714 4294967219
357.34076 1139.8385 -77.039078 4294967219
359.47479 1138.928 -77.883713 4294967219
361.26889 1139.0452 -77.582619 4294967219
363.64935 1138.9963 -77.605751 4294967219
365.44849 1138.7794 -77.591789 4294967219
367.47601 1138.7308 -77.530739 4294967219
369.2959 1138.6129 -77.608879 4294967219
373.36404 1138.5847 -77.230042 4294967219
375.54977 1138.4314 -77.087631 4294967219
381.02887 1137.9381 -77.134567 4294967219
385.53079 1137.2261 -77.212166 4294967219
451.47632 1137.0302 -77.14006 4294967219
247.31027 1141.7513 -77.527153 4294967219
249.58177 1141.8668 -77.484055 4294967219
251.47926 1141.7695 -77.502106 4294967219
253.33966 1141.9694 -77.736 4294967219
255.26849 1142.0735 -77.568932 4294967219
257.72348 1141.918 -77.573479 4294967219
261.56299 1142.0597 -77.749458 4294967219
263.50189 1142.3046 -77.792389 4294967219
265.59421 1142.2075 -77.629379 4294967219
267.5899 1142.0428 -77.684616 4294967219
271.4129 1142.1665 -77.681274 4294967219
273.53497 1142.0527 -77.687752 4294967219
275.37299 1142.0873 -77.645012 4294967219
277.6709 1141.8169 -77.662354 4294967219
279.36078 1142.0726 -77.615921 4294967219
281.57071 1142.929 -77.329849 4294967219
285.54745 1142.0886 -77.563171 4294967219
287.68024 1141.6913 -77.708122 4294967219
289.34991 1141.9445 -77.632454 4294967219
295.87122 1141.7229 -77.747147 4294967219
299.48828 1142.7706 -77.033806 4294967219
301.43112 1141.4969 -77.667839 4294967219
303.44037 1141.2035 -77.652069 4294967219
309.51022 1141.8176 -77.113525 4294967219
311.40335 1140.9937 -77.618263 4294967219
313.23831 1141.6935 -77.22332 4294967219
315.80536 1140.8516 -77.635017 4294967219
317.60623 1141.3427 -77.511559 4294967219
321.02377 1141.4266 -77.097397 4294967219
323.28589 1141.1116 -77.29464 4294967219
325.54959 1141.1461 -77.027878 4294967219
327.69302 1140.6752 -77.351936 4294967219
329.6412 1140.7623 -77.159393 4294967219
331.37128 1140.7299 -77.10553 4294967219
333.55331 1140.7097 -77.065445 4294967219
351.40073 1140.2395 -77.833717 4294967219
354.81332 1140.0088 -77.314613 4294967219
247.53041 1145.329 -77.090889 4294967219
249.54851 1143.8986 -77.431419 4294967219
251.44373 1145.1631 -77.041473 4294967219
253.60071 1143.9818 -77.396355 4294967219
255.39386 1144.6191 -77.204712 4294967219
257.55338 1144.1956 -77.324715 4294967219
259.45215 1143.9742 -77.357468 4294967219
261.20129 1144.0542 -77.308434 4294967219
265.62927 1143.8794 -77.354195 4294967219
267.31567 1143.9016 -77.349541 4294967219
269.50052 1143.8374 -77.451141 4294967219
271.27267 1143.6769 -77.352699 4294967219
273.7366 1143.5719 -77.31926 4294967219
283.59177 1143.4259 -77.085106 4294967219
289.46405 1143.2565 -77.068481 4294967219
293.06015 1143.1029 -77.09848 4294967219
442.6485 1157.7227 -77.183006 4294967219
448.42752 1157.6112 -77.82795 4294967219
399.03574 1160.4858 -77.657845 4294967219
407.01205 1160.0825 -77.94043 4294967219
409.20374 1160.1162 -77.30191 4294967219
410.54062 1160.0225 -77.70945 4294967219
413.59796 1159.8748 -77.466339 4294967219
415.55029 1159.7917 -77.044365 4294967219
352.63199 1163.9749 -77.416672 4294967219
355.25421 1163.7705 -77.275185 4294967219
358.45737 1163.4917 -77.213837 4294967219
361.91898 1163.3182 -77.586945 4294967219
363.69592 1163.2238 -77.834541 4294967219
366.68637 1162.7732 -77.499718 4294967219
377.48157 1161.9331 -77.513489 4294967219
378.53375 1161.5891 -77.08165 4294967219
381.35892 1161.781 -77.86573 4294967219
383.14594 1161.245 -77.089302 4294967219
387.22235 1161.3005 -77.910332 4294967219
313.03967 1166.5695 -77.016541 4294967219
326.48874 1165.5905 -77.082863 4294967219
331.67496 1165.3068 -77.155876 4294967219
336.94205 1164.9713 -77.19577 4294967219
343.44745 1164.4403 -77.139771 4294967219
304.93057 1167.1317 -77.171043 4294967219
307.93704 1167.2614 -77.812836 4294967219
311.70471 1167.1034 -77.663208 4294967219
436.13983 1133.9174 -76.134888 4294967220
437.89053 1133.4248 -76.200287 4294967220
439.96094 1133.5106 -76.094002 4294967220
443.63162 1133.434 -76.297066 4294967220
423.33957 1135.1698 -76.754814 4294967220
425.33356 1134.9685 -76.992706 4294967220
431.54599 1134.2433 -76.960602 4294967220
433.80481 1134.1428 -76.284233 4294967220
449.74319 1135.7345 -76.203651 4294967220
361.41623 1139.8784 -76.182083 4294967220
365.48392 1139.6073 -76.128792 4294967220
371.48447 1139.2605 -76.087357 4294967220
375.29639 1138.9442 -76.02832 4294967220
383.70233 1138.0487 -76.069061 4294967220
386.7941 1137.2075 -76.877586 4294967220
450.09177 1137.7015 -76.083679 4294967220
301.08835 1142.908 -76.74353 4294967220
303.48325 1142.4862 -76.915642 4294967220
305.46109 1142.5415 -76.778328 4294967220
307.35052 1142.4382 -76.719734 4294967220
311.25879 1142.3301 -76.572647 4294967220
315.33292 1142.1428 -76.53064 4294967220
357.38019 1140.2823 -76.115898 4294967220
359.18814 1140.3707 -76.047615 4294967220
257.29382 1145.8048 -76.564178 4294967220
259.35397 1145.5294 -76.706367 4294967220
261.48816 1145.2754 -76.785973 4294967220
263.62775 1145.2815 -76.745621 4294967220
265.31366 1145.2356 -76.719376 4294967220
267.39075 1145.1381 -76.739441 4294967220
269.71396 1145.1829 -76.547287 4294967220
271.38382 1144.9076 -76.687164 4294967220
275.22598 1144.621 -76.605713 4294967220
277.37363 1143.9358 -76.954842 4294967220
280.97745 1144.3252 -76.531113 4294967220
285.52994 1143.8617 -76.697685 4294967220
287.86777 1143.7123 -76.786125 4294967220
291.52667 1143.4558 -76.852234 4294967220
295.56036 1143.2007 -76.95166 4294967220
297.6575 1143.0638 -76.927124 4294967220
247.42657 1146.5337 -76.52832 4294967220
449.13376 1154.5415 -76.294441 4294967220
438.85852 1157.7562 -76.530777 4294967220
441.48315 1157.5188 -76.402573 4294967220
444.259 1157.5203 -76.976425 4294967220
445.85376 1156.7206 -76.037979 4294967220
447.65625 1157.4735 -76.593361 4294967220
448.25775 1156.3192 -76.565567 4294967220
391.19397 1160.8239 -76.529358 4294967220
392.83514 1160.5776 -76.023605 4294967220
421.11313 1159.4525 -76.91143 4294967220
427.82773 1158.9432 -76.357521 4294967220
431.25436 1158.5909 -76.07341 4294967220
436.18732 1158.0829 -76.851097 4294967220
350.38748 1163.8271 -76.686302 4294967220
355.82526 1163.2249 -76.257141 4294967220
361.87881 1162.9792 -76.136673 4294967220
365.0441 1162.609 -76.698326 4294967220
368.83423 1162.4641 -76.578766 4294967220
381.78275 1161.557 -76.937065 4294967220
384.97153 1161.2679 -76.405472 4294967220
387.29474 1161.088 -76.885849 4294967220
308.13416 1166.6982 -76.181107 4294967220
320.78046 1165.5021 -76.191887 4294967220
329.63031 1164.9199 -76.215904 4294967220
332.17133 1164.9982 -76.471672 4294967220
339.63504 1164.2322 -76.132652 4294967220
405.1059 1136.9412 -75.310699 4294967221
411.42282 1136.3627 -75.077736 4294967221
413.45694 1136.1523 -75.006424 4294967221
440.36084 1134.2048 -75.06459 4294967221
445.25488 1134.9891 -75.514862 4294967221
379.16339 1138.6826 -75.949844 4294967221
389.16516 1137.6029 -75.377747 4294967221
391.28717 1137.2507 -75.746147 4294967221
393.22433 1137.4348 -75.373314 4294967221
395.60519 1137.5417 -75.244751 4294967221
399.46268 1137.4354 -75.718681 4294967221
401.30127 1137.326 -75.745941 4294967221
317.42111 1142.7374 -75.196831 4294967221
319.35883 1142.4741 -75.607788 4294967221
321.32227 1142.3723 -75.568169 4294967221
323.41614 1142.2971 -75.361107 4294967221
327.69238 1141.9436 -75.723518 4294967221
329.59381 1141.8711 -75.550613 4294967221
331.38754 1141.8662 -75.338547 4294967221
333.6665 1141.5981 -75.795021 4294967221
335.2121 1141.5972 -75.700882 4294967221
347.33185 1141.2104 -75.428955 4294967221
349.29498 1140.8895 -75.290916 4294967221
351.69611 1140.6584 -75.914063 4294967221
353.3125 1140.8763 -75.389366 4294967221
355.33499 1140.5771 -75.413048 4294967221
447.94733 1142.8188 -75.19632 4294967221
448.38834 1140.5281 -75.367386 4294967221
271.53293 1145.9651 -75.2603 4294967221
273.3739 1145.9031 -75.379234 4294967221
275.29443 1145.8074 -75.002991 4294967221
277.31775 1145.4597 -75.395691 4294967221
279.08243 1145.4424 -75.181244 4294967221
281.30942 1145.2422 -75.317329 4294967221
282.82755 1145.2505 -75.122025 4294967221
285.64743 1144.9028 -75.35479 4294967221
287.51813 1144.9392 -75.300568 4294967221
289.22119 1144.7231 -75.263229 4294967221
291.54007 1144.5186 -75.357391 4294967221
293.25757 1144.5 -75.187263 4294967221
295.47122 1144.2609 -75.419067 4294967221
297.39648 1144.1049 -75.545601 4294967221
301.5878 1143.7991 -75.404068 4294967221
303.21359 1143.7831 -75.152962 4294967221
305.91949 1143.4622 -75.431664 4294967221
307.51025 1143.4572 -75.236435 4294967221
313.36249 1143.0461 -75.160576 4294967221
247.2578 1147.6429 -75.232239 4294967221
249.41809 1147.08 -75.828094 4294967221
251.28214 1147.0321 -75.705376 4294967221
253.28401 1146.7001 -75.939529 4294967221
257.47046 1146.9397 -75.233505 4294967221
259.25726 1146.8339 -75.216736 4294967221
261.83118 1146.5773 -75.34407 4294967221
265.30115 1146.332 -75.35585 4294967221
267.47992 1146.2078 -75.377716 4294967221
443.21646 1157.0717 -75.812416 4294967221
388.79785 1160.9694 -75.980888 4294967221
397.32159 1160.45 -75.656105 4294967221
399.58737 1160.3469 -75.429337 4294967221
402.50031 1160.3083 -75.740982 4294967221
405.1713 1160.3259 -75.258057 4294967221
407.43286 1160.312 -75.054428 4294967221
409.25803 1160.2461 -75.28566 4294967221
411.25836 1160.1615 -75.109032 4294967221
415.8746 1159.8976 -75.135735 4294967221
432.96518 1158.3555 -75.117546 4294967221
434.02701 1158.2786 -75.952484 4294967221
346.94733 1163.7866 -75.843651 4294967221
352.91071 1163.5758 -75.909622 4294967221
358.8793 1163.0228 -75.95723 4294967221
363.43274 1162.8115 -75.990906 4294967221
305.40967 1166.4104 -75.101532 4294967221
419.13751 1135.5101 -74.662033 4294967222
421.51633 1135.2902 -74.705727 4294967222
424.98309 1134.9119 -74.792793 4294967222
427.32901 1134.6672 -74.844307 4294967222
429.63812 1134.4053 -74.866257 4294967222
431.93359 1134.4829 -74.078644 4294967222
442.8504 1135.0492 -74.602211 4294967222
447.31451 1135.8491 -74.826073 4294967222
369.31827 1139.8462 -74.048889 4294967222
373.32428 1139.5505 -74.065216 4294967222
381.57883 1138.9508 -74.289307 4294967222
445.68015 1137.5731 -74.151215 4294967222
446.28024 1139.7693 -74.086411 4294967222
447.66455 1137.735 -74.577522 4294967222
333.90088 1142.2769 -74.053978 4294967222
337.27975 1142.0244 -74.697502 4294967222
339.42154 1141.6785 -74.809357 4294967222
343.39941 1141.5897 -74.718544 4294967222
357.62711 1140.6608 -74.046478 4294967222
361.52203 1140.5062 -74.079521 4294967222
363.75934 1140.3427 -74.154182 4294967222
365.66776 1140.2097 -74.139496 4294967222
367.54135 1140.0648 -74.43325 4294967222
283.68866 1145.6295 -74.11731 4294967222
287.58536 1145.3584 -74.085106 4294967222
291.27313 1145.0574 -74.092644 4294967222
293.29382 1144.8929 -74.173813 4294967222
295.47345 1144.7675 -74.118759 4294967222
301.32538 1144.4066 -74.066299 4294967222
319.52307 1143.0988 -74.095459 4294967222
247.37852 1148.1418 -74.074203 4294967222
249.22499 1148.0162 -74.060837 4294967222
251.5603 1147.8372 -74.094086 4294967222
255.37177 1147.5913 -74.149963 4294967222
261.44177 1147.1826 -74.090019 4294967222
263.51724 1147.0391 -74.02346 4294967222
265.35397 1146.8629 -74.119049 4294967222
269.63586 1146.5569 -74.287323 4294967222
273.33337 1146.3468 -74.07058 4294967222
275.58594 1146.1998 -74.035271 4294967222
279.6488 1146.0313 -74.214096 4294967222
447.70831 1151.8507 -74.955521 4294967222
446.65204 1154.7767 -74.967308 4294967222
434.10153 1157.9832 -74.238251 4294967222
435.84647 1157.7574 -74.796425 4294967222
437.94794 1157.2208 -74.666885 4294967222
439.96396 1157.026 -74.903557 4294967222
442.01065 1156.1564 -74.338036 4294967222
444.40167 1155.731 -74.569954 4294967222
402.25064 1160.3945 -74.630943 4294967222
413.03784 1160.1139 -74.721024 4294967222
419.32202 1159.7294 -74.79705 4294967222
423.78436 1159.4562 -74.863518 4294967222
425.7912 1159.1903 -74.306618 4294967222
432.3898 1158.3126 -74.370049 4294967222
379.44165 1161.7052 -74.028091 4294967222
385.83914 1161.1885 -74.192993 4294967222
321.21127 1165.2739 -74.913864 4294967222
324.16565 1165.1099 -74.122108 4294967222
325.66629 1165.0272 -74.157265 4294967222
329.91422 1164.7588 -74.073822 4294967222
333.15356 1164.4824 -74.288475 4294967222
421.79196 1135.1442 -73.019432 4294967223
434.80493 1134.593 -73.213539 4294967223
437.54745 1134.338 -73.961731 4294967223
441.22134 1135.8485 -73.160896 4294967223
375.28491 1139.3657 -73.925087 4294967223
377.85184 1139.2767 -73.933571 4294967223
383.34363 1138.6824 -73.67482 4294967223
385.6662 1138.5087 -73.995361 4294967223
387.18271 1138.3447 -73.613876 4294967223
389.62268 1138.0568 -73.273209 4294967223
393.45398 1137.8651 -73.069397 4294967223
399.63385 1137.5067 -73.390823 4294967223
403.52393 1137.0215 -73.1017 4294967223
443.323 1137.1228 -73.399155 4294967223
325.38165 1142.7875 -73.95211 4294967223
327.02234 1142.7294 -73.739761 4294967223
329.12714 1142.6155 -73.906052 4294967223
331.61359 1142.3522 -73.88192 4294967223
444.31088 1140.0166 -73.076241 4294967223
445.99603 1142.651 -73.897728 4294967223
281.53186 1145.866 -73.831131 4294967223
299.55783 1144.5166 -73.909454 4294967223
305.15674 1144.3667 -73.690689 4294967223
307.50677 1143.9824 -73.940399 4294967223
311.32446 1143.8319 -73.850739 4294967223
315.44775 1143.4803 -73.933189 4294967223
321.0386 1143.0819 -73.887115 4294967223
445.34296 1146.5641 -73.369736 4294967223
445.25427 1151.4994 -73.377274 4294967223
446.00327 1149.6981 -73.736351 4294967223
443.41531 1154.8326 -73.580376 4294967223
444.83963 1154.3694 -73.814651 4294967223
445.70435 1153.1733 -73.873245 4294967223
435.61713 1157.3088 -73.505707 4294967223
436.7955 1156.9901 -73.542969 4294967223
439.8262 1155.776 -73.29657 4294967223
391.5502 1160.8793 -73.821747 4294967223
393.37036 1160.8271 -73.421776 4294967223
399.80255 1160.5818 -73.040138 4294967223
410.94287 1160.2787 -73.034561 4294967223
428.59421 1158.7712 -73.656342 4294967223
431.01563 1158.4244 -73.792259 4294967223
353.21933 1163.1993 -73.869415 4294967223
359.11765 1162.9502 -73.892448 4294967223
361.74664 1162.8896 -73.360176 4294967223
364.95242 1162.6747 -73.366325 4294967223
375.29507 1162.0066 -73.693413 4294967223
383.64413 1161.4136 -73.844986 4294967223
387.42542 1161.1694 -73.299568 4294967223
389.16714 1161.0587 -73.512794 4294967223
308.65955 1166.4424 -73.899445 4294967223
334.73297 1164.4153 -73.811058 4294967223
415.27188 1135.7686 -72.78038 4294967224
417.39963 1135.531 -72.782906 4294967224
419.34131 1135.3685 -72.714912 4294967224
423.33868 1134.9855 -72.771416 4294967224
425.43716 1134.7704 -72.746536 4294967224
427.87219 1134.8213 -72.315498 4294967224
430.05267 1134.776 -72.345375 4294967224
436.62402 1134.7225 -72.481018 4294967224
437.68668 1134.8757 -72.388573 4294967224
439.12146 1135.2197 -72.687218 4294967224
397.29056 1137.6995 -72.924728 4294967224
401.1586 1137.3136 -72.98069 4294967224
442.39822 1139.2374 -72.127449 4294967224
337.51474 1142.241 -72.100174 4294967224
444.2066 1142.0957 -72.79232 4294967224
289.41693 1145.6973 -72.033089 4294967224
443.91864 1145.4485 -72.455078 4294967224
444.16193 1143.8552 -72.6726 4294967224
250.01344 1148.2299 -72.788727 4294967224
255.42816 1148.1534 -72.096542 4294967224
257.4342 1148.0179 -72.177773 4294967224
259.5741 1147.8373 -72.137741 4294967224
261.39548 1147.562 -72.003174 4294967224
271.38095 1146.9352 -72.016106 4294967224
277.51321 1146.5702 -72.057304 4294967224
442.69937 1151.3372 -72.092644 4294967224
443.92456 1151.3552 -72.659927 4294967224
444.03159 1149.564 -72.574898 4294967224
441.90933 1153.7073 -72.56852 4294967224
443.71417 1153.0201 -72.937012 4294967224
432.75528 1157.8932 -72.951653 4294967224
434.33603 1157.2 -72.49157 4294967224
437.92081 1156.2147 -72.976524 4294967224
402.71124 1160.4937 -72.782875 4294967224
405.3822 1160.4413 -72.750336 4294967224
408.9444 1160.3546 -72.799149 4294967224
415.41058 1160.208 -72.133072 4294967224
417.56021 1160.043 -72.704811 4294967224
423.5173 1159.4166 -72.766922 4294967224
430.43472 1158.1453 -72.014297 4294967224
356.35718 1163.4067 -72.337891 4294967224
405.28149 1136.7313 -71.025093 4294967225
436.01865 1135.175 -71.598747 4294967225
437.50507 1135.3154 -71.622322 4294967225
438.67166 1136.0939 -71.399483 4294967225
439.92682 1136.3773 -71.88826 4294967225
367.14972 1139.9553 -71.053322 4294967225
369.61365 1139.8129 -71.509354 4294967225
371.43726 1139.6523 -71.007278 4294967225
375.22058 1139.3627 -71.142303 4294967225
379.28674 1139.1072 -71.013611 4294967225
381.16238 1138.9329 -71.363533 4294967225
383.68518 1138.7213 -71.143593 4294967225
385.61676 1138.5511 -71.545654 4294967225
387.37018 1138.3815 -71.071159 4294967225
401.39191 1137.1992 -71.042068 4294967225
441.13531 1137.6042 -71.94133 4294967225
327.39679 1142.9072 -71.478622 4294967225
329.07913 1142.7754 -71.398384 4294967225
331.62323 1142.649 -71.967125 4294967225
333.4256 1142.5315 -71.58416 4294967225
339.45657 1141.9939 -71.514008 4294967225
343.42206 1141.6598 -71.71489 4294967225
349.16583 1141.1145 -71.293701 4294967225
353.66302 1140.8707 -71.910088 4294967225
357.62646 1140.7795 -71.735794 4294967225
359.3829 1140.5859 -71.53376 4294967225
361.67688 1140.4033 -71.665192 4294967225
363.74149 1140.2101 -71.248169 4294967225
442.57816 1141.8494 -71.823082 4294967225
287.31216 1145.8507 -71.551086 4294967225
291.38379 1145.5254 -71.967232 4294967225
293.32401 1145.3646 -71.948166 4294967225
295.58786 1145.1859 -71.936707 4294967225
297.41608 1145.0491 -71.881119 4294967225
301.18478 1144.8041 -71.736717 4294967225
305.63184 1144.3895 -71.98056 4294967225
307.13025 1144.425 -71.512062 4294967225
309.45932 1144.2756 -71.83712 4294967225
313.55426 1143.8284 -71.732025 4294967225
315.42926 1143.7692 -71.580627 4294967225
317.67941 1143.5828 -71.768692 4294967225
319.59271 1143.413 -71.37159 4294967225
321.38553 1143.2941 -71.481766 4294967225
323.49872 1143.1677 -71.553062 4294967225
325.53177 1143.0559 -71.728867 4294967225
441.64572 1144.3196 -71.076447 4294967225
442.89575 1144.4113 -71.840416 4294967225
247.15329 1148.661 -71.658585 4294967225
251.64384 1148.3695 -71.800758 4294967225
265.42288 1147.2494 -71.912247 4294967225
269.21597 1146.978 -71.895943 4294967225
275.30035 1146.662 -71.766258 4294967225
279.31265 1146.4318 -71.539452 4294967225
283.09482 1146.1783 -71.510612 4294967225
285.66083 1146.0016 -71.995407 4294967225
443.03592 1146.7655 -71.901787 4294967225
440.96497 1151.6715 -71.409286 4294967225
441.76749 1149.2046 -71.325462 4294967225
438.45905 1154.6646 -71.840874 4294967225
440.37814 1153.7209 -71.984917 4294967225
432.38687 1157.286 -71.367737 4294967225
436.06265 1156.0387 -71.946548 4294967225
393.62503 1160.9733 -71.319382 4294967225
398.32092 1160.7115 -71.706657 4294967225
408.19147 1160.5046 -71.024345 4294967225
421.65063 1159.5847 -71.173172 4294967225
426.25021 1158.9949 -71.745415 4294967225
428.23541 1158.4471 -71.199814 4294967225
357.44012 1163.4843 -71.057823 4294967225
359.444 1163.3658 -71.046837 4294967225
362.12259 1163.1545 -71.14679 4294967225
379.1044 1162.0526 -71.142639 4294967225
387.83121 1161.4352 -71.035179 4294967225
305.62482 1166.8615 -71.485977 4294967225
306.63556 1166.7681 -71.735573 4294967225
309.27847 1166.6281 -71.073738 4294967225
329.86694 1165.1765 -71.528229 4294967225
407.40024 1136.4808 -70.853577 4294967226
411.40585 1136.0515 -70.702126 4294967226
413.45218 1135.8434 -70.705894 4294967226
415.43384 1135.6198 -70.43396 4294967226
417.59158 1135.3633 -70.319138 4294967226
419.284 1135.1898 -70.20578 4294967226
421.15372 1135.0145 -70.165565 4294967226
423.93719 1134.7666 -70.165291 4294967226
432.03046 1135.2507 -70.992599 4294967226
434.66882 1135.6904 -70.620209 4294967226
437.02094 1136.3552 -70.520889 4294967226
373.20566 1139.5151 -70.993942 4294967226
377.65564 1139.167 -70.908073 4294967226
389.36288 1138.1862 -70.977348 4294967226
391.65469 1138.0112 -70.949333 4294967226
395.52536 1137.778 -70.977539 4294967226
397.35843 1137.6479 -70.984673 4294967226
399.58554 1137.3899 -70.847672 4294967226
439.08444 1137.5311 -70.783386 4294967226
440.4527 1139.8329 -70.850792 4294967226
355.14453 1140.8506 -70.944565 4294967226
440.61441 1142.1842 -70.587395 4294967226
440.3703 1147.7129 -70.416779 4294967226
441.39621 1146.6405 -70.920937 4294967226
439.85999 1150.0189 -70.482712 4294967226
437.15494 1153.3936 -70.460297 4294967226
439.1582 1152.4412 -70.894249 4294967226
429.46619 1157.8016 -70.389221 4294967226
430.89771 1157.4355 -70.609116 4294967226
433.8363 1156.0956 -70.654823 4294967226
399.7186 1160.7445 -70.877419 4294967226
401.6817 1160.6445 -70.973206 4294967226
403.26727 1160.5966 -70.935104 4294967226
405.32736 1160.5753 -70.531525 4294967226
413.79166 1160.335 -70.793411 4294967226
419.32312 1159.8525 -70.755409 4294967226
427.14865 1158.5486 -70.422081 4294967226
365.21671 1162.9065 -70.973526 4294967226
389.44943 1161.3804 -70.844139 4294967226
391.23022 1161.3022 -70.619095 4294967226
425.99451 1135.2755 -69.533241 4294967227
428.9971 1135.4509 -69.796867 4294967227
367.28448 1139.7852 -69.006035 4294967227
371.40915 1139.5076 -69.002785 4294967227
385.72751 1138.4633 -69.032967 4294967227
435.15036 1137.194 -69.091469 4294967227
436.7431 1138.2344 -69.209129 4294967227
437.74844 1137.7488 -69.92289 4294967227
438.28973 1139.1538 -69.697556 4294967227
337.55026 1142.1282 -69.177963 4294967227
339.82745 1141.9945 -69.354439 4294967227
355.54138 1140.5682 -69.027946 4294967227
438.90152 1141.4658 -69.636833 4294967227
289.43341 1145.532 -69.033661 4294967227
295.76556 1144.9679 -69.102158 4294967227
303.46133 1144.4225 -69.076805 4294967227
307.60678 1144.1722 -69.22641 4294967227
319.54385 1143.2972 -69.163788 4294967227
323.70831 1143.0066 -69.064598 4294967227
439.79611 1144.7151 -69.983604 4294967227
255.59297 1147.8856 -69.126961 4294967227
259.36929 1147.5544 -69.009972 4294967227
261.56885 1147.4962 -69.091873 4294967227
279.63306 1146.182 -69.26075 4294967227
438.71478 1147.9609 -69.553848 4294967227
437.96939 1150.7784 -69.725586 4294967227
435.04623 1154.1975 -69.802299 4294967227
430.08289 1156.8042 -69.246429 4294967227
431.94882 1156.4189 -69.841019 4294967227
424.20703 1159.1368 -70 4294967226
426.24274 1158.667 -69.922523 4294967227
361.71063 1163.5114 -69.041214 4294967227
405.11258 1136.5956 -68.537407 4294967228
407.62936 1136.3263 -68.872742 4294967228
409.4917 1136.0419 -68.130325 4294967228
411.50906 1135.842 -68.306946 4294967228
422.12659 1135.0334 -68.15657 4294967228
430.90152 1136.3997 -68.514755 4294967228
433.12244 1136.5934 -68.956566 4294967228
365.22589 1139.9435 -68.859146 4294967228
375.30676 1139.2321 -68.893723 4294967228
377.77615 1139.0342 -68.955627 4294967228
383.59656 1138.6136 -68.961426 4294967228
389.4498 1138.1091 -68.838997 4294967228
395.69171 1137.6545 -68.952393 4294967228
401.32339 1137.0471 -68.665894 4294967228
433.95932 1138.0178 -68.018005 4294967228
435.40677 1139.0129 -68.215866 4294967228
325.38013 1142.897 -68.949272 4294967228
357.21768 1140.4414 -68.578247 4294967228
359.31958 1140.3231 -68.893707 4294967228
361.36996 1140.1919 -68.905937 4294967228
437.2038 1141.5446 -68.659859 4294967228
437.24936 1145.7461 -68.537392 4294967228
248.92198 1148.2811 -68.756172 4294967228
257.43442 1147.7235 -68.982239 4294967228
267.45837 1147.0334 -68.993187 4294967228
275.49756 1146.4254 -68.99617 4294967228
277.06027 1146.3505 -68.953354 4294967228
436.64484 1148.7493 -68.555809 4294967228
435.92596 1151.6249 -68.961723 4294967228
432.99707 1154.6985 -68.960831 4294967228
433.85846 1152.3711 -68.138023 4294967228
427.66718 1157.5325 -68.828346 4294967228
431.06607 1155.1669 -68.247231 4294967228
403.5466 1160.7589 -68.728577 4294967228
405.4834 1160.6559 -68.926826 4294967228
409.15448 1160.6284 -68.701431 4294967228
411.20044 1160.5919 -68.066727 4294967228
416.41287 1160.5267 -68.321732 4294967228
421.77023 1159.2709 -68.12484 4294967228
425.60178 1158.4651 -68.751884 4294967228
375.77814 1162.6445 -68.779434 4294967228
379.25763 1162.5266 -68.591476 4294967228
387.56577 1161.8081 -68.563393 4294967228
391.82501 1161.5524 -68.681999 4294967228
399.99753 1161.0336 -68.997551 4294967228
400.64636 1161.0547 -68.606384 4294967228
311.54269 1166.7799 -68.79985 4294967228
314.65823 1166.5315 -68.684113 4294967228
325.24225 1165.6986 -68.375977 4294967228
332.00208 1165.2427 -68.612732 4294967228
305.65909 1167.1842 -68.876808 4294967228
415.65182 1135.4102 -67.733856 4294967229
417.79367 1135.27 -67.782524 4294967229
419.34775 1135.2656 -67.42598 4294967229
423.40891 1135.1532 -67.407616 4294967229
427.32538 1136.2333 -67.677422 4294967229
429.10104 1136.4642 -67.760918 4294967229
430.08121 1137.4358 -67.023872 4294967229
432.03482 1138.3517 -67.138618 4294967229
433.95316 1139.7057 -67.289795 4294967229
329.09341 1142.5967 -67.594528 4294967229
340.02585 1141.625 -67.224503 4294967229
435.56412 1141.1693 -67.73262 4294967229
435.51273 1143.7556 -67.516922 4294967229
271.61441 1146.5521 -67.069633 4294967229
435.14175 1146.5944 -67.424583 4294967229
434.54291 1149.5399 -67.606987 4294967229
431.85477 1152.9781 -67.379387 4294967229
425.42169 1157.5797 -67.231644 4294967229
429.2085 1155.5929 -67.640083 4294967229
414.29852 1160.6151 -67.979897 4294967229
417.94693 1159.8475 -67.351105 4294967229
423.18503 1158.8296 -67.344345 4294967229
424.07498 1158.7213 -67.980705 4294967229
413.97821 1135.9084 -66.108749 4294967230
421.29013 1135.8129 -66.175949 4294967230
425.26828 1136.3416 -66.886383 4294967230
363.57852 1139.8301 -66.61496 4294967230
367.16 1139.571 -66.754639 4294967230
371.32184 1139.3109 -66.793442 4294967230
375.39114 1139.0513 -66.721062 4294967230
377.51651 1138.9119 -66.66526 4294967230
379.49832 1138.7999 -66.890305 4294967230
383.27615 1138.4934 -66.875038 4294967230
385.58298 1138.2899 -66.64592 4294967230
387.21808 1138.1553 -66.638229 4294967230
391.43372 1137.8331 -66.94239 4294967230
426.57117 1137.0869 -66.284569 4294967230
428.25717 1137.6527 -66.350212 4294967230
325.12109 1142.8247 -66.326645 4294967230
332.9747 1142.1837 -66.775185 4294967230
335.35803 1142.0065 -66.85894 4294967230
345.36295 1141.1976 -66.700119 4294967230
351.33749 1140.7549 -66.663612 4294967230
353.47226 1140.5975 -66.65818 4294967230
355.76614 1140.4419 -66.735077 4294967230
359.34628 1140.1643 -66.596687 4294967230
361.3103 1140.0074 -66.691895 4294967230
432.61487 1140.4923 -66.459999 4294967230
433.90375 1141.9512 -66.789314 4294967230
279.40771 1145.9795 -66.714737 4294967230
283.2514 1145.7421 -66.681412 4294967230
287.32874 1145.4277 -66.707596 4294967230
299.21381 1144.5458 -66.86483 4294967230
305.41501 1144.0833 -66.909775 4294967230
307.53632 1143.9432 -66.80368 4294967230
311.37076 1143.655 -66.721352 4294967230
319.23123 1143.1598 -66.66433 4294967230
321.30316 1143.0172 -66.884605 4294967230
433.60193 1144.5059 -66.515419 4294967230
255.74782 1147.6586 -66.809662 4294967230
257.47443 1147.556 -66.815926 4294967230
259.2908 1147.4008 -66.843903 4294967230
433.04535 1147.2483 -66.449097 4294967230
430.46481 1150.9592 -66.035103 4294967230
432.42325 1150.1827 -66.726715 4294967230
428.32858 1153.9457 -66.205536 4294967230
430.00964 1153.5626 -66.741394 4294967230
426.65295 1156.3025 -66.887314 4294967230
427.76038 1155.644 -66.978157 4294967230
420.43326 1158.9697 -66.188004 4294967230
421.86841 1158.6594 -66.271225 4294967230
422.76703 1158.6459 -66.744209 4294967230
423.82129 1158.1984 -66.728188 4294967230
361.27231 1163.9233 -66.747528 4294967230
379.77533 1162.688 -66.882973 4294967230
380.60648 1162.6539 -66.352966 4294967230
385.41171 1162.2648 -66.423386 4294967230
389.51807 1162.0261 -66.279419 4294967230
396.76309 1161.3492 -66.773064 4294967230
404.26877 1161.1021 -66.008881 4294967230
318.13022 1166.2756 -66.329376 4294967230
327.42218 1165.6853 -66.911697 4294967230
329.80096 1165.4874 -66.611252 4294967230
357.80817 1164.2322 -66.588676 4294967230
306.08441 1167.5458 -66.857948 4294967230
309.97916 1167.1416 -66.981903 4294967230
401.24854 1136.7883 -65.705521 4294967231
403.86478 1136.5377 -65.95282 4294967231
405.6781 1136.3618 -65.777985 4294967231
407.47702 1136.3721 -65.729767 4294967231
409.73163 1136.1555 -65.856339 4294967231
411.39322 1136.1329 -65.652313 4294967231
415.60419 1135.9421 -65.779358 4294967231
417.57162 1135.8896 -65.993721 4294967231
397.80386 1137.1661 -65.980682 4294967231
423.08344 1137.3618 -65.311638 4294967231
425.41003 1137.6503 -65.594627 4294967231
426.7446 1138.3016 -65.471016 4294967231
428.11942 1139.8737 -65.158279 4294967231
429.92166 1139.0199 -65.97876 4294967231
429.67694 1140.4677 -65.32399 4294967231
431.46448 1141.6028 -65.811218 4294967231
430.59329 1144.554 -65.181915 4294967231
431.92322 1145.2051 -65.738983 4294967231
430.63083 1147.4597 -65.418373 4294967231
428.85156 1150.5337 -65.283279 4294967231
426.63553 1154.3197 -65.680786 4294967231
427.2251 1152.2178 -65.111176 4294967231
422.74594 1157.7061 -65.536293 4294967231
424.18356 1156.9739 -65.820984 4294967231
425.35132 1155.8219 -65.83252 4294967231
409.70074 1160.6819 -65.0186 4294967231
414.91864 1160.4355 -65.356171 4294967231
421.17059 1158.1099 -65.111153 4294967231
391.38507 1161.9083 -65.986893 4294967231
399.5329 1161.3839 -65.703171 4294967231
401.33878 1161.321 -65.748093 4294967231
313.31897 1166.8954 -65.58902 4294967231
322.71561 1165.8279 -65.671661 4294967231
325.74594 1165.7491 -65.54985 4294967231
328.60016 1165.6307 -65.136238 4294967231
411.57224 1136.5842 -64.03183 4294967232
415.55643 1136.467 -64.557465 4294967232
417.4689 1136.809 -64.207832 4294967232
419.32379 1136.8093 -64.433304 4294967232
359.60983 1139.9501 -64.212814 4294967232
365.14136 1139.5259 -64.135963 4294967232
371.49319 1139.0264 -64.061676 4294967232
375.4978 1138.8038 -64.126106 4294967232
381.72031 1138.4447 -64.006889 4294967232
423.08167 1139.7902 -64.083893 4294967232
425.47003 1139.9203 -64.598793 4294967232
323.0679 1142.9513 -64.279495 4294967232
325.17642 1142.8156 -64.043633 4294967232
331.29617 1142.3713 -64.304588 4294967232
333.67151 1142.165 -64.70047 4294967232
337.70184 1141.8934 -64.601425 4294967232
341.8244 1141.3457 -64.53299 4294967232
345.48526 1141.0376 -64.181305 4294967232
349.39838 1140.7443 -64.243103 4294967232
351.38519 1140.5905 -64.190742 4294967232
353.45416 1140.4269 -64.084404 4294967232
355.4032 1140.275 -64.062401 4294967232
357.16299 1140.1659 -64.26049 4294967232
427.38022 1141.8555 -64.452484 4294967232
429.48257 1142.4028 -64.935135 4294967232
277.41779 1145.8893 -64.407616 4294967232
279.47351 1145.7089 -64.249863 4294967232
295.31567 1144.6371 -64.22364 4294967232
297.56943 1144.5227 -64.787361 4294967232
301.20547 1144.1913 -64.265793 4294967232
303.42291 1144.0634 -64.757202 4294967232
305.25897 1143.8785 -64.158844 4294967232
309.37769 1143.6002 -64.391472 4294967232
317.59995 1143.0903 -64.180252 4294967232
320.32159 1143.1062 -64.200188 4294967232
425.98801 1143.0229 -64.015121 4294967232
427.74969 1144.3516 -64.272003 4294967232
429.35919 1145.1646 -64.747749 4294967232
247.27728 1148.0298 -64.334312 4294967232
249.25812 1147.9088 -64.451241 4294967232
253.35909 1147.6377 -64.694778 4294967232
255.35321 1147.4445 -64.066101 4294967232
257.49109 1147.3048 -64.280205 4294967232
259.3335 1147.1725 -64.255592 4294967232
261.40378 1147.0471 -64.291046 4294967232
265.64008 1146.73 -64.214401 4294967232
267.34598 1146.6056 -64.163872 4294967232
269.5369 1146.4592 -64.420494 4294967232
271.41788 1146.2891 -64.075851 4294967232
273.81546 1146.1445 -64.586418 4294967232
426.61642 1147.6525 -64.13533 4294967232
427.6087 1148.3336 -64.425529 4294967232
428.50888 1146.8807 -64.569778 4294967232
426.02408 1150.4084 -64.345871 4294967232
427.50836 1150.1815 -64.688629 4294967232
423.052 1154.2845 -64.122337 4294967232
424.55865 1153.6511 -64.632851 4294967232
425.75742 1152.2834 -64.679001 4294967232
420.64511 1157.2056 -64.158226 4294967232
421.74722 1157.2268 -64.588219 4294967232
422.5199 1156.1241 -64.425316 4294967232
423.59457 1156.0208 -64.924408 4294967232
412.16565 1160.6703 -64.421227 4294967232
417.7319 1159.6848 -64.454483 4294967232
419.08038 1158.3378 -64.417358 4294967232
376.4017 1163.158 -64.473564 4294967232
319.09805 1166.062 -64.330185 4294967232
320.49432 1165.8864 -64.294662 4294967232
327.35059 1165.722 -64.966766 4294967232
333.02777 1165.1727 -64.720428 4294967232
359.71628 1164.5065 -64.111572 4294967232
309.5791 1167.4066 -64.533028 4294967232
405.6312 1136.8309 -63.672527 4294967233
407.35352 1136.7958 -63.758343 4294967233
409.52298 1136.6887 -63.880245 4294967233
363.1037 1139.5878 -63.883972 4294967233
367.35532 1139.2357 -63.829807 4294967233
369.26019 1139.1051 -63.918232 4294967233
373.31845 1139.021 -63.855186 4294967233
377.46329 1138.6687 -63.874702 4294967233
379.21555 1138.6592 -63.790173 4294967233
383.34851 1138.3937 -63.67749 4294967233
385.78656 1138.0608 -63.700436 4294967233
389.44141 1137.7843 -63.562618 4294967233
391.37256 1137.7972 -63.62035 4294967233
397.00388 1137.3833 -63.167503 4294967233
401.51996 1137.097 -63.546371 4294967233
419.23874 1138.1478 -63.4235 4294967233
421.36243 1138.0571 -63.888508 4294967233
327.77841 1142.7534 -63.137249 4294967233
335.55655 1142.1115 -63.621735 4294967233
339.83774 1141.7279 -63.911076 4294967233
347.36182 1140.88 -63.957928 4294967233
421.48257 1141.5361 -63.315048 4294967233
423.91827 1142.2887 -63.74649 4294967233
280.98096 1145.5541 -63.554119 4294967233
422.59564 1144.4766 -63.353256 4294967233
424.85995 1145.0852 -63.705475 4294967233
426.37332 1144.7389 -63.933807 4294967233
275.11292 1146.0155 -63.994041 4294967233
421.67529 1146.91 -63.19717 4294967233
423.40561 1147.3903 -63.526527 4294967233
425.00632 1148.0275 -63.84779 4294967233
421.96078 1150.4751 -63.354992 4294967233
422.33832 1149.036 -63.391121 4294967233
424.02603 1150.6104 -63.899849 4294967233
421.25159 1154.1703 -63.466923 4294967233
422.55612 1152.4387 -63.683098 4294967233
419.522 1155.8723 -63.190994 4294967233
421.41513 1156.158 -63.956741 4294967233
411.93167 1160.3417 -63.496471 4294967233
415.07465 1159.9762 -63.828625 4294967233
417.44809 1158.6573 -63.033485 4294967233
380.35101 1163.073 -63.579536 4294967233
381.72702 1162.9297 -63.887077 4294967233
383.5365 1162.6906 -63.689804 4294967233
386.19055 1162.7065 -63.72171 4294967233
389.21664 1162.5077 -63.647076 4294967233
391.91641 1162.072 -63.19281 4294967233
313.38428 1166.9021 -63.461018 4294967233
314.35815 1166.7919 -63.89286 4294967233
315.85037 1166.4291 -63.797806 4294967233
317.9791 1166.1249 -63.961456 4294967233
324.9126 1165.386 -63.348209 4294967233
326.68677 1165.5541 -63.793087 4294967233
328.29971 1165.4005 -63.41729 4294967233
330.31519 1165.2618 -63.774448 4294967233
336.98065 1164.8221 -63.36068 4294967233
343.13605 1164.6738 -63.703419 4294967233
345.21576 1164.6577 -63.552517 4294967233
365.40704 1164.1063 -63.789448 4294967233
303.47852 1168.1476 -63.916882 4294967233
311.77322 1167.1343 -63.415489 4294967233
260.97824 1171.1433 -63.35957 4294967233
270.8786 1170.5985 -63.765842 4294967233
369.52835 1139.4003 -62.030621 4294967234
401.34735 1137.6646 -62.119965 4294967234
403.57434 1137.5153 -62.180111 4294967234
405.20804 1137.432 -62.349762 4294967234
407.39874 1137.3119 -62.599735 4294967234
409.32513 1137.4784 -62.408638 4294967234
411.62634 1137.5934 -62.521103 4294967234
415.32541 1138.4586 -62.49762 4294967234
417.32761 1139.027 -62.709534 4294967234
419.61517 1139.6263 -62.977924 4294967234
