# .PCD v0.7 - Point Cloud Data file format
VERSION 0.7
FIELDS x y z rgba
SIZE 4 4 4 4
TYPE F F F U
COUNT 1 1 1 1
WIDTH 1147
HEIGHT 1
VIEWPOINT 0 0 0 1 0 0 0
POINTS 1147
DATA ascii
155.62451 1153.9753 -610.04944 4294966686
157.49226 1153.8418 -610.05701 4294966686
161.46985 1153.6283 -610.26227 4294966686
163.47025 1153.4493 -610.45636 4294966686
165.75893 1153.0811 -610.45465 4294966686
169.5795 1152.7958 -610.20679 4294966686
171.38501 1152.6742 -610.11395 4294966686
173.29793 1152.5746 -610.0058 4294966686
111.18851 1157.5237 -610.09723 4294966686
129.43668 1156.6024 -610.09906 4294966686
131.61877 1156.2133 -610.16455 4294966686
135.24408 1155.6082 -610.09991 4294966686
69.499702 1160.5034 -610.12158 4294966686
83.356476 1159.5345 -610.20239 4294966686
87.456924 1159.2197 -610.02917 4294966686
99.222656 1158.3939 -610.25098 4294966686
1.0820006 1163.4939 -610.34973 4294966686
15.586175 1163.2115 -610.74438 4294966686
22.998512 1163.3376 -610.1438 4294966686
26.994413 1163.1952 -610.07202 4294966686
30.167458 1162.4463 -610.9408 4294966686
35.532066 1162.5961 -610.00598 4294966686
55.422337 1161.4508 -610.18909 4294966686
57.021069 1161.3143 -610.48212 4294966686
59.677544 1161.1477 -610.25446 4294966686
233.93321 1124.7734 -609.83759 4294966687
235.72244 1124.5803 -609.84558 4294966687
243.08621 1123.6073 -609.80377 4294966687
245.27444 1123.3492 -609.80487 4294966687
174.25449 1127.4426 -609.96143 4294966687
187.66411 1127.3138 -609.86359 4294966687
203.44054 1126.3435 -609.96729 4294966687
217.31116 1125.3213 -609.94574 4294966687
223.15172 1125.3625 -609.66754 4294966687
224.85391 1125.2648 -609.41949 4294966687
227.27229 1125.4445 -609.88525 4294966687
230.11432 1125.2382 -609.89783 4294966687
232.3887 1125.0428 -609.91467 4294966687
162.11214 1129.6021 -609.54114 4294966687
112.12297 1133.3695 -609.20929 4294966687
119.43873 1132.7081 -609.78973 4294966687
52.793381 1139.8398 -609.95905 4294966687
53.852825 1139.4343 -609.32098 4294966687
70.859741 1137.3129 -609.24591 4294966687
9.7580223 1142.9941 -609.75244 4294966687
11.687135 1142.9152 -609.85291 4294966687
17.740242 1142.2386 -609.47833 4294966687
19.101004 1142.2422 -609.54767 4294966687
21.936489 1142.323 -609.18195 4294966687
23.477152 1142.566 -609.17053 4294966687
37.41251 1142.9926 -609.57001 4294966687
42.018917 1142.7767 -609.8396 4294966687
48.142452 1141.345 -609.80914 4294966687
49.368313 1140.8179 -609.65137 4294966687
3.9227841 1143.9961 -609.29883 4294966687
5.8001933 1143.3282 -609.22882 4294966687
25.607372 1143.0728 -609.48901 4294966687
34.962543 1143.1526 -609.41187 4294966687
239.76828 1145.8309 -609.7605 4294966687
221.14011 1148.7644 -609.21906 4294966687
222.64983 1148.5073 -609.81519 4294966687
225.43019 1148.1008 -609.86548 4294966687
227.02924 1147.7697 -609.74963 4294966687
232.42409 1146.7894 -609.67114 4294966687
234.8929 1146.1873 -609.93243 4294966687
237.48901 1146.2267 -609.28748 4294966687
241.9838 1146.0238 -609.56793 4294966687
191.68878 1151.1804 -609.69556 4294966687
195.358 1150.8898 -609.6806 4294966687
197.23819 1150.7344 -609.72101 4294966687
199.55756 1150.6014 -609.71521 4294966687
201.33472 1150.4548 -609.88599 4294966687
203.6021 1150.3319 -609.56842 4294966687
205.58069 1150.1659 -609.70496 4294966687
209.45087 1149.874 -609.6416 4294966687
215.49887 1149.0969 -609.18799 4294966687
217.70711 1149.0063 -609.0401 4294966687
177.62598 1152.4515 -609.80035 4294966687
107.43803 1157.844 -609.80493 4294966687
117.57293 1157.038 -609.90637 4294966687
127.44167 1156.8743 -609.29681 4294966687
133.47415 1155.9514 -609.9115 4294966687
137.88899 1155.5433 -609.81891 4294966687
141.29893 1155.1473 -609.9538 4294966687
61.65855 1160.9971 -609.89233 4294966687
65.649544 1160.7682 -609.96289 4294966687
71.463081 1160.3503 -609.90326 4294966687
73.154877 1160.1929 -609.73547 4294966687
77.335884 1159.8368 -609.92407 4294966687
79.513557 1159.7654 -609.81854 4294966687
85.775726 1159.2745 -609.9118 4294966687
91.476234 1158.8787 -609.91583 4294966687
95.436768 1158.6499 -609.85394 4294966687
101.5662 1158.2666 -609.65692 4294966687
19.458717 1163.6451 -609.7168 4294966687
29.946413 1162.9985 -609.76794 4294966687
37.607674 1162.5396 -610 4294966686
39.771832 1162.4292 -609.96289 4294966687
51.534664 1161.7842 -609.87347 4294966687
1.2974478 1164.5604 -609.55353 4294966687
7.355391 1164.5359 -609.79889 4294966687
9.0428915 1164.287 -609.86664 4294966687
11.587415 1164.1185 -609.55377 4294966687
213.56163 1124.5065 -608.39203 4294966688
215.36108 1124.739 -608.31873 4294966688
217.40804 1124.886 -608.22888 4294966688
221.65552 1124.9623 -608.00208 4294966688
223.42017 1124.7755 -608.05383 4294966688
233.65396 1124.4043 -608.35443 4294966688
235.81667 1123.6864 -608.11572 4294966688
239.24391 1123.452 -608.16888 4294966688
171.33281 1127.9164 -608.94855 4294966688
175.86263 1127.2162 -608.41705 4294966688
176.864 1127.2056 -608.29218 4294966688
180.8438 1127.5116 -608.92017 4294966688
183.32477 1127.3566 -608.04724 4294966688
189.38153 1126.9248 -608.15192 4294966688
191.23013 1126.9597 -608.19006 4294966688
193.50462 1126.7908 -608.1333 4294966688
195.03854 1126.6187 -608.09723 4294966688
197.5264 1126.5724 -608.01318 4294966688
219.38551 1125.1152 -608.08154 4294966688
165.61594 1128.9921 -608.09259 4294966688
167.77893 1128.6582 -608.68079 4294966688
169.46777 1128.3563 -608.34332 4294966688
108.51723 1133.7628 -608.45532 4294966688
80.545876 1136.1025 -608.89441 4294966688
85.077827 1135.7511 -608.03961 4294966688
51.944904 1139.7739 -608.73798 4294966688
56.405815 1138.8214 -608.83716 4294966688
59.601254 1138.1448 -608.2804 4294966688
65.120903 1137.5295 -608.62091 4294966688
67.824142 1137.5774 -608.80469 4294966688
9.3909998 1141.9825 -608.06757 4294966688
15.100301 1141.2767 -608.09387 4294966688
19.968204 1141.9652 -608.68054 4294966688
28.217407 1142.7544 -608.67578 4294966688
30.27767 1142.6459 -608.4173 4294966688
32.109947 1142.9629 -608.93036 4294966688
38.548672 1142.4258 -608.8255 4294966688
40.116661 1142.1989 -608.54919 4294966688
43.135216 1141.7797 -608.17267 4294966688
44.769733 1141.5107 -608.1145 4294966688
46.503181 1141.5005 -608.98334 4294966688
50.158199 1140.2976 -608.89526 4294966688
224.44579 1148.5756 -608.92908 4294966688
226.31253 1148.511 -608.11475 4294966688
228.91745 1147.8052 -608.88135 4294966688
230.71672 1147.5061 -608.80469 4294966688
234.78928 1147.0344 -608.4325 4294966688
236.1683 1146.8083 -608.53168 4294966688
238.98013 1146.6454 -608.34387 4294966688
244.03685 1146.665 -608.16864 4294966688
25.299778 1163.9025 -608.3418 4294966688
27.274656 1163.6099 -608.03094 4294966688
29.136795 1163.5471 -608.17621 4294966688
33.447926 1162.9399 -608.99207 4294966688
36.830101 1163.0228 -608.11432 4294966688
41.394657 1162.7725 -608.22925 4294966688
5.4425135 1165.3612 -608.16754 4294966688
7.2206178 1164.9674 -608.81018 4294966688
8.9857664 1164.9692 -608.54865 4294966688
19.192307 1164.2469 -608.0246 4294966688
21.447054 1164.1364 -608.35413 4294966688
225.26781 1124.9813 -607.99707 4294966689
226.85188 1124.8845 -607.25281 4294966689
228.87546 1124.8544 -607.90564 4294966689
231.11211 1124.6489 -607.16455 4294966689
243.00668 1123.3132 -607.97784 4294966689
245.56223 1122.9541 -607.89459 4294966689
179.95818 1127.5146 -607.70587 4294966689
185.21931 1127.2512 -607.9931 4294966689
199.24425 1126.3258 -607.9118 4294966689
145.21584 1130.9337 -607.62775 4294966689
146.6199 1130.8292 -607.62463 4294966689
149.3602 1130.5675 -607.7428 4294966689
150.87151 1130.4224 -607.64154 4294966689
153.51883 1130.0824 -607.84039 4294966689
155.59961 1129.949 -607.49402 4294966689
157.41212 1129.7623 -607.7735 4294966689
159.42435 1129.6168 -607.63129 4294966689
161.40703 1129.3978 -607.65283 4294966689
163.95601 1129.1246 -607.98236 4294966689
111.2758 1133.7023 -607.26221 4294966689
113.78133 1133.5016 -607.32721 4294966689
115.57085 1133.4152 -607.12439 4294966689
117.74931 1133.2046 -607.54962 4294966689
121.85117 1132.8447 -607.3606 4294966689
123.82561 1132.6228 -607.64923 4294966689
126.93854 1132.3771 -607.72833 4294966689
129.4016 1132.2589 -607.34711 4294966689
131.65208 1132.03 -607.68811 4294966689
133.28104 1131.8859 -607.71356 4294966689
135.29279 1131.7155 -607.57544 4294966689
137.63191 1131.4973 -607.63666 4294966689
139.20528 1131.3813 -607.65497 4294966689
141.7852 1131.1981 -607.4588 4294966689
143.32687 1131.0732 -607.64398 4294966689
73.298531 1136.6711 -607.95325 4294966689
76.694748 1136.649 -607.34338 4294966689
84.167603 1135.8652 -607.91107 4294966689
88.218239 1135.5829 -607.45068 4294966689
89.403534 1135.4208 -607.97449 4294966689
91.75985 1135.2587 -607.67181 4294966689
95.521805 1134.9258 -607.75726 4294966689
97.464096 1134.7708 -607.8833 4294966689
103.19357 1134.4014 -607.27509 4294966689
105.02353 1134.2104 -607.48895 4294966689
107.32307 1134.0122 -607.34998 4294966689
50.418819 1139.9885 -607.67804 4294966689
53.798733 1139.1877 -607.56982 4294966689
55.207039 1138.8478 -607.08929 4294966689
62.132675 1137.6412 -607.29651 4294966689
7.636292 1142.1812 -607.95068 4294966689
17.743481 1141.566 -607.92841 4294966689
20.772829 1141.5516 -607.04614 4294966689
22.452337 1141.8333 -607.54755 4294966689
24.837414 1142.0933 -607.66357 4294966689
26.572632 1142.2454 -607.84674 4294966689
31.449705 1141.9661 -607.02753 4294966689
33.375164 1142.051 -607.39758 4294966689
35.048664 1141.9968 -607.53265 4294966689
36.901047 1142.0839 -607.93384 4294966689
38.755249 1141.6743 -607.16803 4294966689
41.525761 1141.8285 -607.97815 4294966689
48.369644 1140.522 -607.3559 4294966689
222.85489 1148.9858 -607.52496 4294966689
225.29648 1148.8521 -607.01324 4294966689
228.01703 1148.3148 -607.66681 4294966689
233.30751 1147.5616 -607.27667 4294966689
240.92328 1146.8289 -607.51703 4294966689
191.35164 1151.6576 -607.69031 4294966689
193.68927 1151.5005 -607.64502 4294966689
197.14406 1151.2374 -607.73938 4294966689
199.42815 1151.0995 -607.65326 4294966689
201.47797 1151.0013 -607.75146 4294966689
205.56351 1150.7174 -607.77368 4294966689
211.28357 1150.1742 -607.68097 4294966689
213.5892 1149.9919 -607.71399 4294966689
215.07202 1149.8955 -607.60797 4294966689
217.0994 1149.6448 -607.46997 4294966689
219.55928 1149.2368 -607.34418 4294966689
145.46286 1154.9342 -607.53632 4294966689
147.21118 1154.7891 -607.24908 4294966689
149.54494 1154.5903 -607.08667 4294966689
151.54459 1154.4375 -607.16046 4294966689
153.65404 1154.286 -607.4057 4294966689
157.41078 1153.9912 -607.29724 4294966689
161.33768 1153.6777 -607.58734 4294966689
163.4201 1153.5227 -607.27118 4294966689
165.53737 1153.382 -607.53906 4294966689
167.53787 1153.2625 -607.55402 4294966689
169.40781 1153.1447 -607.51825 4294966689
173.23586 1152.9442 -607.51978 4294966689
177.61803 1152.764 -607.47278 4294966689
185.45866 1152.1412 -607.4137 4294966689
120.88586 1156.9385 -607.33026 4294966689
125.80289 1156.952 -607.6189 4294966689
129.2354 1156.47 -607.27637 4294966689
131.58679 1156.1135 -607.26306 4294966689
133.50081 1155.8672 -607.27161 4294966689
135.45432 1155.7017 -607.02673 4294966689
137.5881 1155.4747 -607.08203 4294966689
141.02359 1155.2067 -607.06689 4294966689
143.41853 1155.0631 -607.30768 4294966689
63.814426 1160.8792 -607.47229 4294966689
65.321335 1160.7695 -607.38782 4294966689
67.40239 1160.652 -607.5235 4294966689
71.593895 1160.3387 -607.0921 4294966689
75.299927 1160.1105 -607.7865 4294966689
77.467773 1159.8937 -607.00177 4294966689
79.593781 1159.7994 -607.63116 4294966689
81.445557 1159.6823 -607.66492 4294966689
83.504196 1159.5223 -607.45526 4294966689
85.562401 1159.3619 -607.46088 4294966689
89.16758 1159.0819 -607.74249 4294966689
91.52372 1158.8955 -607.29535 4294966689
97.324463 1158.5396 -607.64026 4294966689
103.2759 1158.1279 -607.44025 4294966689
31.527191 1163.3994 -607.96198 4294966689
35.472626 1163.108 -607.52423 4294966689
39.485714 1162.8558 -607.4809 4294966689
43.639832 1162.598 -607.52002 4294966689
51.426285 1161.9189 -607.63751 4294966689
53.403172 1161.7651 -607.95612 4294966689
55.232922 1161.6049 -607.91364 4294966689
59.590122 1161.2054 -607.64697 4294966689
61.209225 1161.088 -607.47473 4294966689
3.197793 1165.7712 -607.89526 4294966689
15.379283 1164.4707 -607.92682 4294966689
24.017155 1164.0284 -607.84515 4294966689
164.41333 1129.433 -606.11035 4294966690
119.42529 1133.1412 -606.84143 4294966690
99.729424 1134.7062 -606.98059 4294966690
51.810463 1139.5808 -606.97577 4294966690
52.933605 1139.3007 -606.32458 4294966690
56.133533 1138.6932 -606.54144 4294966690
57.75037 1138.4441 -606.74341 4294966690
66.624908 1137.6791 -606.34448 4294966690
68.84362 1137.5303 -606.55817 4294966690
6.8437667 1141.8409 -606.20001 4294966690
8.8176203 1141.6145 -606.26843 4294966690
13.317999 1141.283 -606.35175 4294966690
16.845852 1141.3541 -606.98578 4294966690
18.906406 1141.4457 -606.185 4294966690
26.12249 1141.7931 -606.42108 4294966690
27.773468 1141.8734 -606.61145 4294966690
29.595802 1141.9257 -606.8371 4294966690
35.92062 1141.4961 -606.44629 4294966690
40.387985 1141.4005 -606.56531 4294966690
42.048958 1141.2169 -606.19354 4294966690
43.818928 1141.0502 -606.14679 4294966690
45.784409 1140.8593 -606.46802 4294966690
230.35495 1148.1742 -606.28711 4294966690
237.31943 1147.2483 -606.70044 4294966690
159.49956 1153.8059 -606.96747 4294966690
99.817558 1158.3325 -606.98407 4294966690
58.172935 1161.2454 -606.63739 4294966690
10.478397 1165.1462 -606.54431 4294966690
223.75356 1124.9048 -605.19189 4294966691
233.19287 1124.2476 -605.10089 4294966691
237.74236 1123.9259 -605.1626 4294966691
241.46204 1123.6643 -605.15973 4294966691
243.04533 1123.5597 -605.09064 4294966691
245.4903 1123.3529 -605.13568 4294966691
177.81665 1127.9451 -605.25061 4294966691
179.61699 1127.9432 -605.28271 4294966691
181.3613 1127.8394 -605.46576 4294966691
183.33939 1127.8348 -605.52783 4294966691
185.88266 1127.6693 -605.59058 4294966691
187.13538 1127.5566 -605.18146 4294966691
193.34375 1126.9999 -605.08374 4294966691
195.28816 1126.8219 -605.3197 4294966691
201.89006 1126.3019 -605.22058 4294966691
203.26137 1126.1647 -605.18518 4294966691
221.30658 1125.0886 -605.34894 4294966691
149.00334 1130.8846 -605.00024 4294966691
153.37276 1130.4781 -605.20544 4294966691
157.46352 1130.1039 -605.11932 4294966691
160.97923 1129.8716 -605.29358 4294966691
165.57661 1129.5588 -605.05103 4294966691
175.41158 1128.1008 -605.31622 4294966691
115.61417 1133.6643 -605.04071 4294966691
123.47897 1132.9818 -605.08124 4294966691
125.55293 1132.8287 -605.03998 4294966691
129.49309 1132.5117 -605.07452 4294966691
131.84653 1132.3162 -605.11108 4294966691
135.48236 1131.944 -605.08118 4294966691
138.21004 1131.749 -605.14294 4294966691
50.243374 1139.8638 -605.83533 4294966691
51.958244 1139.473 -605.229 4294966691
54.269859 1139.0651 -605.17444 4294966691
59.661457 1138.2803 -605.22784 4294966691
64.42675 1137.8557 -605.24463 4294966691
71.74678 1137.3273 -605.11572 4294966691
12.13909 1141.538 -605.0824 4294966691
15.627616 1141.3866 -605.63007 4294966691
21.591473 1141.4774 -605.57373 4294966691
24.219152 1141.5803 -605.15466 4294966691
30.831863 1141.3495 -605.05707 4294966691
32.690674 1141.3177 -605.3244 4294966691
34.448101 1141.3684 -605.85284 4294966691
37.378998 1141.2411 -605.78467 4294966691
227.29178 1148.7328 -605.28284 4294966691
243.28398 1147.2375 -605.22131 4294966691
245.41286 1147.1353 -605.82758 4294966691
189.1929 1151.719 -605.00385 4294966691
209.11823 1150.3137 -605.07684 4294966691
221.15259 1149.423 -605.00061 4294966691
225.33717 1149.0801 -605.02655 4294966691
145.3665 1154.8762 -605.11066 4294966691
153.39674 1154.2472 -605.16071 4294966691
63.767937 1160.7314 -605.06042 4294966691
69.265938 1160.3833 -605.06866 4294966691
83.319817 1159.3982 -605.16797 4294966691
87.191803 1159.1244 -605.09412 4294966691
23.509817 1163.9675 -605.63544 4294966691
29.020685 1163.4523 -605.81903 4294966691
30.931902 1163.2605 -605.45221 4294966691
35.454884 1163.0044 -605.6792 4294966691
38.013962 1162.7878 -605.00323 4294966691
43.381897 1162.3734 -605.11041 4294966691
45.290283 1162.2079 -605.08997 4294966691
47.540504 1162.0194 -605.05133 4294966691
55.025707 1161.4225 -605.33228 4294966691
3.2052882 1166.2101 -605.99982 4294966691
7.6683831 1165.6124 -605.64996 4294966691
15.432857 1164.5956 -605.71771 4294966691
17.574495 1164.3412 -605.56421 4294966691
19.399607 1164.2964 -605.55817 4294966691
20.663639 1164.2277 -605.55408 4294966691
198.93294 1126.6023 -604.94159 4294966692
169.49954 1129.0702 -604.89001 4294966692
171.38083 1128.7217 -604.99152 4294966692
173.99763 1128.47 -604.28253 4294966692
113.67715 1133.8246 -604.86151 4294966692
119.34852 1133.3601 -604.91272 4294966692
127.40623 1132.6931 -604.84796 4294966692
133.43291 1132.2062 -604.87335 4294966692
139.19496 1131.7102 -604.88983 4294966692
76.343987 1136.9811 -604.61493 4294966692
79.208702 1136.6877 -604.96588 4294966692
83.982933 1136.2603 -604.95203 4294966692
89.162933 1135.7754 -604.95288 4294966692
95.653679 1135.3026 -604.79333 4294966692
97.776123 1135.0824 -604.77997 4294966692
103.27826 1134.6294 -604.86078 4294966692
104.63227 1134.5536 -604.98834 4294966692
56.877743 1138.7136 -604.51996 4294966692
61.820526 1137.9773 -604.87097 4294966692
74.686348 1137.0833 -604.98041 4294966692
26.835396 1141.4852 -604.6225 4294966692
28.95191 1141.4342 -604.90546 4294966692
35.883102 1140.9001 -604.51471 4294966692
39.088333 1140.9659 -604.94476 4294966692
40.855263 1140.7828 -604.26013 4294966692
46.737183 1140.2736 -604.02533 4294966692
240.85884 1147.4364 -604.64758 4294966692
187.4045 1151.8914 -604.95068 4294966692
191.39612 1151.5779 -604.88062 4294966692
195.34404 1151.2731 -604.94562 4294966692
197.32678 1151.1746 -604.94928 4294966692
201.41296 1150.9188 -604.97528 4294966692
203.3287 1150.7582 -604.93713 4294966692
205.53162 1150.5963 -604.97644 4294966692
211.27316 1150.1183 -604.88733 4294966692
215.13611 1149.8439 -604.90125 4294966692
217.68929 1149.6975 -604.91443 4294966692
219.43004 1149.5697 -604.95551 4294966692
147.28545 1154.7473 -604.96887 4294966692
129.33473 1156.2563 -604.96344 4294966692
131.43091 1156.0052 -604.9035 4294966692
133.46967 1155.7462 -604.8208 4294966692
139.68091 1155.2595 -604.96356 4294966692
143.29918 1155.0048 -604.9129 4294966692
61.378838 1160.9418 -604.84857 4294966692
71.554512 1160.2501 -604.94781 4294966692
75.885338 1159.8945 -604.79321 4294966692
79.310646 1159.641 -604.87433 4294966692
81.282669 1159.5272 -604.95746 4294966692
101.46387 1158.1929 -604.93671 4294966692
25.708809 1163.7507 -604.95996 4294966692
27.648628 1163.5166 -604.77332 4294966692
33.632076 1162.999 -604.82605 4294966692
41.607174 1162.5111 -604.96368 4294966692
59.58329 1161.0504 -604.89758 4294966692
191.80783 1127.5183 -603.18237 4294966693
201.59122 1126.7107 -603.02148 4294966693
221.8331 1125.1323 -603.04297 4294966693
181.17262 1128.4232 -603.14569 4294966693
86.801727 1136.2117 -603.41309 4294966693
109.12797 1134.4559 -603.35559 4294966693
48.759636 1139.9647 -603.87994 4294966693
50.590672 1139.6337 -603.44421 4294966693
52.395901 1139.3667 -603.26154 4294966693
53.710098 1139.2085 -603.12366 4294966693
67.164391 1137.9063 -603.68524 4294966693
8.7319775 1141.7831 -603.77429 4294966693
11.554301 1141.7507 -603.21698 4294966693
15.177292 1141.551 -603.11505 4294966693
18.098703 1141.5288 -603.47461 4294966693
20.516417 1141.4683 -603.99896 4294966693
22.393974 1141.4928 -603.66583 4294966693
25.345043 1141.4595 -603.18762 4294966693
30.198372 1141.0034 -603.05194 4294966693
32.125477 1140.7788 -603.0658 4294966693
34.09053 1140.7147 -603.48657 4294966693
37.624214 1140.5535 -603.41315 4294966693
42.699017 1140.6438 -603.87469 4294966693
44.65094 1140.4874 -603.8324 4294966693
24.859308 1163.6194 -603.17377 4294966693
31.091053 1163.0571 -603.06671 4294966693
6.9481521 1165.7618 -603.22131 4294966693
17.43988 1164.4037 -603.14136 4294966693
19.133709 1164.1703 -603.06909 4294966693
243.06514 1123.9192 -602.59668 4294966694
245.43916 1123.7582 -602.86768 4294966694
189.25362 1127.7997 -602.94855 4294966694
195.71649 1127.272 -602.48596 4294966694
197.3987 1126.9895 -602.88745 4294966694
199.05679 1126.9093 -602.81415 4294966694
216.44077 1125.6851 -602.4436 4294966694
153.70137 1130.8761 -602.63983 4294966694
163.89871 1130.1754 -602.47162 4294966694
165.54565 1130.0109 -602.85376 4294966694
167.23221 1129.8486 -602.90961 4294966694
169.97705 1129.61 -602.53149 4294966694
174.95004 1128.8634 -602.84332 4294966694
177.84579 1128.5673 -602.80615 4294966694
179.82176 1128.5668 -602.85602 4294966694
183.31651 1128.3922 -602.98322 4294966694
185.71989 1128.2235 -602.73444 4294966694
187.22302 1128.0223 -602.94562 4294966694
129.51057 1132.8048 -602.7312 4294966694
131.55376 1132.6868 -602.7804 4294966694
133.04167 1132.6289 -602.78583 4294966694
135.00983 1132.4288 -602.97766 4294966694
138.19856 1132.2185 -602.6402 4294966694
141.65086 1131.915 -602.70715 4294966694
81.889381 1136.787 -602.55603 4294966694
83.928474 1136.6027 -602.90558 4294966694
88.868301 1136.08 -602.61829 4294966694
91.647377 1135.8015 -602.96002 4294966694
92.87323 1135.7255 -602.76001 4294966694
95.194191 1135.6885 -602.67047 4294966694
97.344391 1135.5831 -602.81384 4294966694
99.368889 1135.4556 -602.63898 4294966694
101.09805 1135.2052 -602.80005 4294966694
103.87499 1135.0448 -602.63806 4294966694
112.2787 1134.4021 -602.33453 4294966694
113.86298 1134.1443 -602.79431 4294966694
55.271797 1139.0674 -602.50311 4294966694
56.759865 1138.8951 -602.84869 4294966694
58.250134 1138.7942 -602.1618 4294966694
61.118694 1138.4594 -602.58112 4294966694
63.928829 1138.3218 -602.66205 4294966694
69.188004 1137.8923 -602.18372 4294966694
73.713257 1137.457 -602.77856 4294966694
76.292839 1137.3 -602.27106 4294966694
78.937996 1137.0165 -602.77362 4294966694
23.784866 1141.5079 -602.74622 4294966694
26.655762 1141.3575 -602.60364 4294966694
28.303402 1141.2058 -602.93231 4294966694
39.516914 1140.3271 -602.4884 4294966694
227.57243 1148.8892 -602.94141 4294966694
229.96411 1148.5504 -602.51019 4294966694
238.54112 1147.7284 -602.93439 4294966694
241.57343 1147.6755 -602.88568 4294966694
243.18846 1147.5408 -602.62164 4294966694
245.21028 1147.3783 -602.67072 4294966694
185.34135 1151.8503 -602.50537 4294966694
187.3174 1151.7719 -602.80658 4294966694
189.09573 1151.65 -602.67548 4294966694
191.32443 1151.4137 -602.75867 4294966694
193.80658 1151.3497 -602.66125 4294966694
201.39066 1150.8107 -602.66943 4294966694
205.35188 1150.6025 -602.98737 4294966694
209.4436 1150.1453 -602.82849 4294966694
213.29031 1149.8409 -602.77954 4294966694
215.01118 1149.7266 -602.76929 4294966694
217.52794 1149.7017 -602.83759 4294966694
219.38742 1149.4966 -602.81219 4294966694
221.63431 1149.2904 -602.57434 4294966694
223.26035 1149.1876 -602.78461 4294966694
225.40251 1149.02 -602.68225 4294966694
143.21207 1154.8949 -602.83069 4294966694
145.57187 1154.7468 -602.34613 4294966694
147.3614 1154.5293 -602.76691 4294966694
151.084 1154.3983 -602.94495 4294966694
153.56485 1154.1624 -602.62842 4294966694
155.23872 1153.9567 -602.58044 4294966694
157.24077 1153.8601 -602.67133 4294966694
159.43054 1153.5978 -602.40778 4294966694
161.48392 1153.4368 -602.22412 4294966694
165.49442 1153.1729 -602.62994 4294966694
169.24182 1153.0269 -602.6062 4294966694
171.74803 1152.8741 -602.65863 4294966694
175.55505 1152.5543 -602.69165 4294966694
177.4612 1152.4553 -602.85913 4294966694
179.3763 1152.2875 -602.67847 4294966694
181.59947 1152.1869 -602.62939 4294966694
103.47729 1157.9335 -602.8208 4294966694
107.95123 1157.5288 -602.42297 4294966694
109.27081 1157.4376 -602.68414 4294966694
113.61001 1157.1243 -602.54156 4294966694
119.59092 1156.7285 -602.62433 4294966694
123.70224 1156.5328 -602.57611 4294966694
131.3101 1155.8325 -602.59186 4294966694
133.33878 1155.6168 -602.32623 4294966694
135.39116 1155.4633 -602.58618 4294966694
137.22714 1155.3239 -602.56183 4294966694
139.70921 1155.1655 -602.33771 4294966694
141.47685 1155.0674 -602.53802 4294966694
59.538464 1160.8568 -602.72662 4294966694
61.208542 1160.8019 -602.7135 4294966694
63.422798 1160.6613 -602.87726 4294966694
65.393806 1160.5397 -602.8067 4294966694
67.790634 1160.3667 -602.68347 4294966694
73.505501 1159.936 -602.39856 4294966694
75.535278 1159.8341 -602.86005 4294966694
77.357086 1159.7079 -602.73938 4294966694
79.335419 1159.5541 -602.71362 4294966694
83.457291 1159.25 -602.63934 4294966694
93.483803 1158.5366 -602.90662 4294966694
95.410416 1158.484 -602.70886 4294966694
97.457123 1158.3563 -602.62891 4294966694
99.370399 1158.2388 -602.79401 4294966694
22.922146 1163.7598 -602.92297 4294966694
27.373634 1163.3859 -602.93335 4294966694
29.998388 1163.1648 -602.46466 4294966694
39.464108 1162.5282 -602.87329 4294966694
41.386986 1162.3716 -602.83447 4294966694
45.383244 1162.0742 -602.80078 4294966694
47.2631 1161.8906 -602.70129 4294966694
49.40406 1161.6884 -602.62158 4294966694
50.879875 1161.5808 -602.81299 4294966694
55.440552 1161.1915 -602.54016 4294966694
57.358097 1161.0186 -602.63763 4294966694
9.8403025 1165.3528 -602.96814 4294966694
45.485283 1139.9299 -601.3075 4294966695
47.483284 1139.7556 -601.30994 4294966695
49.370617 1139.5592 -601.20673 4294966695
51.203819 1139.3724 -601.16345 4294966695
53.188797 1139.2454 -601.28625 4294966695
56.656483 1138.9847 -601.9306 4294966695
71.054329 1137.7681 -601.95801 4294966695
21.374815 1141.6411 -601.41608 4294966695
27.515539 1141.1985 -601.03162 4294966695
31.389807 1140.5513 -601.37427 4294966695
35.919659 1140.1976 -601.97101 4294966695
41.460567 1140.1807 -601.77856 4294966695
43.455864 1140.0492 -601.4151 4294966695
11.426954 1165.1326 -601.62195 4294966695
235.56306 1124.8459 -600.41211 4294966696
237.48842 1124.7146 -600.12054 4294966696
239.2318 1124.5314 -600.58972 4294966696
241.48706 1124.3903 -600.4129 4294966696
243.16269 1124.3113 -600.10645 4294966696
245.50574 1124.1563 -600.02386 4294966696
195.89917 1127.5905 -600.06134 4294966696
199.42928 1127.2637 -600.44116 4294966696
215.44801 1126.1753 -600.27521 4294966696
221.78058 1125.1039 -600.37988 4294966696
224.97369 1125.1388 -600.64392 4294966696
159.4987 1130.8639 -600.04572 4294966696
162.08102 1130.7219 -600.02283 4294966696
165.38739 1130.4863 -600.32733 4294966696
177.0029 1129.3669 -600.17413 4294966696
189.38591 1128.3831 -600.11823 4294966696
125.43528 1133.3918 -600.0321 4294966696
127.34108 1133.2554 -600.10913 4294966696
133.16037 1132.8958 -600.30261 4294966696
137.6387 1132.5859 -600.00006 4294966696
141.64789 1132.1957 -600.27045 4294966696
147.2413 1131.7578 -600.06262 4294966696
155.37349 1131.1581 -600.0545 4294966696
83.941437 1136.9092 -600.27936 4294966696
85.199242 1136.76 -600.44507 4294966696
87.536957 1136.4579 -600.92499 4294966696
91.650185 1136.1479 -600.21985 4294966696
93.219955 1136.0504 -600.17517 4294966696
95.533493 1135.923 -600.16211 4294966696
97.634682 1135.7897 -600.31555 4294966696
101.1706 1135.5167 -600.48145 4294966696
113.68743 1134.4399 -600.21942 4294966696
33.579826 1139.9521 -600.30396 4294966696
38.029224 1139.8367 -600.93146 4294966696
40.10622 1139.6014 -600.05981 4294966696
54.651859 1139.1647 -600.71667 4294966696
56.311543 1139.0793 -600.03131 4294966696
62.78759 1138.5062 -600.36304 4294966696
64.934097 1138.4091 -600.85028 4294966696
67.681786 1138.2096 -600.87347 4294966696
72.371063 1137.9177 -600.26984 4294966696
73.341255 1137.8563 -600.23456 4294966696
77.825478 1137.3969 -600.38647 4294966696
79.474052 1137.3162 -600.13568 4294966696
81.157318 1137.1534 -600.66205 4294966696
9.2123613 1142.1428 -600.99841 4294966696
12.960522 1141.9623 -600.97821 4294966696
17.045488 1141.8754 -600.65125 4294966696
25.272625 1141.4631 -600.70587 4294966696
29.61886 1140.8116 -600.87067 4294966696
103.20808 1157.827 -600.18597 4294966696
57.311047 1160.9907 -600.27002 4294966696
61.456436 1160.7437 -600.1217 4294966696
62.937641 1160.6417 -600.27856 4294966696
64.955917 1160.5024 -600.20154 4294966696
73.593231 1159.88 -600.29999 4294966696
77.472481 1159.5613 -600.02234 4294966696
79.252365 1159.4208 -600.10016 4294966696
83.293327 1159.1703 -600.19623 4294966696
91.243599 1158.6783 -600.2403 4294966696
95.210564 1158.42 -600.03394 4294966696
21.477688 1163.7308 -600.33569 4294966696
25.336565 1163.3231 -600.33044 4294966696
27.254009 1163.2039 -600.53625 4294966696
29.711617 1163.0854 -600.73828 4294966696
33.577736 1162.7869 -600.48907 4294966696
45.303291 1161.9287 -600.31433 4294966696
47.772179 1161.693 -600.08734 4294966696
193.49989 1127.8667 -599.89337 4294966697
202.05464 1127.3572 -599.64764 4294966697
209.61842 1126.8157 -599.29303 4294966697
233.53125 1125.1454 -599.90924 4294966697
163.76707 1130.6282 -599.83081 4294966697
173.66339 1129.7198 -599.80768 4294966697
179.47833 1129.3577 -599.57306 4294966697
181.53209 1129.2815 -599.34393 4294966697
183.32898 1129.1335 -599.70654 4294966697
185.60837 1128.8706 -599.98206 4294966697
187.41103 1128.7002 -599.78473 4294966697
129.70792 1133.203 -599.49011 4294966697
131.44818 1133.0601 -599.93109 4294966697
135.26738 1132.8032 -599.81079 4294966697
140.17082 1132.3771 -599.7359 4294966697
143.57362 1132.126 -599.69556 4294966697
151.74387 1131.4945 -599.80255 4294966697
157.62424 1131.0209 -599.92053 4294966697
105.87752 1135.1998 -599.9541 4294966697
111.76573 1134.6703 -599.96362 4294966697
36.438953 1139.3436 -599.41791 4294966697
42.189674 1139.4192 -599.38123 4294966697
44.295155 1139.3135 -599.03265 4294966697
52.001442 1139.0161 -599.03455 4294966697
58.207706 1139.0166 -599.86237 4294966697
60.119267 1138.7487 -599.83289 4294966697
68.415123 1138.1669 -599.2442 4294966697
75.541183 1137.6871 -599.92932 4294966697
26.944605 1141.2714 -599.81555 4294966697
31.468367 1140.287 -599.87708 4294966697
225.032 1148.9458 -599.93036 4294966697
227.8441 1148.7085 -599.7912 4294966697
229.00859 1148.7361 -599.91229 4294966697
233.54866 1148.3306 -599.75372 4294966697
237.59924 1148.0299 -599.86658 4294966697
239.31111 1147.7251 -599.99524 4294966697
241.97298 1147.551 -599.85052 4294966697
245.00319 1147.3295 -599.90082 4294966697
183.43568 1151.8301 -599.54462 4294966697
185.48207 1151.6921 -599.60919 4294966697
187.60017 1151.5394 -599.66272 4294966697
189.49596 1151.4418 -599.53198 4294966697
191.23749 1151.3622 -599.58856 4294966697
195.57103 1151.1407 -599.82715 4294966697
197.60065 1150.983 -599.65863 4294966697
199.2821 1150.7988 -599.69507 4294966697
201.37422 1150.7926 -599.57306 4294966697
203.31036 1150.5179 -599.68738 4294966697
205.11226 1150.4032 -599.88605 4294966697
207.54387 1150.2322 -599.69098 4294966697
211.15878 1149.9589 -599.73419 4294966697
213.37653 1149.8083 -599.58832 4294966697
215.23781 1149.6777 -599.68579 4294966697
217.31097 1149.5134 -599.71155 4294966697
219.38582 1149.3817 -599.49042 4294966697
221.24892 1149.2399 -599.74213 4294966697
143.52065 1154.9008 -599.50726 4294966697
147.36755 1154.536 -599.534 4294966697
149.53593 1154.3768 -599.80481 4294966697
151.22513 1154.2383 -599.5744 4294966697
153.7847 1154.0403 -599.47699 4294966697
155.57822 1153.8788 -599.59863 4294966697
157.3241 1153.7117 -599.51117 4294966697
167.4274 1153.016 -599.61591 4294966697
171.56799 1152.704 -599.55591 4294966697
175.41086 1152.4264 -599.55182 4294966697
177.5327 1152.2676 -599.66272 4294966697
179.32542 1152.1412 -599.58624 4294966697
181.16568 1152.0045 -599.65643 4294966697
101.26913 1157.9886 -599.93768 4294966697
107.67214 1157.4451 -599.79199 4294966697
109.28802 1157.2908 -599.85358 4294966697
111.26676 1157.2382 -599.89539 4294966697
113.66571 1156.9812 -599.6825 4294966697
115.48049 1156.9689 -599.97205 4294966697
117.40131 1156.759 -599.71936 4294966697
119.38407 1156.6804 -599.89099 4294966697
121.76323 1156.4254 -599.65942 4294966697
123.399 1156.3927 -599.72131 4294966697
127.75497 1156.0797 -599.67346 4294966697
131.52701 1155.6448 -599.51245 4294966697
133.21317 1155.5137 -599.47058 4294966697
135.24306 1155.3588 -599.55261 4294966697
137.02058 1155.2002 -599.60443 4294966697
141.4305 1155.1085 -599.01416 4294966697
85.561394 1159.0371 -599.89948 4294966697
89.65892 1158.7725 -599.83087 4294966697
93.659622 1158.5272 -599.77362 4294966697
99.463112 1158.1223 -599.92157 4294966697
51.152363 1161.3898 -599.80334 4294966697
53.748924 1161.1586 -599.9231 4294966697
8.810462 1165.4233 -599.16107 4294966697
207.9881 1127.2598 -598.33258 4294966698
213.896 1126.553 -598.00079 4294966698
219.55162 1125.3546 -598.73743 4294966698
225.08104 1125.2157 -598.22479 4294966698
191.55147 1128.3328 -598.80908 4294966698
98.818382 1135.9989 -598.26355 4294966698
32.146053 1139.8512 -598.64465 4294966698
38.685474 1138.9674 -598.60956 4294966698
46.36385 1139.2474 -598.93188 4294966698
48.309776 1139.1641 -598.93073 4294966698
50.161606 1139.0503 -598.88544 4294966698
53.972504 1139.0315 -598.95465 4294966698
57.587936 1139.0371 -598.58215 4294966698
58.723221 1138.9368 -598.5365 4294966698
7.8117638 1142.4622 -598.95227 4294966698
11.788647 1142.3214 -598.76746 4294966698
14.945651 1142.1951 -598.84308 4294966698
16.852301 1142.1775 -598.63489 4294966698
19.863016 1142.0753 -598.15814 4294966698
23.279469 1141.7365 -598.53601 4294966698
25.405029 1141.4771 -598.14679 4294966698
26.584791 1141.2925 -598.70184 4294966698
28.208548 1140.9249 -598.83228 4294966698
30.437775 1140.3103 -598.61761 4294966698
215.35818 1150.1816 -598.00763 4294966698
159.44762 1153.6 -598.79181 4294966698
163.38779 1153.2588 -598.82477 4294966698
165.38136 1153.3541 -598.98322 4294966698
169.45583 1153.0953 -598.86743 4294966698
173.51567 1152.8105 -598.79352 4294966698
21.110323 1163.8158 -598.65588 4294966698
23.819025 1163.5402 -598.16541 4294966698
26.809351 1163.2706 -598.6557 4294966698
47.277672 1161.8597 -598.06213 4294966698
17.431452 1164.2858 -598.66199 4294966698
235.64519 1124.9391 -597.02911 4294966699
237.49821 1124.8319 -597.02728 4294966699
243.20512 1124.4482 -597.63721 4294966699
245.46838 1124.2255 -597.04816 4294966699
227.38263 1125.5941 -597.37695 4294966699
229.51213 1125.4458 -597.41443 4294966699
233.55086 1125.2185 -597.51184 4294966699
166.98322 1130.6406 -597.04492 4294966699
187.50703 1128.7902 -597.00177 4294966699
133.25298 1133.0735 -597.57599 4294966699
141.66579 1132.2809 -597.06525 4294966699
143.54753 1132.1213 -597.0752 4294966699
145.40523 1131.9565 -597.13165 4294966699
153.3103 1131.3955 -597.06097 4294966699
157.38068 1131.3065 -597.00061 4294966699
88.955261 1136.6163 -597.11176 4294966699
97.497841 1136.1636 -597.13214 4294966699
101.29211 1135.6642 -597.55542 4294966699
105.77648 1135.2756 -597.43115 4294966699
111.43943 1134.9158 -597.54877 4294966699
31.618525 1139.495 -597.00763 4294966699
33.272896 1139.2626 -597.84033 4294966699
35.097034 1138.7694 -597.69379 4294966699
37.345322 1138.2679 -597.23169 4294966699
40.797089 1138.6941 -597.87 4294966699
43.004086 1138.3549 -597.05804 4294966699
45.290703 1138.447 -597.00916 4294966699
49.217304 1138.5812 -597.17072 4294966699
52.702736 1138.7457 -597.66522 4294966699
55.334026 1138.8632 -597.70966 4294966699
56.650444 1138.9116 -597.72894 4294966699
59.786991 1138.5941 -597.57013 4294966699
62.256058 1138.1941 -597.35205 4294966699
73.5597 1137.9316 -597.72589 4294966699
75.44059 1137.7629 -597.49146 4294966699
77.723969 1137.5967 -597.21979 4294966699
79.179405 1137.6338 -597.05939 4294966699
81.570381 1137.3176 -597.33124 4294966699
83.738632 1137.1018 -597.09534 4294966699
85.11322 1137.1616 -597.08472 4294966699
12.906386 1142.3624 -597.42871 4294966699
237.65305 1148.5443 -597.82251 4294966699
239.66212 1148.5491 -597.11121 4294966699
241.70938 1148.1589 -597.94714 4294966699
245.31451 1147.9723 -597.82849 4294966699
193.48692 1151.8224 -597.80017 4294966699
197.96851 1151.4159 -597.92957 4294966699
203.1591 1151.0225 -597.90057 4294966699
205.41046 1150.9299 -597.69763 4294966699
209.43117 1150.6509 -597.79266 4294966699
211.26205 1150.5699 -597.68463 4294966699
219.22896 1149.7993 -597.9549 4294966699
223.3868 1149.6215 -597.89893 4294966699
225.16457 1149.4491 -597.92206 4294966699
227.7184 1149.2614 -597.8866 4294966699
231.32892 1149.0363 -597.8548 4294966699
153.51564 1154.5914 -597.54108 4294966699
155.8838 1154.4214 -597.49701 4294966699
157.63048 1154.3018 -597.40021 4294966699
159.25278 1154.0833 -597.46466 4294966699
161.49966 1153.9574 -597.3493 4294966699
165.28004 1153.6589 -597.40881 4294966699
167.56361 1153.4734 -597.43384 4294966699
171.43272 1153.2654 -597.30554 4294966699
175.33148 1152.9465 -597.57263 4294966699
177.73758 1152.8373 -597.43115 4294966699
179.37007 1152.6801 -597.60492 4294966699
181.65176 1152.6101 -597.38043 4294966699
185.29956 1152.2659 -597.79565 4294966699
187.78372 1152.2233 -597.59381 4294966699
107.5493 1157.812 -597.62518 4294966699
111.31647 1157.6068 -597.92169 4294966699
113.39125 1157.4941 -597.78802 4294966699
115.66768 1157.3658 -597.70386 4294966699
117.1253 1157.2545 -597.77759 4294966699
121.39986 1156.9252 -597.74231 4294966699
123.45679 1156.8387 -597.59387 4294966699
125.51081 1156.6747 -597.5152 4294966699
127.46304 1156.5189 -597.64954 4294966699
131.44972 1156.2207 -597.69519 4294966699
135.55865 1155.9557 -597.46997 4294966699
139.20958 1155.5889 -597.64752 4294966699
141.59286 1155.416 -597.53223 4294966699
143.50909 1155.2886 -597.45215 4294966699
145.4084 1155.286 -597.10663 4294966699
147.1512 1155.1688 -597.12762 4294966699
63.774258 1160.8832 -597.84845 4294966699
65.407822 1160.8766 -597.62091 4294966699
67.383064 1160.7635 -597.84656 4294966699
73.265999 1160.3429 -597.56189 4294966699
79.481819 1159.8424 -597.66113 4294966699
83.524086 1159.5338 -597.48663 4294966699
85.486671 1159.4486 -597.68787 4294966699
89.416809 1159.2264 -597.69916 4294966699
91.407944 1159.1405 -597.72791 4294966699
93.486031 1159.0504 -597.69513 4294966699
95.408318 1158.9302 -597.56714 4294966699
97.420853 1158.788 -597.75684 4294966699
99.284447 1158.4987 -597.68286 4294966699
101.40352 1158.3806 -597.66663 4294966699
105.23372 1158.0386 -597.71497 4294966699
29.515394 1163.0825 -597.71063 4294966699
31.635313 1163.0114 -597.63672 4294966699
41.648109 1162.3673 -597.66766 4294966699
49.363987 1161.7905 -597.7699 4294966699
51.896595 1161.7402 -597.24408 4294966699
53.273987 1161.5773 -597.87445 4294966699
55.557312 1161.4279 -597.8692 4294966699
57.708679 1161.3329 -597.59583 4294966699
61.911106 1161.1188 -597.69495 4294966699
12.378669 1164.9652 -597.69397 4294966699
239.48491 1124.6603 -596.80487 4294966700
241.66319 1124.526 -596.99268 4294966700
243.23624 1124.2201 -596.1015 4294966700
204.81627 1127.3995 -596.99921 4294966700
207.3913 1127.2979 -596.95056 4294966700
209.5316 1127.0177 -596.82117 4294966700
211.9959 1126.8726 -596.79724 4294966700
215.18852 1126.3701 -596.95917 4294966700
217.48633 1125.6249 -596.63989 4294966700
159.36446 1130.9139 -596.72253 4294966700
163.45764 1130.6719 -596.94788 4294966700
179.39987 1129.3981 -596.3595 4294966700
181.71809 1129.5496 -596.94409 4294966700
183.7841 1129.1925 -596.77698 4294966700
186.19965 1128.9246 -596.677 4294966700
191.5929 1128.1296 -596.52301 4294966700
123.67889 1133.6664 -596.25385 4294966700
125.84536 1133.5229 -596.69843 4294966700
127.3718 1133.3523 -596.29517 4294966700
129.39192 1133.271 -596.73584 4294966700
135.51866 1132.7874 -596.8775 4294966700
147.19377 1131.791 -596.9491 4294966700
149.44533 1131.642 -596.9436 4294966700
151.35281 1131.5012 -596.86279 4294966700
95.263474 1135.9838 -596.39374 4294966700
103.98415 1135.5977 -596.86212 4294966700
107.5022 1135.0898 -596.89783 4294966700
110.43137 1134.7299 -596.18622 4294966700
113.55441 1134.4938 -596.33325 4294966700
115.51431 1134.4082 -596.60437 4294966700
39.463249 1137.912 -596.69031 4294966700
41.284679 1137.7562 -596.2995 4294966700
47.462517 1138.3616 -596.7616 4294966700
51.180401 1138.1626 -596.39996 4294966700
53.727921 1138.3733 -596.4245 4294966700
58.064365 1138.5607 -596.79938 4294966700
70.122238 1137.5465 -596.37177 4294966700
7.4167838 1142.7701 -596.76892 4294966700
10.122135 1142.5546 -596.94708 4294966700
15.013092 1142.5477 -596.10913 4294966700
22.432434 1141.8534 -596.30151 4294966700
24.579266 1141.4957 -596.74963 4294966700
26.862204 1140.7722 -596.39441 4294966700
29.427883 1140.1368 -596.6911 4294966700
201.58136 1151.5736 -596.66913 4294966700
203.15785 1151.5651 -596.50079 4294966700
205.34264 1151.4064 -596.61218 4294966700
207.26981 1151.3856 -596.4447 4294966700
209.76601 1151.3367 -596.33502 4294966700
213.21416 1151.0939 -596.39679 4294966700
217.41032 1150.9301 -596.34412 4294966700
221.41212 1150.8942 -596.05487 4294966700
223.43622 1150.5792 -596.12604 4294966700
225.49423 1149.9369 -596.6261 4294966700
227.91684 1149.6531 -596.75061 4294966700
231.05396 1149.5051 -596.54272 4294966700
232.97173 1149.5144 -596.46954 4294966700
235.29848 1149.3252 -596.50024 4294966700
243.2318 1149.1091 -596.07123 4294966700
169.68642 1153.7183 -596.47296 4294966700
175.35181 1153.3849 -596.18451 4294966700
179.68108 1153.2708 -596.11218 4294966700
185.3877 1153.1826 -596.09583 4294966700
187.5984 1152.9485 -596.31891 4294966700
189.201 1152.8784 -596.35858 4294966700
193.54939 1152.7513 -596.17419 4294966700
195.41473 1152.614 -596.12823 4294966700
115.82442 1157.755 -596.78198 4294966700
117.43865 1157.7795 -596.43268 4294966700
123.06898 1157.3523 -596.46106 4294966700
127.38646 1157.0741 -596.42316 4294966700
129.33684 1156.9274 -596.53967 4294966700
131.50624 1157.155 -596.02991 4294966700
132.89743 1156.6333 -596.67175 4294966700
139.18874 1156.0275 -596.61322 4294966700
141.74313 1155.6154 -596.58789 4294966700
143.53484 1155.6809 -596.45404 4294966700
149.48108 1155.3162 -596.37579 4294966700
77.467339 1160.5681 -596.30969 4294966700
81.518875 1160.3757 -596.28955 4294966700
85.562569 1159.9919 -596.38922 4294966700
89.198769 1159.7876 -596.34277 4294966700
93.325958 1159.5985 -596.35767 4294966700
95.634178 1159.4176 -596.42181 4294966700
97.449623 1159.2771 -596.47723 4294966700
99.680153 1159.203 -596.34863 4294966700
103.33173 1158.7327 -596.47736 4294966700
23.355074 1163.9979 -596.01801 4294966700
25.691191 1163.7738 -596.20801 4294966700
55.596832 1162.0732 -596.07288 4294966700
57.600391 1161.9518 -596.06995 4294966700
63.926517 1161.5706 -596.27271 4294966700
67.139946 1161.415 -596.35266 4294966700
71.048035 1161.0499 -596.34845 4294966700
21.354685 1164.1292 -596.00452 4294966700
227.38255 1124.9877 -595.94055 4294966701
235.42401 1124.7615 -595.77295 4294966701
237.38385 1124.6359 -595.65704 4294966701
241.86742 1124.2029 -595.62103 4294966701
243.44403 1123.9366 -595.18231 4294966701
245.77834 1123.9449 -595.88647 4294966701
193.53442 1127.8007 -595.61182 4294966701
197.35727 1127.5126 -595.19141 4294966701
201.54778 1127.4294 -595.32251 4294966701
205.133 1127.2345 -595.66095 4294966701
209.79994 1127.0433 -595.53387 4294966701
231.53458 1125.1622 -595.85583 4294966701
157.59586 1130.6576 -595.2099 4294966701
159.41046 1130.4438 -595.02777 4294966701
163.00461 1130.463 -595.8819 4294966701
165.47141 1130.241 -595.83459 4294966701
189.2735 1128.517 -595.71918 4294966701
191.81232 1128.0447 -595.78613 4294966701
129.37067 1133.1235 -595.51892 4294966701
131.24251 1133.0404 -595.84656 4294966701
139.16679 1132.4807 -595.88062 4294966701
143.15327 1131.9961 -595.83472 4294966701
149.33675 1131.4305 -595.77252 4294966701
151.47833 1131.285 -595.70453 4294966701
153.8842 1131.0951 -595.54883 4294966701
40.51973 1136.6399 -595.10718 4294966701
83.812881 1136.8193 -595.13 4294966701
97.850769 1135.5421 -595.38007 4294966701
98.058258 1135.3793 -595.08636 4294966701
101.28037 1135.4039 -595.77295 4294966701
107.59903 1134.9983 -595.57794 4294966701
113.33401 1134.4857 -595.87689 4294966701
28.594112 1139.7769 -595.08978 4294966701
33.539841 1138.2777 -595.83173 4294966701
36.084736 1137.3926 -595.60443 4294966701
38.227158 1137.0121 -595.50427 4294966701
42.505077 1137.1638 -595.52179 4294966701
44.362766 1137.2949 -595.53601 4294966701
46.199184 1137.5453 -595.61633 4294966701
49.147381 1137.8147 -595.7854 4294966701
55.970612 1138.1847 -595.81665 4294966701
60.085052 1137.6924 -595.28607 4294966701
73.408913 1137.6742 -595.76501 4294966701
77.27169 1137.322 -595.66144 4294966701
81.582306 1137.0422 -595.43256 4294966701
17.135683 1142.5718 -595.96838 4294966701
20.333918 1142.5074 -595.74652 4294966701
215.82065 1151.4541 -595.84808 4294966701
224.74048 1150.8954 -595.67725 4294966701
228.94531 1151.0615 -595.19507 4294966701
231.53497 1150.9023 -595.14648 4294966701
235.41145 1150.3087 -595.35266 4294966701
237.07501 1150.7289 -595.01672 4294966701
240.23892 1149.6615 -595.61121 4294966701
245.08034 1149.2007 -595.76489 4294966701
165.57346 1154.8766 -595.47577 4294966701
167.44911 1154.4078 -595.7608 4294966701
169.34688 1154.6978 -595.34802 4294966701
171.17522 1154.5763 -595.32538 4294966701
173.40143 1154.6881 -595.20551 4294966701
175.58456 1154.6332 -595.21234 4294966701
177.41711 1154.5126 -595.25983 4294966701
181.30473 1154.6501 -595.13446 4294966701
185.21616 1154.457 -595.15472 4294966701
187.33702 1154.5387 -595.13281 4294966701
189.50879 1154.4783 -595.1424 4294966701
191.28458 1153.8545 -595.53088 4294966701
197.77992 1152.5227 -595.95056 4294966701
201.49852 1152.5527 -595.61072 4294966701
203.40073 1152.6041 -595.5072 4294966701
207.30234 1152.5831 -595.38715 4294966701
209.43109 1152.6117 -595.30695 4294966701
213.25688 1152.5719 -595.18042 4294966701
215.30899 1152.6552 -595.09912 4294966701
217.30952 1152.5654 -595.1311 4294966701
219.54268 1152.4968 -595.17468 4294966701
221.13882 1152.162 -595.20844 4294966701
223.60222 1152.0137 -595.08545 4294966701
135.4929 1156.9215 -595.90161 4294966701
139.42136 1157.0811 -595.30878 4294966701
143.50313 1156.6511 -595.23352 4294966701
145.34317 1156.339 -595.12238 4294966701
147.00203 1156.1257 -595.13013 4294966701
153.58693 1155.3459 -595.97937 4294966701
155.47372 1155.127 -595.90045 4294966701
159.33995 1155.0829 -595.81537 4294966701
163.44174 1155.2129 -595.3703 4294966701
29.256193 1163.6327 -595.9953 4294966701
47.26033 1162.6627 -595.89722 4294966701
61.399651 1161.7817 -595.97534 4294966701
12.268814 1165.0298 -595.94 4294966701
16.038052 1164.606 -595.95428 4294966701
19.857288 1164.3342 -595.63092 4294966701
231.10126 1124.5221 -594.21326 4294966702
233.20581 1124.3971 -594.17194 4294966702
235.22093 1124.374 -594.58203 4294966702
237.1693 1124.2454 -594.66132 4294966702
239.82469 1124.2358 -594.66968 4294966702
245.61601 1123.0199 -594.1698 4294966702
182.60564 1127.9747 -594.0293 4294966702
191.75089 1127.2383 -594.19098 4294966702
193.54927 1126.9601 -594.27936 4294966702
195.46478 1127.3075 -594.62122 4294966702
199.47997 1127.054 -594.44989 4294966702
203.36067 1126.891 -594.90771 4294966702
209.27982 1126.4227 -594.23596 4294966702
211.37656 1126.2535 -594.16315 4294966702
213.70541 1126.2095 -594.54333 4294966702
145.248 1130.9436 -594.2572 4294966702
149.42624 1130.7231 -594.35449 4294966702
151.96161 1130.5286 -594.3313 4294966702
155.51064 1130.4387 -594.41693 4294966702
163.48698 1129.345 -594.20947 4294966702
165.58755 1129.4126 -594.49908 4294966702
177.11349 1129.132 -594.62036 4294966702
179.41179 1128.8984 -594.96307 4294966702
187.53484 1128.1061 -594.36835 4294966702
123.75439 1133.6517 -594.93195 4294966702
125.69209 1133.439 -594.78259 4294966702
127.61142 1132.829 -594.66919 4294966702
128.69716 1132.4824 -594.21503 4294966702
131.71358 1132.4113 -594.26599 4294966702
136.28023 1132.1519 -594.37439 4294966702
140.1454 1131.7598 -594.40924 4294966702
143.33488 1131.1525 -594.18353 4294966702
147.28996 1131.097 -594.71277 4294966702
34.759319 1136.91 -594.4433 4294966702
36.003498 1136.0471 -594.08301 4294966702
37.215797 1136.0642 -594.4278 4294966702
38.838211 1135.5409 -594.15155 4294966702
42.974632 1135.579 -594.23761 4294966702
45.802246 1136.1091 -594.44501 4294966702
47.85675 1136.9883 -594.94763 4294966702
