# .PCD v0.7 - Point Cloud Data file format
VERSION 0.7
FIELDS x y z rgba
SIZE 4 4 4 4
TYPE F F F U
COUNT 1 1 1 1
WIDTH 1146
HEIGHT 1
VIEWPOINT 0 0 0 1 0 0 0
POINTS 1146
DATA ascii
653.29346 3617.1653 -370.73532 4294966926
655.38574 3617.2622 -370.8269 4294966926
660.73352 3617.4146 -370.88126 4294966926
662.58496 3616.9963 -370.91705 4294966926
664.23792 3616.2849 -370.83783 4294966926
665.04047 3615.1252 -370.93628 4294966926
642.90369 3593.2844 -369.06567 4294966927
662.58484 3592.74 -369.11844 4294966927
644.49103 3594.2527 -369.52271 4294966927
645.59082 3594.4609 -369.47153 4294966927
665.71631 3612.1262 -369.13388 4294966927
665.02844 3615.1492 -369.05942 4294966927
641.46368 3587.5986 -368.91125 4294966928
642.11322 3591.8701 -368.90237 4294966928
651.52863 3593.5701 -368.38858 4294966928
653.39032 3593.1416 -368.80087 4294966928
655.66278 3592.7563 -368.90164 4294966928
661.24359 3592.5583 -368.67706 4294966928
664.21747 3593.6912 -368.84924 4294966928
648.10809 3594.3848 -368.06613 4294966928
664.93268 3595.2739 -368.86911 4294966928
665.22516 3597.0073 -368.77921 4294966928
665.25128 3600.0081 -368.93283 4294966928
665.19391 3606.8271 -368.90955 4294966928
665.56073 3609.6494 -368.70068 4294966928
650.46014 3617.1636 -368.66129 4294966928
653.01611 3617.2437 -368.6261 4294966928
658.05768 3617.5481 -368.58939 4294966928
660.55304 3617.5103 -368.80499 4294966928
662.7691 3617.0256 -368.6528 4294966928
663.99054 3616.3823 -368.77222 4294966928
641.48029 3589.8904 -367.04752 4294966929
642.16345 3592.1824 -367.03732 4294966929
651.55933 3593.5938 -367.3671 4294966929
645.35852 3594.5183 -367.00928 4294966929
648.25586 3594.3718 -367.13562 4294966929
665.16656 3607.0679 -367.00131 4294966929
664.04102 3616.4263 -367.03586 4294966929
642.97217 3593.5005 -366.65302 4294966930
653.48499 3593.1477 -366.70859 4294966930
657.81152 3592.551 -366.80933 4294966930
660.68396 3592.5388 -366.78003 4294966930
662.5592 3592.8796 -366.69461 4294966930
644.52051 3594.4116 -366.68683 4294966930
664.97119 3595.4119 -366.61612 4294966930
665.09399 3596.1257 -366.88535 4294966930
665.17047 3601.4736 -366.80609 4294966930
665.49896 3609.4971 -366.9523 4294966930
665.42609 3614.033 -366.61902 4294966930
650.5741 3617.3875 -366.85815 4294966930
655.52252 3617.5488 -366.83185 4294966930
660.78064 3617.7993 -366.85733 4294966930
662.57837 3617.2224 -366.85989 4294966930
641.45184 3587.3635 -365.54953 4294966931
642.06061 3592.1155 -365.05328 4294966931
660.34534 3592.6658 -365.07391 4294966931
642.92639 3593.5605 -364.69754 4294966932
651.48267 3593.7227 -364.8017 4294966932
655.63336 3592.9248 -364.90048 4294966932
646.07153 3594.8198 -364.64041 4294966932
648.49945 3594.3879 -364.8559 4294966932
665.22333 3596.7664 -364.73859 4294966932
665.31836 3599.9626 -364.66345 4294966932
665.67731 3612.0933 -364.87079 4294966932
653.32379 3617.6311 -364.92392 4294966932
657.77411 3617.9846 -364.57312 4294966932
662.36859 3617.5132 -364.88849 4294966932
665.03253 3615.239 -364.81827 4294966932
660.69879 3618.0469 -364.8996 4294966932
641.42676 3587.5027 -363.05148 4294966933
651.52423 3593.833 -363.00909 4294966933
664.10059 3616.6853 -363.00992 4294966933
665.08893 3615.1853 -363.15057 4294966933
660.68652 3618.2759 -363.09283 4294966933
641.40295 3589.9658 -362.85498 4294966934
641.99567 3591.8848 -362.51892 4294966934
643.20813 3593.908 -362.90472 4294966934
655.55347 3593.1746 -362.66797 4294966934
658.17523 3593.0039 -362.20993 4294966934
661.03223 3593.0374 -362.60535 4294966934
644.4668 3594.4875 -362.23648 4294966934
645.28833 3594.6038 -362.82904 4294966934
649.9516 3594.1204 -362.17007 4294966934
664.28833 3594.6226 -362.77823 4294966934
665.08624 3596.5388 -362.82559 4294966934
665.36682 3599.8899 -362.75336 4294966934
665.51575 3610.4719 -362.75369 4294966934
665.4668 3614.1484 -362.89703 4294966934
662.55414 3617.6748 -362.88159 4294966934
648.31488 3618.0166 -362.6843 4294966934
641.6098 3590.3276 -361.06381 4294966935
653.20984 3593.6309 -361.2059 4294966935
648.49036 3594.4946 -361.17224 4294966935
665.09558 3596.8325 -361.10846 4294966935
665.72992 3611.8286 -361.06702 4294966935
665.46106 3614.0813 -361.05966 4294966935
641.44061 3587.5508 -360.68961 4294966936
642.13574 3592.25 -360.89691 4294966936
643.18658 3593.7275 -360.76675 4294966936
657.81451 3593.1987 -360.70178 4294966936
661.02301 3593.335 -360.21805 4294966936
662.40088 3593.6375 -360.49347 4294966936
645.74939 3594.6687 -360.49536 4294966936
664.77667 3595.8413 -360.81125 4294966936
665.34937 3599.9919 -360.61209 4294966936
665.16327 3602.8005 -360.95807 4294966936
665.35785 3609.0439 -360.98566 4294966936
653.63953 3617.9919 -360.71399 4294966936
664.05157 3616.9292 -360.78247 4294966936
660.67975 3618.4839 -360.76624 4294966936
641.48364 3586.8574 -359.27307 4294966937
641.48383 3590.0256 -359.06671 4294966937
651.15466 3594.1089 -359.02408 4294966937
665.12201 3604.7725 -359.01193 4294966937
665.05859 3615.6553 -359.04037 4294966937
648.48279 3618.2964 -359.04611 4294966937
653.32965 3618.0334 -359.28848 4294966937
642.03381 3591.979 -358.66995 4294966938
643.37909 3593.8625 -358.99213 4294966938
655.48456 3593.5945 -358.84491 4294966938
658.18976 3593.3381 -358.65649 4294966938
660.62244 3593.4604 -358.81927 4294966938
662.00348 3593.7383 -358.69196 4294966938
646.07526 3594.7688 -358.66779 4294966938
649.0816 3594.4924 -358.81427 4294966938
664.69305 3595.8279 -358.72986 4294966938
665.10248 3597.5901 -358.23367 4294966938
665.25476 3601.509 -358.93338 4294966938
665.18048 3606.9583 -358.92007 4294966938
665.66309 3611.6968 -358.74609 4294966938
665.49182 3614.1082 -358.88965 4294966938
650.67102 3617.8401 -358.91257 4294966938
664.4201 3616.9551 -358.6922 4294966938
646.91608 3618.7808 -358.88632 4294966938
657.73871 3618.4358 -358.75833 4294966938
662.19769 3618.1235 -358.8288 4294966938
642.14594 3592.248 -357.06918 4294966939
660.64001 3593.5159 -357.01901 4294966939
665.33667 3600.144 -357.06964 4294966939
665.34906 3609.0759 -357.11383 4294966939
650.57275 3617.9092 -357.10883 4294966939
653.36926 3618.0996 -357.02966 4294966939
655.48108 3618.3142 -357.09387 4294966939
641.51105 3590.0107 -356.74252 4294966940
643.08008 3593.6799 -356.91034 4294966940
655.58942 3593.7495 -356.85394 4294966940
658.07513 3593.4551 -356.87451 4294966940
646.06647 3594.8032 -356.82831 4294966940
648.05127 3594.8171 -356.57761 4294966940
651.52844 3594.219 -356.74542 4294966940
664.021 3595.1318 -356.71506 4294966940
664.96698 3597.0298 -356.98709 4294966940
665.25439 3602.5857 -356.79358 4294966940
665.10016 3604.8535 -356.64868 4294966940
665.63409 3611.6174 -356.96393 4294966940
665.53558 3614.0791 -356.99643 4294966940
664.08502 3617.2153 -356.87012 4294966940
665.13873 3615.6824 -356.8959 4294966940
645.28253 3620.1926 -356.98129 4294966940
648.15118 3618.3074 -356.83966 4294966940
660.81573 3618.6331 -356.86981 4294966940
662.41425 3618.1418 -356.69855 4294966940
642.01038 3592.0601 -355.23383 4294966941
661.7655 3593.8359 -355.03244 4294966941
664.12274 3595.4727 -355.96851 4294966941
665.44696 3599.8267 -355.19443 4294966941
665.1189 3615.7688 -355.03607 4294966941
641.47742 3587.5007 -354.77866 4294966942
641.48279 3590.2324 -354.90106 4294966942
642.7793 3593.5278 -354.87015 4294966942
658.27899 3593.5017 -354.51443 4294966942
644.54382 3594.7759 -354.64246 4294966942
648.89801 3594.8306 -354.8493 4294966942
663.74176 3594.8657 -354.97928 4294966942
664.4248 3595.8523 -354.88602 4294966942
665.39703 3608.9612 -354.86096 4294966942
665.63934 3611.4539 -354.54462 4294966942
664.12622 3617.2512 -354.94751 4294966942
646.95514 3618.9294 -354.77676 4294966942
650.74963 3618.0618 -354.57938 4294966942
653.11176 3618.1709 -354.92645 4294966942
658.01733 3618.6208 -354.9248 4294966942
662.36334 3618.2505 -354.93234 4294966942
641.88251 3592.0208 -353.1163 4294966943
642.42383 3593.3171 -353.21973 4294966943
653.59979 3594.2427 -353.22662 4294966943
665.46124 3614.6836 -353.10272 4294966943
662.73511 3618.1074 -353.46289 4294966943
641.37695 3589.9766 -352.83667 4294966944
660.35217 3593.5437 -352.83374 4294966944
661.78796 3593.8037 -352.26007 4294966944
646.3064 3595.2039 -352.74545 4294966944
648.53223 3595.0977 -352.9368 4294966944
663.42792 3594.6106 -352.71014 4294966944
664.61279 3596.0669 -352.94986 4294966944
665.62482 3599.489 -352.95657 4294966944
665.71759 3611.8445 -352.91574 4294966944
665.09753 3615.7969 -352.94492 4294966944
645.37274 3620.4172 -352.88681 4294966944
648.2644 3618.6428 -352.6929 4294966944
650.60663 3618.186 -352.63632 4294966944
657.85596 3618.6675 -352.90884 4294966944
660.46185 3618.8015 -352.9552 4294966944
657.88068 3593.6643 -351.18182 4294966945
646.09344 3595.2827 -351.67456 4294966945
665.55408 3614.2024 -351.11621 4294966945
648.17413 3618.7822 -351.10251 4294966945
650.18811 3618.2927 -351.09348 4294966945
662.37726 3618.2217 -351.1499 4294966945
644.17346 3623.5542 -351.18192 4294966945
641.26544 3589.9722 -350.99213 4294966946
641.81525 3592.4133 -350.29367 4294966946
642.2229 3593.3137 -350.82779 4294966946
660.66302 3593.54 -350.88193 4294966946
662.07257 3593.7991 -350.81934 4294966946
644.59918 3595.1658 -350.90955 4294966946
649.02728 3595.2639 -350.42224 4294966946
651.2832 3594.8635 -350.62158 4294966946
663.83783 3594.8364 -350.94083 4294966946
665.30273 3596.9792 -350.91492 4294966946
665.70374 3611.7212 -350.54767 4294966946
664.24384 3617.0215 -350.63132 4294966946
665.08087 3615.7483 -350.9689 4294966946
645.49994 3620.3567 -350.98782 4294966946
646.8833 3619.3496 -350.92786 4294966946
653.25916 3618.3765 -350.82892 4294966946
657.58667 3618.6541 -350.80945 4294966946
660.77362 3618.6221 -350.89426 4294966946
644.44281 3621.9614 -350.63992 4294966946
662.04669 3593.8401 -349.09705 4294966947
646.12543 3595.4922 -349.2955 4294966947
648.2774 3595.4734 -349.35956 4294966947
644.32819 3623.5889 -349.02481 4294966947
641.1839 3589.9377 -348.68982 4294966948
642.14923 3593.3762 -348.98154 4294966948
658.32874 3593.7085 -348.48303 4294966948
660.68945 3593.6062 -348.76624 4294966948
643.28821 3594.719 -348.73227 4294966948
651.81366 3594.9583 -348.59067 4294966948
655.68848 3594.2571 -348.67636 4294966948
663.84338 3594.9121 -348.71094 4294966948
665.75537 3611.572 -348.78647 4294966948
665.63226 3614.364 -348.66791 4294966948
664.19684 3617.1721 -348.8399 4294966948
646.96863 3619.4421 -348.72934 4294966948
650.49023 3618.4104 -348.81274 4294966948
655.47876 3618.6035 -348.83423 4294966948
661.04041 3618.6975 -348.66928 4294966948
662.41156 3618.1411 -348.97501 4294966948
644.62122 3621.9219 -348.75644 4294966948
642.05756 3593.376 -347.05014 4294966949
646.00647 3595.8455 -347.30573 4294966949
648.60632 3595.5525 -347.24286 4294966949
660.43848 3618.7585 -347.04617 4294966949
644.64954 3621.8953 -347.0553 4294966949
641.57227 3591.9961 -346.99774 4294966950
658.55133 3593.7454 -346.76483 4294966950
660.59363 3593.6694 -346.73026 4294966950
643.04694 3594.6589 -346.81708 4294966950
651.18628 3595.1162 -346.9137 4294966950
653.44116 3594.7319 -346.97519 4294966950
655.56732 3594.3511 -346.90543 4294966950
662.28418 3594.0386 -346.60574 4294966950
664.58191 3616.3013 -346.91119 4294966950
645.39685 3620.6475 -346.83453 4294966950
646.69427 3619.6306 -346.61053 4294966950
648.14465 3618.9031 -346.7652 4294966950
650.8382 3618.5005 -346.83755 4294966950
653.23596 3618.55 -346.90329 4294966950
657.62531 3618.7007 -346.7392 4294966950
662.29932 3618.158 -346.99524 4294966950
644.3053 3623.6086 -346.83963 4294966950
644.39398 3626.1021 -346.55115 4294966950
642.19507 3593.6838 -345.07471 4294966951
641.29022 3589.9856 -344.45444 4294966952
641.68677 3592.3689 -344.79755 4294966952
643.12445 3594.7524 -344.72656 4294966952
644.37274 3595.4622 -344.87656 4294966952
648.88177 3595.6106 -344.85907 4294966952
651.32819 3595.2034 -344.71698 4294966952
655.67889 3594.416 -344.76215 4294966952
663.93365 3595.1152 -344.66071 4294966952
664.12585 3617.0513 -344.65765 4294966952
645.263 3620.8782 -344.92267 4294966952
646.81445 3619.6721 -344.87961 4294966952
648.24817 3619.075 -344.74072 4294966952
650.46466 3618.5601 -344.81711 4294966952
653.47089 3618.5886 -344.92242 4294966952
655.70856 3618.6448 -344.62357 4294966952
660.69318 3618.7131 -344.42776 4294966952
644.62817 3622.0461 -344.77887 4294966952
644.25238 3625.6223 -344.79868 4294966952
641.59705 3592.0862 -343.28796 4294966953
660.52728 3593.8262 -343.0943 4294966953
662.02338 3594.2939 -343.24734 4294966953
650.49255 3618.6025 -343.06079 4294966953
642.07684 3593.344 -342.76834 4294966954
643.0708 3594.7412 -342.4173 4294966954
644.54578 3595.5156 -342.76379 4294966954
646.39874 3595.8218 -342.87518 4294966954
648.58765 3595.7131 -342.97873 4294966954
653.3429 3594.9392 -342.60159 4294966954
658.30841 3594.0186 -342.48563 4294966954
663.97571 3617.293 -342.93387 4294966954
645.35706 3620.8306 -342.71695 4294966954
646.89514 3619.6853 -342.77905 4294966954
648.20978 3619.1187 -342.69281 4294966954
653.31268 3618.6372 -342.99493 4294966954
657.78888 3618.7583 -342.79858 4294966954
662.54517 3618.1721 -342.95334 4294966954
644.64819 3622.0396 -342.90021 4294966954
644.25964 3625.9446 -342.95898 4294966954
641.22089 3589.9675 -341.42966 4294966955
643.14691 3594.8298 -341.04544 4294966955
645.98816 3596.0203 -341.04681 4294966955
648.86169 3595.7192 -341.20703 4294966955
660.46173 3594.0425 -341.09143 4294966955
653.1701 3618.6909 -341.16129 4294966955
641.67505 3592.3333 -340.9794 4294966956
642.14923 3593.5476 -340.58597 4294966956
651.06781 3595.3835 -340.99988 4294966956
664.45172 3596.2595 -340.95322 4294966956
664.58911 3616.5186 -340.80969 4294966956
645.48389 3620.7856 -340.85995 4294966956
648.07605 3619.0645 -340.8949 4294966956
650.45264 3618.6667 -340.8909 4294966956
657.86029 3618.8447 -340.58807 4294966956
661.29504 3618.5977 -340.90149 4294966956
662.52325 3618.3306 -340.90033 4294966956
644.45911 3622.8823 -340.90054 4294966956
644.27069 3625.813 -340.86313 4294966956
643.30609 3594.9468 -339.11655 4294966957
651.39398 3595.4226 -339.11594 4294966957
655.48712 3594.7209 -339.32205 4294966957
658.51636 3594.1731 -339.00308 4294966957
665.25031 3614.7847 -339.09518 4294966957
644.29944 3623.5801 -339.08124 4294966957
641.24915 3590.042 -338.33249 4294966958
642.11591 3593.3809 -338.80667 4294966958
644.39539 3595.5371 -338.89755 4294966958
646.25134 3595.9136 -338.98212 4294966958
648.48688 3595.8875 -338.68741 4294966958
653.63251 3595.0378 -338.87488 4294966958
660.67151 3594.3015 -338.6568 4294966958
663.84479 3595.9612 -338.75278 4294966958
648.30768 3619.2437 -338.74908 4294966958
650.42108 3618.7395 -338.79138 4294966958
653.36237 3618.7861 -338.67258 4294966958
655.47662 3618.8752 -338.86569 4294966958
660.65283 3618.8865 -338.91766 4294966958
662.56616 3618.4185 -338.9173 4294966958
644.60541 3622.4102 -338.95261 4294966958
645.36285 3621.0728 -338.69608 4294966958
644.15314 3625.998 -338.87366 4294966958
641.62109 3591.9878 -337.02679 4294966959
646.26294 3595.9836 -337.0621 4294966959
649.07806 3595.8801 -337.08206 4294966959
664.74103 3606.7908 -337.0025 4294966959
664.52448 3616.9802 -337.11191 4294966959
648.26086 3619.3792 -337.0582 4294966959
658.02155 3619.05 -337.04944 4294966959
644.67749 3622.2974 -337.01318 4294966959
642.0451 3593.2046 -336.35336 4294966960
643.03503 3594.7417 -336.71414 4294966960
653.12854 3595.2317 -336.86258 4294966960
658.52167 3594.3008 -336.63507 4294966960
663.73468 3596.0884 -336.92682 4294966960
664.66754 3597.6233 -336.65588 4294966960
665.19208 3599.8088 -336.69913 4294966960
664.96942 3609.001 -336.93393 4294966960
665.25653 3611.7043 -336.93298 4294966960
665.24371 3614.2593 -336.41104 4294966960
645.5401 3620.9915 -336.76691 4294966960
650.54333 3618.8416 -336.74304 4294966960
653.32178 3618.8801 -336.76224 4294966960
660.6983 3618.9617 -336.8949 4294966960
662.6051 3618.4539 -336.91794 4294966960
644.21857 3623.7573 -336.81842 4294966960
644.1557 3625.8818 -336.88654 4294966960
642.14282 3593.6455 -335.15405 4294966961
653.84283 3595.1411 -335.12885 4294966961
662.39337 3618.5923 -335.04391 4294966961
641.32642 3589.8645 -334.77499 4294966962
642.97906 3594.8545 -334.78387 4294966962
644.66547 3595.8135 -334.91049 4294966962
646.28754 3596.0767 -334.54745 4294966962
648.81445 3596.0229 -334.88919 4294966962
660.19128 3594.468 -334.89114 4294966962
661.77649 3594.9077 -334.53479 4294966962
664.19788 3596.9941 -334.67316 4294966962
664.88574 3602.374 -334.84497 4294966962
664.82343 3604.5728 -334.89905 4294966962
664.84473 3608.9341 -334.57132 4294966962
665.17145 3611.6396 -334.89127 4294966962
665.18958 3614.5786 -334.88928 4294966962
664.44318 3616.9939 -334.85843 4294966962
646.99115 3620.0581 -334.7294 4294966962
650.71313 3618.9578 -334.66016 4294966962
653.19965 3619.002 -334.68488 4294966962
658.10687 3619.2107 -334.71429 4294966962
663.51227 3618.0178 -334.81119 4294966962
644.55121 3622.5779 -334.77155 4294966962
643.88062 3625.8489 -334.96259 4294966962
648.65424 3596.1321 -333.24203 4294966963
658.26361 3594.4541 -333.08112 4294966963
653.09955 3619.0964 -333.06741 4294966963
655.53546 3619.2151 -333.00345 4294966963
641.45459 3589.5012 -332.87079 4294966964
641.60358 3592.1467 -332.81021 4294966964
643.08167 3595.1511 -332.81702 4294966964
644.83234 3595.9954 -332.68481 4294966964
646.34613 3596.2275 -332.86398 4294966964
651.40948 3595.6997 -332.62299 4294966964
653.43848 3595.2888 -332.88382 4294966964
661.62286 3594.9033 -332.97595 4294966964
664.53961 3597.6531 -332.85577 4294966964
665.04364 3599.5691 -332.82181 4294966964
664.83575 3602.1311 -332.80899 4294966964
664.66858 3606.7798 -332.87338 4294966964
664.79962 3609.022 -332.92404 4294966964
665.1004 3611.6262 -332.8735 4294966964
665.18359 3614.105 -332.8826 4294966964
664.13989 3617.2949 -332.90707 4294966964
646.87311 3620.1523 -332.90015 4294966964
648.31433 3619.5449 -332.82288 4294966964
650.67188 3619.0527 -332.73819 4294966964
660.47583 3619.2285 -332.95151 4294966964
662.48676 3618.5325 -332.94412 4294966964
644.50812 3622.5967 -332.82803 4294966964
645.45862 3621.178 -332.95087 4294966964
643.70294 3625.5798 -332.85016 4294966964
641.50476 3592.1733 -331.08978 4294966965
642.87579 3595.1804 -331.28055 4294966965
648.99677 3596.1716 -331.04181 4294966965
665.25415 3613.6985 -331.17825 4294966965
657.89154 3619.3953 -331.21222 4294966965
641.33563 3589.7747 -330.88544 4294966966
641.91516 3593.8638 -330.75613 4294966966
644.38446 3596.0776 -330.81052 4294966966
645.94568 3596.3601 -330.89423 4294966966
651.30908 3595.8354 -330.61749 4294966966
655.43793 3595.0601 -330.68829 4294966966
658.7149 3594.4846 -330.85391 4294966966
660.72498 3594.665 -330.73679 4294966966
663.60126 3596.1895 -330.81018 4294966966
664.97839 3599.4739 -330.77795 4294966966
664.79205 3602.2112 -330.90881 4294966966
664.65527 3604.7478 -330.99704 4294966966
664.74487 3609.0122 -330.74655 4294966966
665.01892 3611.3499 -330.96771 4294966966
664.93866 3615.9468 -330.95294 4294966966
648.43701 3619.5771 -330.86859 4294966966
650.59613 3619.167 -330.91721 4294966966
653.37592 3619.2969 -330.8183 4294966966
655.51697 3619.321 -330.87225 4294966966
662.11957 3618.7781 -330.90259 4294966966
645.4964 3621.1028 -330.82257 4294966966
643.77167 3624.4661 -330.96396 4294966966
641.25391 3589.8132 -329.19495 4294966967
641.6853 3593.7139 -329.27274 4294966967
648.83905 3596.3013 -329.09003 4294966967
655.54688 3595.1204 -329.05396 4294966967
658.37964 3594.584 -329.15015 4294966967
661.83844 3595.21 -329.00192 4294966967
663.59735 3596.3652 -329.07709 4294966967
641.41583 3592.584 -328.93304 4294966968
642.18329 3594.9707 -328.47516 4294966968
644.47913 3596.3186 -328.96466 4294966968
653.40118 3595.4558 -328.98154 4294966968
660.54022 3594.8052 -328.98203 4294966968
664.87683 3598.8215 -328.83792 4294966968
664.75964 3602.0872 -328.7991 4294966968
664.60986 3604.6895 -328.84137 4294966968
664.62549 3607.8608 -328.91156 4294966968
664.9906 3611.426 -328.84558 4294966968
665.24268 3614.2395 -328.97809 4294966968
664.88519 3615.7588 -328.69965 4294966968
650.93787 3619.364 -328.61902 4294966968
655.29858 3619.4329 -328.8714 4294966968
658.11774 3619.5776 -328.83743 4294966968
644.31519 3622.4993 -328.59976 4294966968
645.24841 3621.2202 -328.80157 4294966968
643.76416 3625.7986 -328.53406 4294966968
641.2002 3589.3284 -327.72852 4294966969
641.25763 3592.7134 -327.17178 4294966969
648.63544 3596.4597 -327.11771 4294966969
651.01575 3596.0552 -327.18063 4294966969
653.54016 3595.5535 -327.15933 4294966969
655.6571 3595.2131 -327.24799 4294966969
646.37659 3620.3997 -327.03354 4294966969
644.2005 3622.6462 -327.0741 4294966969
641.49579 3594.1187 -326.92947 4294966970
642.6015 3595.9683 -326.84537 4294966970
644.24438 3596.5144 -326.77905 4294966970
660.95001 3594.9934 -326.79831 4294966970
663.40967 3596.1897 -326.56659 4294966970
664.6297 3599.0225 -326.94904 4294966970
664.71063 3602.1794 -326.91095 4294966970
664.56329 3604.6736 -326.70938 4294966970
664.51764 3606.9395 -326.79254 4294966970
665.18304 3613.7937 -326.9166 4294966970
653.2511 3619.5171 -326.85269 4294966970
655.57098 3619.6072 -326.56036 4294966970
658.12604 3619.7109 -326.63004 4294966970
645.11481 3621.2283 -326.82474 4294966970
643.54254 3625.7883 -326.75552 4294966970
641.01385 3592.572 -325.03171 4294966971
641.64166 3594.9084 -325.03934 4294966971
644.15991 3596.6362 -325.01883 4294966971
646.44812 3596.8254 -325.19702 4294966971
664.75116 3610.2502 -325.09515 4294966971
650.74359 3619.5879 -325.21613 4294966971
640.96204 3588.9155 -324.58569 4294966972
643.08246 3596.2817 -324.45847 4294966972
648.79694 3596.5649 -324.86972 4294966972
651.45978 3596.093 -324.76306 4294966972
653.70276 3595.7017 -324.80313 4294966972
656.20984 3595.3062 -324.55331 4294966972
658.78778 3594.9133 -324.93594 4294966972
660.67743 3595.0051 -324.90839 4294966972
663.49475 3596.3403 -324.94797 4294966972
664.53522 3598.7766 -324.8251 4294966972
664.70209 3601.9155 -324.9295 4294966972
664.50171 3604.7937 -324.88016 4294966972
664.74176 3615.731 -324.80273 4294966972
647.96277 3619.7085 -324.98779 4294966972
653.27716 3619.6479 -324.88028 4294966972
655.71619 3619.7361 -324.75793 4294966972
661.88208 3618.9392 -324.99634 4294966972
643.69434 3623.6211 -324.7215 4294966972
644.50256 3621.9045 -324.89679 4294966972
643.58435 3625.6614 -324.69937 4294966972
640.75531 3592.103 -323.03165 4294966973
653.28326 3595.8694 -323.33917 4294966973
664.42889 3606.6121 -323.18152 4294966973
664.72961 3615.6104 -323.09805 4294966973
653.31177 3619.7493 -323.06769 4294966973
643.63867 3623.6096 -323.05396 4294966973
643.54108 3625.8142 -323.21097 4294966973
640.74054 3589.7026 -322.69904 4294966974
641.18439 3594.1907 -322.87149 4294966974
644.23694 3596.7742 -322.67023 4294966974
646.14722 3596.9419 -322.68182 4294966974
649.28467 3596.5789 -322.92639 4294966974
655.62201 3595.5378 -322.6734 4294966974
659.26044 3595.0803 -322.34933 4294966974
661.90826 3595.2524 -322.91068 4294966974
663.43713 3596.377 -322.90253 4294966974
664.48914 3598.9495 -322.78653 4294966974
664.6767 3601.8413 -322.52219 4294966974
664.45972 3604.6025 -322.67767 4294966974
664.69482 3610.3857 -322.87634 4294966974
663.77844 3617.4531 -322.81497 4294966974
646.08734 3620.5186 -322.9368 4294966974
651.16406 3619.7249 -322.96127 4294966974
658.11237 3619.9326 -322.91095 4294966974
660.43427 3619.6152 -322.97031 4294966974
644.88434 3621.2705 -322.77475 4294966974
640.50232 3592.1604 -321.15131 4294966975
641.05609 3594.1013 -321.17178 4294966975
643.05011 3596.4702 -321.04321 4294966975
644.13159 3596.8359 -321.17612 4294966975
655.50885 3595.6453 -321.06094 4294966975
659.06726 3595.1677 -321.05472 4294966975
664.94232 3613.7332 -321.09546 4294966975
648.23468 3619.9851 -321.09204 4294966975
650.87305 3619.8245 -321.25262 4294966975
655.6817 3619.9353 -321.0817 4294966975
644.94171 3621.2512 -321.00153 4294966975
640.6369 3589.0347 -320.69424 4294966976
641.75696 3595.4407 -320.90195 4294966976
651.3158 3596.3652 -320.71582 4294966976
653.48456 3595.9241 -320.83356 4294966976
660.82336 3595.2156 -320.97107 4294966976
663.49377 3596.3286 -320.8847 4294966976
646.49933 3597.0471 -320.90173 4294966976
664.42029 3598.9041 -320.74881 4294966976
664.63403 3601.9858 -320.99789 4294966976
664.69794 3611.2844 -320.95544 4294966976
664.58014 3615.9141 -320.94772 4294966976
661.96307 3619.0796 -320.70618 4294966976
643.59491 3623.7573 -320.98331 4294966976
644.03961 3622.3984 -320.90408 4294966976
643.46606 3625.6865 -320.58243 4294966976
643.83698 3628.6099 -320.90445 4294966976
644.20508 3596.9431 -319.04855 4294966977
648.92322 3596.8071 -319.15036 4294966977
646.07776 3597.1379 -319.00439 4294966977
664.37817 3609.0161 -319.01077 4294966977
646.24768 3620.6165 -319.00018 4294966977
647.99603 3619.9917 -319.09567 4294966977
653.34705 3619.9646 -319.17361 4294966977
640.52008 3589.2856 -318.8956 4294966978
640.91699 3593.9714 -318.96677 4294966978
641.64508 3595.4551 -318.68765 4294966978
642.96783 3596.5154 -318.67899 4294966978
653.23621 3596.0613 -318.69934 4294966978
655.52094 3595.7571 -318.53229 4294966978
659.12 3595.3557 -318.31198 4294966978
661.8642 3595.5552 -318.87579 4294966978
664.43488 3599.551 -318.73557 4294966978
664.60077 3601.8967 -318.99432 4294966978
664.27734 3606.7322 -318.93094 4294966978
664.86505 3613.7998 -318.81558 4294966978
663.6983 3617.7488 -318.83517 4294966978
651.38702 3619.9658 -318.82538 4294966978
658.18427 3620.218 -318.9494 4294966978
661.88043 3619.3108 -318.74103 4294966978
643.771 3623.0845 -318.79645 4294966978
643.43982 3625.7039 -318.94034 4294966978
643.70062 3628.2612 -318.87997 4294966978
640.28595 3591.9722 -317.42151 4294966979
653.67896 3596.061 -317.14441 4294966979
644.26245 3597.0642 -317.00345 4294966979
646.27216 3597.2312 -317.1496 4294966979
646.19293 3620.7122 -317.17538 4294966979
650.70984 3620.0457 -317.07028 4294966979
640.82037 3594.0991 -316.76447 4294966980
641.63672 3595.5742 -316.99341 4294966980
642.93298 3596.613 -316.83646 4294966980
648.94177 3596.9326 -316.73056 4294966980
651.59119 3596.4634 -316.99286 4294966980
656.06042 3595.7329 -316.98648 4294966980
659.46509 3595.4209 -316.84338 4294966980
661.76758 3595.8047 -316.72577 4294966980
663.78186 3597.8965 -316.94022 4294966980
664.25519 3599.6375 -316.50281 4294966980
664.5069 3601.887 -316.84378 4294966980
664.46185 3611.2881 -316.90094 4294966980
664.80847 3613.9478 -316.99823 4294966980
663.93512 3617.3374 -316.91428 4294966980
658.42694 3620.2751 -316.93918 4294966980
660.53015 3619.9875 -316.86908 4294966980
663.23633 3618.4636 -316.87155 4294966980
643.54803 3623.6941 -316.80917 4294966980
644.91083 3621.405 -316.85577 4294966980
643.20673 3625.5439 -316.94232 4294966980
640.74243 3594.1343 -315.142 4294966981
641.69434 3595.7913 -315.19144 4294966981
644.26239 3597.1736 -315.17841 4294966981
646.39191 3597.3159 -315.30786 4294966981
664.10901 3606.7737 -315.0011 4294966981
664.36298 3611.3091 -315.16699 4294966981
648.14667 3620.1895 -315.15414 4294966981
655.53845 3620.2693 -315.16193 4294966981
643.95599 3622.5059 -315.20392 4294966981
640.1156 3591.9016 -314.34283 4294966982
642.95233 3596.7546 -314.95154 4294966982
655.62799 3595.8796 -314.62433 4294966982
658.89185 3595.4875 -314.73782 4294966982
663.01129 3596.9417 -314.86539 4294966982
664.12463 3599.7205 -314.72418 4294966982
664.16327 3608.9543 -314.95911 4294966982
664.71301 3614.2097 -314.75702 4294966982
663.91357 3617.6897 -314.9639 4294966982
664.36615 3616.0925 -314.81888 4294966982
646.27441 3620.7993 -314.70746 4294966982
660.87659 3619.9714 -314.59818 4294966982
661.86823 3619.489 -314.95132 4294966982
644.8855 3621.4751 -314.84155 4294966982
643.14307 3625.6267 -314.69482 4294966982
640.08807 3592.2878 -313.55164 4294966983
651.33472 3596.689 -313.32742 4294966983
644.3443 3597.3015 -313.00739 4294966983
664.21954 3616.1018 -313.16006 4294966983
651.34351 3620.1528 -313.02722 4294966983
644.02747 3622.4055 -313.07516 4294966983
640.54742 3593.9182 -312.9631 4294966984
641.39215 3595.5674 -312.43643 4294966984
653.41364 3596.3296 -312.93777 4294966984
660.30963 3595.5562 -312.74503 4294966984
661.37683 3595.9172 -312.95743 4294966984
646.4082 3597.4795 -312.8291 4294966984
648.98132 3597.1318 -312.90726 4294966984
663.69409 3598.7937 -312.83258 4294966984
664.36652 3602.042 -312.93021 4294966984
664.02368 3608.8049 -312.62567 4294966984
664.15942 3611.0105 -312.61575 4294966984
664.39905 3613.9668 -312.96997 4294966984
663.77972 3617.7483 -312.96066 4294966984
648.58252 3620.3381 -312.8031 4294966984
653.39917 3620.366 -312.90421 4294966984
658.30859 3620.5903 -312.65845 4294966984
662.5943 3619.2412 -312.83224 4294966984
643.43439 3623.6362 -312.28882 4294966984
656.60144 3595.803 -311.06226 4294966985
662.67859 3596.8772 -311.00357 4294966985
663.69489 3598.907 -311.00012 4294966985
663.9234 3608.9158 -311.04825 4294966985
664.05597 3611.0242 -311.06921 4294966985
661.61487 3619.6616 -311.14496 4294966985
662.98419 3618.6304 -311.14859 4294966985
643.9137 3622.6338 -311.02588 4294966985
639.8952 3592.1477 -310.50323 4294966986
640.47644 3593.9646 -310.77271 4294966986
641.60431 3595.8931 -310.97052 4294966986
651.58173 3596.8076 -310.77692 4294966986
659.64764 3595.6106 -310.646 4294966986
660.35455 3595.5137 -310.83508 4294966986
643.17853 3597.1003 -310.9227 4294966986
646.34851 3597.7222 -310.71832 4294966986
648.74054 3597.3191 -310.79852 4294966986
663.87354 3606.813 -310.81525 4294966986
664.29358 3613.5518 -310.62363 4294966986
663.60913 3617.3645 -310.69226 4294966986
664.1026 3615.8789 -310.77023 4294966986
646.2746 3620.9734 -310.80792 4294966986
648.19025 3620.5056 -310.72653 4294966986
651.20209 3620.3999 -310.6236 4294966986
653.51984 3620.5051 -310.64682 4294966986
658.60205 3620.6433 -310.86453 4294966986
660.52875 3620.1394 -310.80338 4294966986
643.35352 3623.8413 -310.68167 4294966986
645.07013 3621.5386 -310.91031 4294966986
640.34576 3593.5986 -309.0495 4294966987
656.38123 3595.9568 -309.00632 4294966987
659.45953 3595.6477 -309.03101 4294966987
644.13477 3597.4951 -309.15179 4294966987
664.05933 3615.8096 -309.10028 4294966987
646.19574 3621.1345 -309.00467 4294966987
643.03113 3625.616 -309.0239 4294966987
641.2337 3595.593 -308.77728 4294966988
660.6059 3595.666 -308.68341 4294966988
662.2312 3596.4512 -308.75681 4294966988
642.98962 3597.0151 -308.68689 4294966988
646.84241 3597.7202 -308.32373 4294966988
651.3244 3597.0005 -308.63263 4294966988
663.38361 3598.4551 -308.85962 4294966988
664.06549 3601.5967 -308.77908 4294966988
663.74908 3608.8459 -308.82608 4294966988
663.8587 3610.9741 -308.66458 4294966988
664.14856 3613.5344 -308.98636 4294966988
663.41217 3617.6909 -308.94254 4294966988
651.21918 3620.4934 -308.75311 4294966988
655.66278 3620.5847 -308.82034 4294966988
660.47644 3620.3062 -308.70419 4294966988
662.42426 3619.062 -308.53238 4294966988
643.64673 3623.2944 -308.77832 4294966988
663.75378 3604.4365 -307.21341 4294966989
662.48853 3618.9153 -307.00507 4294966989
643.02515 3625.5525 -307.08636 4294966989
640.1261 3593.3975 -306.24335 4294966990
656.14655 3596.0981 -306.73178 4294966990
659.40424 3595.7935 -306.46783 4294966990
660.75031 3595.8062 -306.81531 4294966990
662.31714 3596.5288 -306.80884 4294966990
644.55084 3597.5942 -306.53357 4294966990
663.42273 3598.9089 -306.60101 4294966990
663.96582 3601.6221 -306.62384 4294966990
663.61346 3606.8042 -306.9649 4294966990
663.59521 3609.0667 -306.78357 4294966990
663.95099 3613.5364 -306.88428 4294966990
663.61554 3616.6895 -306.75867 4294966990
648.57928 3620.6609 -306.80591 4294966990
655.74774 3620.6272 -306.91544 4294966990
658.25085 3620.6582 -306.98035 4294966990
643.31775 3623.9854 -306.78214 4294966990
645.034 3621.873 -306.82684 4294966990
646.21283 3621.2993 -306.78195 4294966990
660.54382 3595.9075 -305.0354 4294966991
644.32343 3622.4082 -305.05359 4294966991
639.69122 3591.5576 -304.81882 4294966992
641.03766 3594.9846 -304.85422 4294966992
642.49915 3596.5525 -304.91129 4294966992
656.90991 3596.0063 -304.89276 4294966992
659.34302 3595.9309 -304.90317 4294966992
662.13507 3596.876 -304.79053 4294966992
663.36603 3598.9338 -304.85162 4294966992
663.8468 3601.5725 -304.94125 4294966992
663.54297 3604.7607 -304.7713 4294966992
663.55548 3610.9993 -304.93539 4294966992
663.79022 3613.5835 -304.92548 4294966992
663.43372 3616.8687 -304.91583 4294966992
653.39111 3620.6699 -304.78311 4294966992
658.83417 3620.688 -304.7348 4294966992
662.39764 3619.0647 -304.89398 4294966992
646.29993 3621.3108 -304.88177 4294966992
649.18695 3597.6624 -303.15344 4294966993
640.44598 3593.6951 -302.71249 4294966994
660.65778 3596.1919 -302.83313 4294966994
643.79303 3597.1575 -302.65814 4294966994
645.17584 3597.7554 -302.90271 4294966994
662.74066 3597.9509 -302.73828 4294966994
663.68024 3601.7524 -302.7023 4294966994
663.40875 3604.7817 -302.88693 4294966994
663.27563 3608.894 -302.9183 4294966994
663.38 3610.9656 -302.85126 4294966994
663.59851 3613.5017 -302.68463 4294966994
663.34314 3617.113 -302.83167 4294966994
651.26996 3620.7939 -302.78113 4294966994
655.31879 3620.7896 -302.87967 4294966994
658.8548 3620.7383 -302.56128 4294966994
660.52704 3620.292 -302.70422 4294966994
639.85156 3591.0984 -301.19626 4294966995
660.36047 3596.4697 -301.03305 4294966995
663.3844 3616.6787 -301.04645 4294966995
640.55945 3593.6177 -300.86047 4294966996
641.87946 3595.5327 -300.9462 4294966996
643.25732 3596.8459 -300.87827 4294966996
653.52271 3596.8267 -300.75061 4294966996
647.04578 3597.9983 -300.90649 4294966996
663.28143 3599.5662 -300.8559 4294966996
663.53625 3601.6582 -300.68216 4294966996
663.31519 3604.5728 -300.83661 4294966996
663.21393 3610.9277 -300.91525 4294966996
663.49078 3613.7495 -300.96393 4294966996
663.06085 3617.8743 -300.75983 4294966996
651.22314 3620.9045 -300.70673 4294966996
656.0611 3620.9658 -300.94681 4294966996
660.46008 3620.3672 -300.68127 4294966996
661.63348 3619.8083 -300.48151 4294966996
640.90454 3594.0305 -299.1514 4294966997
658.3808 3596.1379 -299.29187 4294966997
648.74121 3597.8164 -299.34692 4294966997
651.33868 3597.3279 -299.18958 4294966997
662.92645 3617.9089 -299.01947 4294966997
641.98718 3595.6238 -298.8613 4294966998
645.11456 3597.7251 -298.92545 4294966998
662.14288 3598.1704 -298.64813 4294966998
663.09943 3599.7126 -298.56808 4294966998
663.39288 3601.6663 -298.59183 4294966998
663.23187 3604.3047 -298.85706 4294966998
663.03906 3606.8601 -298.79248 4294966998
663.04602 3610.0894 -298.68951 4294966998
663.32788 3613.7441 -298.76239 4294966998
663.30823 3616.1711 -298.80716 4294966998
653.48865 3620.9714 -298.86725 4294966998
658.73828 3620.9219 -298.96475 4294966998
661.52557 3619.8679 -298.64764 4294966998
656.05536 3621.1257 -298.94785 4294966998
640.64984 3593.5491 -297.06741 4294966999
659.99512 3596.7097 -297.19171 4294966999
643.68793 3597.0195 -297.30328 4294966999
646.98352 3598.0413 -297.17563 4294966999
663.32477 3601.6533 -297.03903 4294966999
663.13214 3604.2991 -297.06058 4294966999
653.70215 3596.8889 -296.51761 4294967000
656.14594 3596.4373 -296.56577 4294967000
649.15607 3597.7468 -296.84833 4294967000
650.99982 3597.4214 -296.99017 4294967000
662.97076 3607.083 -296.92114 4294967000
662.94885 3610.7732 -296.74002 4294967000
663.06445 3613.387 -296.45062 4294967000
662.75433 3617.8572 -296.97589 4294967000
660.27991 3620.4663 -296.99673 4294967000
648.63464 3621.0801 -296.65524 4294967000
651.13818 3621.0637 -296.89877 4294967000
653.41193 3621.0864 -296.82715 4294967000
656.1026 3621.283 -296.88205 4294967000
639.84808 3590.8171 -295.01279 4294967001
641.35004 3594.9172 -295.53104 4294967001
662.07513 3599.7773 -295.88803 4294967001
662.87952 3606.3098 -295.23358 4294967001
640.4823 3593.5515 -294.75946 4294967002
658.71143 3596.7344 -294.46387 4294967002
645.03662 3597.8267 -294.83893 4294967002
646.68561 3598.1262 -294.91129 4294967002
649.24548 3597.7542 -294.93182 4294967002
653.32245 3597.0093 -294.9711 4294967002
659.87042 3597.1003 -294.29803 4294967002
662.71753 3602.5532 -294.81339 4294967002
662.82263 3604.6838 -294.44934 4294967002
662.81549 3608.8208 -294.99689 4294967002
662.81824 3611.6624 -294.82333 4294967002
662.8949 3613.394 -294.81927 4294967002
662.61725 3616.7974 -294.94507 4294967002
659.88611 3620.7429 -294.94812 4294967002
661.60583 3619.4941 -294.86136 4294967002
648.37585 3621.1572 -294.96796 4294967002
651.18018 3621.1799 -294.81516 4294967002
653.52185 3621.2351 -294.86813 4294967002
656.42859 3621.4714 -294.51935 4294967002
656.41095 3596.501 -293.00177 4294967003
662.59216 3613.4265 -293.15903 4294967003
662.13049 3617.2976 -293.59894 4294967003
661.04956 3618.9475 -293.34613 4294967003
651.22424 3621.2896 -293.06314 4294967003
658.26599 3621.3169 -293.14651 4294967003
658.52252 3596.8037 -292.99951 4294967004
646.38336 3598.2312 -292.72845 4294967004
648.86395 3597.8315 -292.64957 4294967004
651.77863 3597.2878 -292.82993 4294967004
659.85919 3597.1892 -292.69983 4294967004
660.72791 3598.4788 -292.99655 4294967004
662.00916 3601.2346 -292.35965 4294967004
662.52295 3603.8718 -292.21326 4294967004
662.66571 3607.177 -292.63583 4294967004
662.63171 3610.7703 -292.62335 4294967004
644.80145 3622.6633 -292.63354 4294967004
648.49066 3621.2219 -292.97592 4294967004
653.81158 3621.3503 -292.79376 4294967004
653.79309 3596.9934 -291.30759 4294967005
646.50372 3598.2585 -291.17245 4294967005
649.47174 3597.6904 -291.31488 4294967005
658.28918 3597.1338 -291.4592 4294967005
659.68909 3597.7375 -291.37042 4294967005
661.93774 3616.4526 -291.40106 4294967005
648.20282 3621.3318 -291.1933 4294967005
656.22839 3621.6931 -291.00348 4294967005
660.25433 3598.4224 -290.56644 4294967006
661.89105 3601.4849 -290.3909 4294967006
662.18524 3602.5754 -290.69116 4294967006
662.48407 3605.5947 -290.44089 4294967006
662.52765 3607.4043 -290.49805 4294967006
662.49579 3609.6348 -290.14819 4294967006
662.39929 3612.8091 -290.36786 4294967006
660.37769 3619.2192 -290.87842 4294967006
651.40411 3621.4429 -290.94156 4294967006
645.7619 3598.3108 -289.02814 4294967007
656.08936 3597.1133 -289.63333 4294967007
658.84216 3597.7644 -289.51569 4294967007
660.10718 3598.6003 -289.21503 4294967007
661.12671 3599.8928 -289.99878 4294967007
662.2876 3603.98 -289.76941 4294967007
658.38165 3620.7883 -289.4014 4294967007
661.30206 3618.1543 -289.50385 4294967007
644.47571 3622.9622 -289.02057 4294967007
653.39771 3621.5652 -289.13071 4294967007
653.69482 3596.8782 -288.94769 4294967008
648.84888 3597.6548 -288.70639 4294967008
651.56409 3597.2046 -288.76102 4294967008
660.31256 3599.1213 -288.22623 4294967008
661.75714 3602.1792 -288.6983 4294967008
662.31757 3605.4399 -288.6066 4294967008
662.40961 3607.2153 -288.81836 4294967008
662.40002 3610.1333 -288.36111 4294967008
662.34558 3613.0491 -288.16782 4294967008
661.77985 3617.0925 -288.5759 4294967008
662.15369 3615.1082 -288.37372 4294967008
660.39557 3619.3977 -288.59277 4294967008
661.2738 3618.3752 -288.06354 4294967008
648.53528 3621.4622 -288.89777 4294967008
656.38928 3621.8428 -288.73392 4294967008
659.33325 3598.3379 -287.97562 4294967009
660.87402 3600.272 -287.88358 4294967009
662.09723 3604.4001 -287.95139 4294967009
662.36487 3611.0364 -287.19537 4294967009
661.914 3616.4868 -287.42596 4294967009
660.73163 3619.1462 -287.12137 4294967009
650.96503 3621.6438 -287.05566 4294967009
653.65179 3621.7275 -287.16803 4294967009
646.06323 3598.1655 -286.77463 4294967010
649.39691 3597.5398 -286.95602 4294967010
653.93781 3597.2454 -286.61911 4294967010
657.35596 3597.7568 -286.9241 4294967010
659.5473 3599.1882 -286.19592 4294967010
661.05841 3601.531 -286.37833 4294967010
661.75641 3603.667 -286.72617 4294967010
662.18878 3607.155 -286.24258 4294967010
662.2699 3613.8357 -286.3129 4294967010
661.70227 3616.9604 -286.3494 4294967010
659.30707 3620.3369 -286.70691 4294967010
643.70264 3623.9399 -286.89734 4294967010
648.44092 3621.5957 -286.81052 4294967010
656.98529 3621.3892 -286.97006 4294967010
662.34863 3611.2815 -285.78223 4294967011
660.48547 3619.426 -285.83435 4294967011
656.22699 3622.0178 -285.02228 4294967011
639.31647 3591.3069 -284.26102 4294967012
650.68719 3597.231 -284.8526 4294967012
657.71307 3598.1072 -284.7944 4294967012
660.28009 3600.8933 -284.18219 4294967012
661.36047 3603.4419 -284.72668 4294967012
662.27588 3613.6414 -284.21091 4294967012
661.49518 3617.4456 -284.16525 4294967012
662.0589 3615.4543 -284.71213 4294967012
659.48029 3620.3105 -284.34586 4294967012
660.76971 3619.0078 -284.65115 4294967012
648.19897 3621.6995 -284.97482 4294967012
651.44135 3621.8193 -284.66324 4294967012
657.84839 3621.2373 -284.93533 4294967012
652.57318 3597.4199 -283.3345 4294967013
655.69446 3597.623 -283.97742 4294967013
657.22137 3597.9941 -283.54541 4294967013
658.57855 3598.9426 -283.40948 4294967013
662.35077 3611.1238 -283.56073 4294967013
654.30695 3621.8237 -283.53473 4294967013
656.70288 3621.6162 -283.59161 4294967013
658.0498 3621.1685 -283.33289 4294967013
639.42896 3594.1702 -282.94006 4294967014
646.58301 3598.0188 -282.22839 4294967014
656.81787 3598.1423 -282.0769 4294967014
659.62433 3600.4165 -282.27036 4294967014
660.68781 3602.4055 -282.41895 4294967014
661.61316 3605.3098 -282.61417 4294967014
662.20227 3608.7244 -282.07471 4294967014
662.24255 3614.0747 -282.0755 4294967014
661.59094 3616.855 -282.56631 4294967014
658.87048 3620.6858 -282.61365 4294967014
660.29205 3619.4092 -282.71295 4294967014
648.74146 3621.8081 -282.94675 4294967014
651.37402 3621.915 -282.87219 4294967014
661.69745 3616.5757 -281.03024 4294967015
659.11017 3620.4333 -281.37061 4294967015
657.06287 3621.3818 -281.633 4294967015
643.12128 3598.1226 -280.73825 4294967016
651.67804 3597.5916 -280.98459 4294967016
654.42645 3597.7451 -280.76663 4294967016
656.55341 3598.333 -280.17606 4294967016
658.27075 3599.3054 -280.90714 4294967016
659.69641 3601.1973 -280.54922 4294967016
660.86084 3603.6689 -280.27625 4294967016
662.35712 3612.0481 -280.84958 4294967016
658.51202 3620.7668 -280.0889 4294967016
660.37939 3619.1145 -280.05923 4294967016
646.35754 3622.3665 -280.52557 4294967016
654.09534 3621.8982 -280.43079 4294967016
643.46411 3624.3511 -280.67062 4294967016
642.03723 3627.7422 -280.97632 4294967016
639.1792 3590.7925 -279.16525 4294967017
641.30286 3597.4878 -279.29227 4294967017
644.21552 3598.4336 -279.17456 4294967017
649.77747 3597.8674 -279.15677 4294967017
657.3454 3599.0127 -279.05634 4294967017
658.53552 3600.1042 -279.12726 4294967017
661.75708 3606.791 -279.85611 4294967017
662.2558 3610.1284 -279.10959 4294967017
662.12592 3614.9014 -279.87552 4294967017
661.53381 3617.0815 -279.25134 4294967017
639.67767 3595.3042 -278.80597 4294967018
652.60504 3597.7346 -278.86331 4294967018
654.27594 3597.8562 -278.58951 4294967018
655.83087 3598.3286 -278.71915 4294967018
659.64783 3601.9905 -278.43729 4294967018
662.27197 3613.2791 -278.32635 4294967018
658.86945 3620.593 -278.74936 4294967018
645.08606 3623.158 -278.90781 4294967018
648.6026 3622.0771 -278.72791 4294967018
651.41034 3622.1799 -278.60965 4294967018
656.7699 3621.5103 -278.78558 4294967018
643.20288 3624.7454 -278.92453 4294967018
642.00916 3627.6763 -278.698 4294967018
643.9917 3598.4902 -277.16354 4294967019
653.75055 3597.896 -277.50793 4294967019
655.25537 3598.2927 -277.3949 4294967019
660.97729 3604.9143 -277.85327 4294967019
661.82245 3608.2063 -277.17563 4294967019
661.87457 3616.0017 -277.79645 4294967019
658.40942 3620.9199 -277.04367 4294967019
659.83862 3619.8665 -277.80469 4294967019
660.96497 3618.3074 -277.66296 4294967019
645.00861 3623.3457 -277.01477 4294967019
653.98096 3622.134 -277.32053 4294967019
640.6333 3597.2004 -276.70972 4294967020
642.8053 3598.166 -276.54752 4294967020
646.66071 3598.3408 -276.85812 4294967020
652.39587 3598.0176 -276.49802 4294967020
654.664 3598.2537 -276.34787 4294967020
655.86511 3598.6868 -276.54034 4294967020
657.47266 3599.8374 -276.92444 4294967020
659.81128 3603.0789 -276.11911 4294967020
662.13196 3611.6228 -276.39975 4294967020
656.40192 3621.8831 -276.28882 4294967020
642.51526 3626.1296 -276.66534 4294967020
643.4491 3624.5356 -276.93555 4294967020
639.48889 3595.1416 -275.13788 4294967021
640.78986 3597.3884 -275.03876 4294967021
644.03448 3598.542 -275.00769 4294967021
647.10956 3598.3572 -275.00656 4294967021
649.45758 3598.1492 -275.75836 4294967021
656.01862 3598.9358 -275.70895 4294967021
661.12878 3606.1936 -275.42233 4294967021
661.98743 3614.7026 -275.9975 4294967021
661.36975 3617.2959 -275.78604 4294967021
659.9632 3619.5674 -275.67374 4294967021
643.49017 3624.6638 -275.06427 4294967021
639.03815 3591.4233 -274.67371 4294967022
654.8197 3598.6733 -274.51535 4294967022
657.03961 3599.864 -274.47949 4294967022
658.76239 3601.7617 -274.3653 4294967022
661.74609 3609.5396 -274.58957 4294967022
661.59906 3616.1187 -274.33401 4294967022
645.15369 3623.2822 -274.91379 4294967022
648.65686 3622.3699 -274.98456 4294967022
654.22864 3622.5332 -274.88055 4294967022
656.71991 3622.4641 -274.61423 4294967022
658.20782 3621.1729 -274.97968 4294967022
641.97705 3627.7998 -274.9433 4294967022
638.9624 3591.417 -273.59576 4294967023
639.24683 3594.7844 -273.2435 4294967023
646.89404 3598.4275 -273.41705 4294967023
648.74054 3598.3252 -273.22122 4294967023
652.0481 3598.3164 -273.18692 4294967023
660.21448 3604.395 -273.83023 4294967023
661.12524 3607.2681 -273.11496 4294967023
661.75146 3613.5178 -273.32288 4294967023
659.37848 3620.1379 -273.2796 4294967023
660.73492 3618.2173 -273.48126 4294967023
657.98315 3621.373 -273.12802 4294967023
642.56213 3626.1082 -273.34781 4294967023
640.74121 3597.4727 -272.70496 4294967024
642.72473 3598.4187 -272.65811 4294967024
654.78333 3598.8284 -272.49387 4294967024
656.51996 3599.6282 -272.759 4294967024
657.99683 3600.9656 -272.67133 4294967024
659.33978 3602.9905 -272.0589 4294967024
661.48096 3610.1382 -272.20581 4294967024
661.3031 3616.4209 -272.74701 4294967024
651.48932 3622.574 -272.92239 4294967024
653.9743 3622.6555 -272.73117 4294967024
656.48773 3622.033 -272.09662 4294967024
643.39447 3624.7881 -272.99161 4294967024
642.12195 3627.7183 -272.84851 4294967024
639.62811 3596.2832 -271.11264 4294967025
642.5639 3598.2366 -271.25183 4294967025
644.13885 3598.5459 -271.39142 4294967025
649.7691 3598.3733 -271.25146 4294967025
654.01141 3598.6404 -271.23859 4294967025
657.36548 3600.385 -271.64856 4294967025
660.39221 3605.437 -271.76801 4294967025
661.25049 3615.7493 -271.55161 4294967025
659.94348 3619.3044 -271.97314 4294967025
641.94244 3627.291 -271.01074 4294967025
638.79791 3591.4756 -270.55777 4294967026
640.83368 3597.4414 -270.95706 4294967026
646.69574 3598.6023 -270.69846 4294967026
652.15875 3598.4102 -270.13751 4294967026
656.21729 3599.6089 -270.66864 4294967026
658.16058 3601.4204 -270.57278 4294967026
659.5202 3603.6899 -270.36249 4294967026
660.91882 3608.0042 -270.74771 4294967026
661.19312 3610.1858 -270.44235 4294967026
661.349 3613.1948 -270.84137 4294967026
660.65869 3616.9001 -270.30896 4294967026
658.71063 3620.5505 -270.79831 4294967026
645.14911 3623.5864 -270.9726 4294967026
651.31482 3622.7449 -270.87497 4294967026
654.58893 3622.7957 -270.86032 4294967026
656.50781 3621.9893 -270.3096 4294967026
646.67175 3598.6775 -269.25146 4294967027
649.09912 3598.4983 -269.02139 4294967027
654.59167 3598.8064 -269.5657 4294967027
660.28491 3605.9712 -269.87399 4294967027
660.89429 3610.3994 -269.22028 4294967027
661.03943 3613.0269 -269.46704 4294967027
659.61511 3619.4302 -269.04132 4294967027
644.97266 3623.6553 -269.00589 4294967027
643.40063 3624.7097 -269.02316 4294967027
638.55206 3589.0464 -268.46033 4294967028
638.64935 3594.135 -268.92487 4294967028
639.70282 3596.5449 -268.15332 4294967028
641.17426 3597.9456 -268.84525 4294967028
642.38696 3598.4194 -268.77957 4294967028
651.76788 3598.417 -268.04297 4294967028
653.60876 3598.5288 -268.51212 4294967028
655.08673 3598.9102 -268.01154 4294967028
