# .PCD v0.7 - Point Cloud Data file format
VERSION 0.7
FIELDS x y z rgba
SIZE 4 4 4 4
TYPE F F F U
COUNT 1 1 1 1
WIDTH 1144
HEIGHT 1
VIEWPOINT 0 0 0 1 0 0 0
POINTS 1144
DATA ascii
581.58142 3966.8142 -205.40627 4294967295
583.32568 3970.7954 -205.66107 4294967295
583.22986 3974.791 -205.77818 4294967295
585.5307 3974.8682 -205.93427 4294967295
541.3548 3991.8083 -205.09309 4294967295
549.23676 3990.8025 -205.29167 4294967295
561.09857 3992.8662 -205.85062 4294967295
567.23145 3990.8425 -205.89952 4294967295
535.42126 3994.9146 -205.03191 4294967295
543.38531 3994.844 -205.32094 4294967295
545.15167 3993.1045 -205.26135 4294967295
547.40521 3995.0908 -205.44806 4294967295
553.35425 3994.5881 -205.65277 4294967295
529.55725 3997.9351 -205.09232 4294967295
552.83783 3998.2046 -205.86995 4294967295
556.91534 3996.6829 -205.90053 4294967295
559.55591 3996.8599 -205.97491 4294967295
524.24341 3999.6399 -205.05194 4294967295
509.50961 4002.698 -205.00011 4294967295
295.29553 4006.906 -205.32486 4294967295
305.32385 4007.031 -205.19894 4294967295
283.28879 4009.2756 -205.99153 4294967295
285.90918 4008.7986 -205.83014 4294967295
289.58472 4008.9019 -205.61353 4294967295
293.29749 4010.7947 -205.48357 4294967295
298.88113 4008.8875 -205.25978 4294967295
303.34213 4008.9263 -205.17503 4294967295
307.08319 4010.9795 -205.24644 4294967295
309.89774 4008.7783 -205.30476 4294967295
321.29993 4010.99 -205.33427 4294967295
328.00336 4010.7183 -205.18011 4294967295
331.55829 4010.8755 -205.10899 4294967295
301.51962 4011.116 -205.22069 4294967295
312.68228 4012.1174 -205.3904 4294967295
317.82104 4012.8613 -205.42314 4294967295
323.65604 4013.0063 -205.37949 4294967295
315.2832 4015.8608 -205.54022 4294967295
325.27115 4014.9241 -205.46008 4294967295
269.80179 4031.4072 -205.82327 4294967295
287.74939 4029.8875 -205.41641 4294967295
559.37219 4044.875 -205.77687 4294967295
543.21307 4050.8433 -205.90627 4294967295
507.33777 4054.8667 -205.4948 4294967295
180.4063 4056.1143 -205.30516 4294967295
182.56741 4058.7681 -205.81871 4294967295
183.85104 4058.78 -205.11859 4294967295
211.91319 4056.6716 -205.98547 4294967295
223.10269 4056.1462 -205.75711 4294967295
381.63882 4058.9053 -205.5705 4294967295
403.46118 4058.9473 -205.23564 4294967295
413.76431 4058.9182 -205.13876 4294967295
417.80191 4058.8552 -205.05682 4294967295
421.23636 4058.9746 -205.00412 4294967295
431.72372 4058.8296 -205.02127 4294967295
503.20724 4056.6931 -205.57632 4294967295
509.49991 4058.8901 -205.75938 4294967295
513.5 4056.7273 -205.71997 4294967295
519.69714 4058.9177 -205.96312 4294967295
385.30417 4060.8647 -205.64606 4294967295
389.37039 4060.865 -205.60205 4294967295
397.25772 4060.8855 -205.48576 4294967295
401.58307 4060.9023 -205.38774 4294967295
405.73221 4059.0039 -205.22476 4294967295
407.23108 4060.791 -205.31479 4294967295
409.87851 4060.8906 -205.30952 4294967295
435.36917 4060.8091 -205.14867 4294967295
439.40936 4060.896 -205.19855 4294967295
473.31589 4060.811 -205.70262 4294967295
493.69165 4061.0237 -205.58704 4294967295
498.28778 4060.7976 -205.72363 4294967295
379.42706 4062.6653 -205.87253 4294967295
393.09924 4062.8127 -205.6633 4294967295
411.32065 4064.8733 -205.52821 4294967295
419.28934 4062.9097 -205.34093 4294967295
425.15259 4062.7563 -205.2328 4294967295
429.57416 4062.8767 -205.22688 4294967295
437.3056 4064.9565 -205.37334 4294967295
443.05231 4062.8132 -205.3614 4294967295
445.77386 4064.8362 -205.52811 4294967295
453.30768 4064.939 -205.60512 4294967295
456.11536 4063.0667 -205.49706 4294967295
457.54404 4064.7524 -205.53729 4294967295
461.1218 4062.8101 -205.37463 4294967295
469.34119 4064.9685 -205.63773 4294967295
471.53162 4062.9739 -205.64273 4294967295
475.39276 4062.7773 -205.76761 4294967295
477.53085 4064.8318 -205.81725 4294967295
479.63391 4062.8879 -205.8286 4294967295
481.6145 4064.7217 -205.82872 4294967295
491.2739 4063.8252 -205.7113 4294967295
449.36884 4066.7742 -205.66159 4294967295
465.44751 4066.8625 -205.65195 4294967295
481.75699 4066.8813 -205.88136 4294967295
487.46915 4066.8174 -205.86209 4294967295
710.15552 4193.6445 -205.59242 4294967295
687.53894 4194.6089 -205.38527 4294967295
427.49136 4209.9087 -205.19157 4294967295
179.45177 4264.0913 -205.17233 4294967295
136.12192 4267.1182 -205.53993 4294967295
145.31186 4266.4688 -205.1133 4294967295
348.37601 -846.70514 -204.15607 4294967295
343.85327 -815.07996 -204.72108 4294967295
-192.54045 -808.78113 -204.56149 4294967295
345.2981 -799.09399 -204.14664 4294967295
-177.16685 -793.17773 -204.78125 4294967295
348.2435 -671.04279 -204.77264 4294967295
364.47162 -625.57257 -204.89513 4294967295
362.82675 -609.16003 -204.62148 4294967295
353.3663 -510.86362 -204.30429 4294967295
310.20621 -371.72742 -204.55289 4294967295
311.97748 -347.74573 -204.88354 4294967295
322.72305 -273.06729 -204.67891 4294967295
322.90417 -271.11975 -204.63565 4294967295
315.24991 -239.09636 -204.10078 4294967295
321.00891 -239.78128 -204.38167 4294967295
313.80234 -207.03143 -204.50443 4294967295
314.93344 -208.99446 -204.21884 4294967295
381.38327 -118.51368 -204.90329 4294967295
400.76758 -63.083481 -204.49768 4294967295
391.63641 12.974289 -204.85918 4294967295
416.31375 364.82965 -204.8933 4294967295
429.91626 568.75055 -204.78529 4294967295
456.48505 952.47565 -204.4299 4294967295
457.34906 960.81677 -204.7662 4294967295
463.92215 1064.7256 -204.85243 4294967295
467.08725 1112.6873 -204.85054 4294967295
480.77502 1312.9471 -204.91881 4294967295
487.40848 1374.7588 -204.86969 4294967295
495.00314 1511.0122 -204.7301 4294967295
499.22653 1566.9135 -204.83617 4294967295
512.36597 1763.0125 -204.52924 4294967295
516.5271 1816.9635 -204.8004 4294967295
517.20599 1828.7681 -204.98434 4294967295
521.81152 1896.6978 -204.84428 4294967295
525.15631 1968.7294 -204.8224 4294967295
532.84814 2082.8965 -204.60237 4294967295
533.13953 2087.0989 -204.68138 4294967295
545.73383 2233.0078 -204.86194 4294967295
546.15076 2240.9167 -204.76643 4294967295
546.49738 2247.0391 -204.7672 4294967295
548.13953 2276.7368 -204.91504 4294967295
555.95477 2422.7998 -204.87538 4294967295
557.18658 2444.8208 -204.71155 4294967295
557.81854 2456.8972 -204.86215 4294967295
569.22717 2654.1279 -204.88916 4294967295
569.80396 2668.8279 -204.94925 4294967295
592.50232 2727.5669 -204.37729 4294967295
594.05109 3190.8586 -204.86804 4294967295
174.99327 3663.5283 -204.48595 4294967295
177.08896 3685.0212 -204.93587 4294967295
178.06259 3690.8088 -204.96985 4294967295
178.79176 3694.6743 -204.94759 4294967295
179.35898 3697.0012 -204.9604 4294967295
180.32411 3702.9592 -204.94795 4294967295
181.14482 3705.0564 -204.7243 4294967295
181.57428 3708.8152 -204.83736 4294967295
185.08641 3717.0479 -204.06325 4294967295
191.65106 3756.7998 -204.5387 4294967295
198.63367 3799.4153 -204.96284 4294967295
216.68381 3828.5417 -204.14909 4294967295
227.44281 3916.9163 -204.17461 4294967295
227.58842 3920.7646 -204.28966 4294967295
231.42116 3922.8037 -204.20029 4294967295
227.69836 3924.7937 -204.44112 4294967295
581.61646 3926.7595 -204.19284 4294967295
228.53917 3929.0413 -204.63574 4294967295
583.49329 3928.8228 -204.40814 4294967295
231.11009 3931.6667 -204.71326 4294967295
583.5575 3932.9102 -204.55087 4294967295
231.11591 3937.3535 -204.98032 4294967295
583.40839 3936.802 -204.67036 4294967295
585.37061 3941.0645 -204.9575 4294967295
521.32776 3992.7832 -204.74457 4294967295
529.72723 3990.7253 -204.71051 4294967295
537.0459 3990.8164 -204.90692 4294967295
515.48108 3994.7383 -204.64153 4294967295
531.52545 3994.9329 -204.93286 4294967295
533.5932 3993.022 -204.88362 4294967295
477.32852 3998.7981 -204.30452 4294967295
489.21008 3998.8718 -204.36049 4294967295
503.31866 3998.5525 -204.69527 4294967295
507.01349 3996.5261 -204.68314 4294967295
512.70795 3998.8701 -204.77586 4294967295
521.08527 3997.0396 -204.88573 4294967295
526.53162 3997.7517 -204.98909 4294967295
453.50452 4000.7524 -204.09172 4294967295
495.13623 3999.1326 -204.47566 4294967295
497.20853 4000.9092 -204.59254 4294967295
387.52148 4004.9121 -204.20033 4294967295
401.57382 4004.8535 -204.12102 4294967295
419.38354 4004.9033 -204.01465 4294967295
429.0484 4002.8669 -204.0396 4294967295
435.45798 4002.9197 -204.0665 4294967295
457.099 4003.0737 -204.25804 4294967295
463.4863 4002.5989 -204.2746 4294967295
467.55161 4004.8342 -204.36008 4294967295
469.13495 4003.0256 -204.27971 4294967295
471.77051 4003.9119 -204.37627 4294967295
473.60733 4003.7661 -204.41269 4294967295
475.48895 4004.9656 -204.49074 4294967295
483.45438 4002.6931 -204.49274 4294967295
485.33185 4004.8538 -204.65829 4294967295
493.39951 4003.9346 -204.68483 4294967295
499.36707 4004.7195 -204.94034 4294967295
500.84225 4002.718 -204.79214 4294967295
345.66821 4006.9565 -204.64999 4294967295
351.32391 4006.835 -204.58969 4294967295
369.79385 4006.8687 -204.39072 4294967295
379.24731 4006.771 -204.30669 4294967295
407.32645 4006.9482 -204.16751 4294967295
413.60242 4007.021 -204.1693 4294967295
417.12039 4006.6448 -204.119 4294967295
421.50168 4006.937 -204.04936 4294967295
425.27283 4006.8794 -204.07831 4294967295
427.6759 4006.7397 -204.1387 4294967295
429.18347 4006.7498 -204.18932 4294967295
431.69183 4006.825 -204.26546 4294967295
432.92606 4006.8594 -204.28455 4294967295
461.18732 4007.2227 -204.50696 4294967295
479.58582 4006.0203 -204.75101 4294967295
481.06821 4006.9722 -204.8801 4294967295
483.23611 4006.8711 -204.88934 4294967295
486.67358 4007.0808 -204.97377 4294967295
333.3175 4008.582 -204.97276 4294967295
337.22607 4010.9265 -204.96553 4294967295
346.20248 4010.844 -204.75677 4294967295
355.44907 4008.8943 -204.62231 4294967295
359.42911 4010.7043 -204.65427 4294967295
363.32501 4008.5061 -204.56267 4294967295
365.75354 4010.6541 -204.61423 4294967295
369.57773 4010.8076 -204.56361 4294967295
373.22226 4008.9529 -204.44017 4294967295
375.62814 4008.9023 -204.41881 4294967295
377.11295 4010.8757 -204.48439 4294967295
380.83972 4010.7202 -204.43875 4294967295
385.24567 4009.8367 -204.38997 4294967295
391.39478 4009.8242 -204.35002 4294967295
393.64868 4008.9219 -204.28935 4294967295
397.6261 4008.9351 -204.27008 4294967295
399.34323 4010.9387 -204.38716 4294967295
409.60812 4010.8284 -204.34349 4294967295
411.83191 4008.9634 -204.23595 4294967295
339.52243 4012.9946 -204.9549 4294967295
342.8739 4012.9021 -204.86511 4294967295
395.63245 4011.9968 -204.51205 4294967295
289.96567 4030.6123 -204.36844 4294967295
223.97829 4055.97 -204.48167 4294967295
225.24423 4055.9385 -204.36449 4294967295
185.17924 4058.6685 -204.53468 4294967295
186.40939 4058.5725 -204.09065 4294967295
203.81398 4057.9365 -204.08762 4294967295
415.41608 4056.9377 -204.94026 4294967295
669.28119 4195.6919 -204.17871 4294967295
689.4176 4194.5591 -204.39726 4294967295
694.06708 4194.605 -204.22426 4294967295
695.38501 4194.647 -204.64052 4294967295
436.22437 4210.7744 -204.15442 4294967295
303.94333 4220.8447 -204.64526 4294967295
669.76489 4229.251 -204.95827 4294967295
675.47919 4228.853 -204.95953 4294967295
685.09723 4228.1021 -204.98009 4294967295
619.47943 4232.9058 -204.95486 4294967295
615.33679 4233.229 -204.98117 4294967295
559.65472 4237.2202 -204.82709 4294967295
531.70276 4239.2358 -204.91646 4294967295
481.47186 4242.874 -204.94455 4294967295
417.50659 4247.4556 -204.84496 4294967295
375.52792 4250.436 -204.91232 4294967295
363.62167 4251.3042 -204.93796 4294967295
249.26709 4259.2998 -204.78719 4294967295
195.26915 4262.9692 -204.79774 4294967295
203.47563 4262.3804 -204.9184 4294967295
215.45305 4261.5815 -204.85574 4294967295
227.53391 4261.5078 -204.92896 4294967295
153.32263 4265.7949 -204.81099 4294967295
163.23053 4265.5684 -204.68794 4294967295
175.10651 4264.4229 -204.91177 4294967295
183.66267 4263.8159 -204.94075 4294967295
137.28221 4267.0869 -204.66414 4294967295
270.42126 -841.76062 -203.24118 4294967295
348.12411 -673.17444 -203.06258 4294967295
364.32776 -625.48865 -203.20647 4294967295
299.89105 -466.02643 -203.30103 4294967295
300.99451 -466.35513 -203.89249 4294967295
321.96414 -237.27272 -203.76266 4294967295
324.91458 -238.71872 -203.9567 4294967295
311.49615 -235.63242 -203.27116 4294967295
314.20499 -235.45697 -203.54782 4294967295
324.87112 -234.69553 -203.25346 4294967295
325.09058 -235.07951 -203.12045 4294967295
321.89877 -229.01457 -203.09157 4294967295
313.69287 -213.97285 -203.16982 4294967295
317.53046 -213.55692 -203.29048 4294967295
314.41937 -211.76749 -203.58148 4294967295
317.37558 -211.17322 -203.72769 4294967295
387.53503 -119.06818 -203.00467 4294967295
400.89615 -61.178642 -203.08905 4294967295
391.7572 14.868877 -203.24191 4294967295
410.05164 152.81688 -203.9185 4294967295
411.9364 152.9899 -203.1862 4294967295
419.3544 350.41318 -203.63742 4294967295
440.05573 708.77814 -203.06119 4294967295
466.68002 948.13251 -203.74335 4294967295
508.01752 1702.9583 -203.27254 4294967295
508.29996 1707.7441 -203.82372 4294967295
515.69452 1806.7202 -203.02057 4294967295
527.82245 2010.7411 -203.12935 4294967295
528.99622 2026.8875 -203.18869 4294967295
529.26599 2030.856 -203.00537 4294967295
529.51801 2034.6571 -203.09589 4294967295
531.19214 2058.7803 -203.07347 4294967295
549.04254 2307.2231 -203.07251 4294967295
552.93103 2376.666 -203.14711 4294967295
555.10291 2418.8235 -203.08078 4294967295
592.81158 3186.8979 -203.48178 4294967295
165.93539 3661.1074 -203.55077 4294967295
177.45004 3665.002 -203.83899 4294967295
178.91914 3679.8145 -203.57431 4294967295
181.87489 3690.8608 -203.22815 4294967295
184.43748 3707.709 -203.38649 4294967295
186.44473 3712.2305 -203.00391 4294967295
207.22542 3802.9771 -203.40492 4294967295
216.32874 3823.1621 -203.41426 4294967295
217.02199 3822.3289 -203.25349 4294967295
224.9054 3825.1758 -203.03662 4294967295
216.67865 3833.4458 -203.87796 4294967295
217.76459 3834.3464 -203.06628 4294967295
218.94597 3834.0562 -203.15329 4294967295
228.89383 3895.7656 -203.14496 4294967295
225.49008 3901.6582 -203.57558 4294967295
229.76122 3904.9021 -203.4745 4294967295
225.53995 3909.052 -203.88379 4294967295
575.33484 3910.9478 -203.10667 4294967295
229.26129 3913.0742 -203.91081 4294967295
575.68073 3914.7422 -203.34897 4294967295
575.59387 3920.7646 -203.63565 4294967295
579.4057 3920.8301 -203.80583 4294967295
579.49615 3924.7517 -203.97868 4294967295
353.69925 3954.8325 -203.08772 4294967295
357.59836 3954.8616 -203.07603 4294967295
351.33682 3959.0815 -203.32053 4294967295
351.40582 3962.9189 -203.36331 4294967295
353.4389 3964.8435 -203.33861 4294967295
371.21786 3964.6357 -203.01201 4294967295
353.14124 3967.2466 -203.32068 4294967295
359.07938 3968.7686 -203.34752 4294967295
363.07956 3968.7791 -203.26462 4294967295
367.41974 3968.8167 -203.14912 4294967295
369.33182 3966.8997 -203.09221 4294967295
355.55887 3970.8882 -203.37288 4294967295
447.58926 3994.7336 -203.67307 4294967295
451.47729 3994.803 -203.76631 4294967295
436.95334 3998.7151 -203.85854 4294967295
447.43497 3998.856 -203.7343 4294967295
449.6507 3996.7771 -203.74918 4294967295
451.39651 3996.7815 -203.8278 4294967295
437.20584 4000.6208 -203.91255 4294967295
439.17612 4000.9707 -203.86436 4294967295
447.51288 4000.8364 -203.83354 4294967295
439.54382 4002.4644 -203.94583 4294967295
441.55594 4002.8826 -203.89148 4294967295
443.38159 4002.9121 -203.87462 4294967295
445.53323 4003.0339 -203.90576 4294967295
269.26151 4052.7356 -203.68282 4294967295
184.43735 4055.9792 -203.66148 4294967295
185.4666 4055.3423 -203.18289 4294967295
184.6671 4056.1443 -203.65277 4294967295
187.41635 4058.2192 -203.54916 4294967295
188.79117 4058.2092 -203.31763 4294967295
217.88231 4056.5564 -203.61673 4294967295
709.50696 4193.6294 -203.17889 4294967295
710.48303 4193.7061 -203.54179 4294967295
691.35925 4194.5249 -203.33301 4294967295
627.49493 4232.46 -203.10809 4294967295
527.37561 4239.5801 -203.03477 4294967295
229.59866 4261.5283 -203.08641 4294967295
271.67004 -841.61096 -202.84729 4294967295
273.81055 -841.9588 -202.44589 4294967295
282.91394 -829.00427 -202.64053 4294967295
283.16708 -824.99255 -202.46898 4294967295
344.08371 -815.94086 -202.81522 4294967295
-194.43785 -808.58533 -202.77048 4294967295
346.60629 -805.97717 -202.54645 4294967295
346.7027 -802.87006 -202.86078 4294967295
345.0318 -787.15979 -202.85698 4294967295
-167.13812 -657.04242 -202.33333 4294967295
355.54337 -510.94907 -202.97186 4294967295
302.35501 -466.99716 -202.19478 4294967295
323.05289 -269.1261 -202.86938 4294967295
311.86243 -231.02748 -202.75537 4294967295
315.36444 -232.81467 -202.96786 4294967295
317.37659 -231.22597 -202.92326 4294967295
315.45038 -229.25003 -202.6739 4294967295
317.66876 -229.131 -202.80376 4294967295
312.17316 -226.33002 -202.38043 4294967295
313.88779 -226.98914 -202.43896 4294967295
315.44482 -225.59538 -202.43234 4294967295
312.08838 -222.46301 -202.38069 4294967295
315.13861 -222.28467 -202.38632 4294967295
312.28085 -219.4193 -202.51099 4294967295
313.70731 -217.23077 -202.71877 4294967295
316.8085 -216.92671 -202.79439 4294967295
399.31754 -83.967957 -202.48727 4294967295
398.70157 118.77136 -202.94281 4294967295
401.77188 153.85301 -202.91832 4294967295
426.04291 510.96497 -202.94666 4294967295
430.18118 572.97455 -202.34755 4294967295
462.43167 948.26379 -202.92419 4294967295
460.58673 1012.8509 -202.91481 4294967295
467.02682 1114.9753 -202.43022 4294967295
470.62036 1164.7804 -202.98346 4294967295
480.67728 1312.7001 -202.77101 4294967295
494.56976 1506.7296 -202.75279 4294967295
512.64807 1766.8271 -202.55574 4294967295
515.48315 1804.8339 -202.80014 4294967295
516.34729 1814.9384 -202.57993 4294967295
517.46045 1832.7821 -202.89107 4294967295
521.25476 1890.8835 -202.78308 4294967295
525.53754 1976.9583 -202.59926 4294967295
527.53979 2006.8248 -202.77957 4294967295
528.10309 2014.6763 -202.80014 4294967295
528.2572 2016.8425 -202.56134 4294967295
529.63965 2036.7294 -202.86861 4294967295
529.90723 2040.9917 -202.57622 4294967295
531.55957 2064.7686 -202.69922 4294967295
531.70178 2067.0515 -202.9343 4294967295
531.92737 2070.8296 -202.43794 4294967295
544.7608 2230.9832 -202.53328 4294967295
548.73315 2302.4202 -202.89543 4294967295
552.64661 2374.7947 -202.6364 4294967295
554.71033 2412.7131 -202.95496 4294967295
556.54858 2444.0029 -202.78101 4294967295
558.76855 2492.8394 -202.70319 4294967295
568.56348 2654.8186 -202.78246 4294967295
569.0293 2668.7766 -202.80988 4294967295
585.49152 3016.9187 -202.69154 4294967295
585.57043 3018.9226 -202.67525 4294967295
591.88098 3181.7622 -202.76247 4294967295
592.18616 3184.7998 -202.90695 4294967295
592.18134 3193.552 -202.69292 4294967295
181.97652 3685.8743 -202.68686 4294967295
183.97441 3694.3159 -202.55003 4294967295
185.72845 3708.4717 -202.86771 4294967295
221.81747 3815.061 -202.52489 4294967295
224.33185 3814.259 -202.46968 4294967295
227.34796 3814.9338 -202.30499 4294967295
229.36888 3814.5625 -202.16634 4294967295
219.25375 3818.8164 -202.79645 4294967295
228.97495 3818.3271 -202.41425 4294967295
237.52719 3816.9138 -202.0731 4294967295
237.7645 3819.0017 -202.26767 4294967295
225.7849 3822.7915 -202.72307 4294967295
237.78877 3823.519 -202.6145 4294967295
242.04713 3825.7622 -202.60851 4294967295
243.44194 3830.8108 -202.22385 4294967295
244.207 3829.5747 -202.39136 4294967295
197.55817 3834.5515 -202.90395 4294967295
214.05643 3834.8782 -202.93019 4294967295
581.59149 3862.7871 -202.08736 4294967295
579.46936 3865.8955 -202.02132 4294967295
581.48108 3872.8562 -202.37413 4294967295
251.56212 3878.8872 -202.10654 4294967295
255.55669 3879.0132 -202.05919 4294967295
581.4743 3880.8469 -202.58992 4294967295
249.58643 3882.4971 -202.24364 4294967295
577.54675 3884.7947 -202.3882 4294967295
246.85327 3886.9556 -202.47229 4294967295
577.57666 3886.845 -202.44995 4294967295
239.60997 3890.9717 -202.73161 4294967295
243.01418 3889.2642 -202.68153 4294967295
245.7332 3888.4275 -202.56886 4294967295
575.56012 3890.8557 -202.464 4294967295
243.3759 3892.6445 -202.68588 4294967295
233.4142 3896.7917 -202.99506 4294967295
237.64697 3894.7644 -202.80928 4294967295
569.49585 3894.8494 -202.26987 4294967295
573.67401 3894.8889 -202.48903 4294967295
567.24738 3900.938 -202.2043 4294967295
571.21899 3902.7629 -202.37561 4294967295
571.31702 3906.8994 -202.63701 4294967295
573.70709 3906.9426 -202.73228 4294967295
575.3963 3908.9155 -202.96147 4294967295
362.88031 3949.4844 -202.80215 4294967295
367.16483 3950.897 -202.80077 4294967295
371.71143 3949.8708 -202.66528 4294967295
375.1954 3950.801 -202.65491 4294967295
359.79077 3952.697 -202.95459 4294967295
375.38431 3952.77 -202.60251 4294967295
377.69153 3952.9487 -202.69232 4294967295
376.96765 3955.8403 -202.64819 4294967295
379.6864 3958.9495 -202.89494 4294967295
377.33423 3960.8867 -202.88005 4294967295
373.47485 3964.8015 -202.99469 4294967295
293.70645 4030.6409 -202.93016 4294967295
187.57535 4055.5503 -202.56648 4294967295
189.33931 4058.0356 -202.90665 4294967295
225.27602 4056.0867 -202.27254 4294967295
711.12769 4193.8184 -202.74905 4294967295
693.20929 4194.4941 -202.67432 4294967295
701.92328 4194.1743 -202.93365 4294967295
188.59456 4229.7529 -202.65503 4294967295
673.02966 4229.1719 -202.99153 4294967295
623.49823 4232.6675 -202.96564 4294967295
631.61719 4232.2344 -202.98 4294967295
651.5556 4230.6152 -202.96861 4294967295
567.56189 4236.6631 -202.85011 4294967295
501.2034 4241.5845 -202.91263 4294967295
487.59207 4242.5688 -202.98743 4294967295
491.44241 4242.2988 -202.81357 4294967295
273.54114 4257.8276 -202.78632 4294967295
199.28874 4262.8105 -202.80833 4294967295
209.79881 4262.1123 -202.97729 4294967295
231.36043 4261.3506 -202.77203 4294967295
237.35185 4260.3662 -202.90872 4294967295
239.54716 4260.1094 -202.96848 4294967295
159.04643 4265.7222 -202.7218 4294967295
179.40352 4264.2759 -202.74213 4294967295
187.54657 4263.7046 -202.77257 4294967295
193.25725 4263.2686 -202.81183 4294967295
139.31778 4267.0669 -202.78252 4294967295
271.4671 -841.49823 -201.03265 4294967295
343.60101 -814.15912 -201.57632 4294967295
361.93665 -623.43085 -201.09535 4294967295
305.99811 -513.89685 -201.94356 4294967295
302.76218 -467.19904 -201.93039 4294967295
310.56131 -370.58167 -201.51498 4294967295
385.33878 -118.65806 -201.1261 4294967295
336.48514 -81.023392 -201.22235 4294967295
401.74408 154.04294 -201.07127 4294967295
402.55142 171.01924 -201.27917 4294967295
457.2244 961.86951 -201.34161 4294967295
464.15619 1070.8206 -201.00891 4294967295
470.64584 1167.098 -201.28413 4294967295
480.30722 1308.9875 -201.01309 4294967295
516.11359 1812.7815 -201.09586 4294967295
526.70111 1995.104 -201.00677 4294967295
527.20599 2002.885 -201.08089 4294967295
528.62903 2022.946 -201.1165 4294967295
529.32349 2032.9054 -201.18109 4294967295
530.71802 2053.792 -201.16026 4294967295
553.83313 2407.7349 -201.08035 4294967295
554.35651 2416.6667 -201.15266 4294967295
157.7153 3661.9983 -201.36256 4294967295
168.68987 3660.9783 -201.24184 4294967295
182.3716 3668.3108 -201.67233 4294967295
182.24995 3669.791 -201.98164 4294967295
182.28105 3672.679 -201.71077 4294967295
182.20766 3676.8076 -201.82924 4294967295
182.19005 3678.8604 -201.97058 4294967295
186.599 3695.5847 -201.5811 4294967295
563.35852 3792.7544 -201.02965 4294967295
565.37616 3794.9075 -201.14073 4294967295
541.60437 3802.9924 -201.06862 4294967295
228.13969 3805.24 -201.9709 4294967295
235.75868 3808.7605 -201.6981 4294967295
234.94563 3815.1926 -201.96211 4294967295
245.57205 3832.1199 -201.48459 4294967295
203.14371 3834.7305 -201.07014 4294967295
218.45514 3834.7571 -201.31133 4294967295
567.32129 3844.8391 -201.01147 4294967295
569.53918 3846.7834 -201.00533 4294967295
571.40271 3850.7473 -201.14182 4294967295
281.55704 3857.4619 -201.35364 4294967295
573.30908 3856.7864 -201.38319 4294967295
196.21735 3858.0012 -201.01941 4294967295
280.89694 3860.9612 -201.24286 4294967295
577.41571 3858.8752 -201.67529 4294967295
579.62061 3860.8918 -201.87563 4294967295
257.63892 3870.8586 -201.72108 4294967295
265.7012 3872.6995 -201.60226 4294967295
297.27542 3872.855 -201.00481 4294967295
253.11159 3874.9102 -201.9397 4294967295
261.26309 3874.8884 -201.70663 4294967295
269.47455 3873.0796 -201.50365 4294967295
275.80447 3874.8799 -201.44168 4294967295
277.46127 3873.0642 -201.40062 4294967295
284.27011 3874.3457 -201.28665 4294967295
293.29449 3874.8127 -201.11717 4294967295
271.45654 3876.6831 -201.53644 4294967295
280.01303 3876.179 -201.44957 4294967295
289.83029 3876.9207 -201.22108 4294967295
295.2403 3876.887 -201.20036 4294967295
261.18173 3879.0249 -201.84441 4294967295
511.70203 3898.7468 -201.06233 4294967295
515.32446 3898.8472 -201.08145 4294967295
517.34949 3898.9363 -201.09422 4294967295
509.69537 3900.7786 -201.02682 4294967295
519.76532 3902.5632 -201.18712 4294967295
523.47852 3901.8257 -201.24562 4294967295
527.36615 3900.9114 -201.32036 4294967295
511.18646 3904.9524 -201.13773 4294967295
523.08337 3904.96 -201.41985 4294967295
527.35229 3904.853 -201.52344 4294967295
487.33835 3908.9075 -201.01059 4294967295
489.36145 3908.8333 -201.04752 4294967295
491.72504 3908.8093 -201.10089 4294967295
515.11578 3906.8718 -201.37856 4294967295
517.5528 3906.8391 -201.44669 4294967295
519.49432 3906.9875 -201.51573 4294967295
525.52252 3906.7927 -201.65205 4294967295
483.33334 3910.7808 -201.09178 4294967295
485.45181 3910.8066 -201.14865 4294967295
281.40207 4031.5806 -201.78889 4294967295
298.53345 4030.5979 -201.43002 4294967295
227.18903 4056.0017 -201.58586 4294967295
685.46686 4194.7109 -201.03458 4294967295
711.93219 4194.0542 -201.88551 4294967295
712.76904 4194.4722 -201.30276 4294967295
643.54437 4231.3589 -201.00444 4294967295
211.63089 4262.1421 -201.10089 4294967295
175.50294 4264.6934 -201.22577 4294967295
197.44388 4263.0952 -201.00853 4294967295
138.10947 4267.21 -201.51198 4294967295
149.42786 4266.4468 -201.02695 4294967295
347.48859 -846.48608 -200.65894 4294967295
-177.33418 -795.20441 -200.98645 4294967295
344.95654 -789.12366 -200.79875 4294967295
345.05344 -786.81555 -200.34367 4294967295
-164.38123 -617.76251 -200.93286 4294967295
301.40964 -466.56042 -200.87575 4294967295
310.02423 -371.58267 -200.56653 4294967295
319.64114 -317.17352 -200.97664 4294967295
331.15527 -155.23814 -200.75737 4294967295
335.1015 -99.104561 -200.78009 4294967295
400.87326 -61.069157 -200.53883 4294967295
391.59555 12.84998 -200.94229 4294967295
398.7832 120.64677 -200.69962 4294967295
411.85941 306.90314 -200.90129 4294967295
423.5636 350.50262 -200.47176 4294967295
416.22675 364.86826 -200.59886 4294967295
464.97757 884.91528 -200.70831 4294967295
476.93237 945.37103 -200.5939 4294967295
457.92188 949.38562 -200.48599 4294967295
463.86554 1066.8883 -200.51289 4294967295
466.93771 1112.7996 -200.60606 4294967295
486.97571 1372.9213 -200.80571 4294967295
497.97653 1558.7372 -200.85567 4294967295
515.72162 1808.7976 -200.50183 4294967295
525.2085 1972.9269 -200.85774 4294967295
525.85822 1982.7268 -200.95036 4294967295
526.92249 1998.8285 -200.55263 4294967295
529.94043 2042.7048 -200.93806 4294967295
530.35687 2048.8748 -200.99687 4294967295
543.50714 2149.5977 -200.86812 4294967295
546.62683 2276.9453 -200.68784 4294967295
555.90271 2442.915 -200.91405 4294967295
556.39661 2458.8367 -200.80716 4294967295
557.17151 2474.7581 -200.79337 4294967295
557.44037 2480.9424 -200.74969 4294967295
567.60889 2653.7959 -200.77307 4294967295
584.06427 3012.9426 -200.78151 4294967295
584.56079 3022.7654 -200.95367 4294967295
589.93024 3180.8005 -200.74861 4294967295
589.85791 3196.8215 -200.43982 4294967295
187.96123 3686.0569 -200.23784 4294967295
189.62924 3698.4795 -200.6835 4294967295
573.20618 3754.8665 -200.05385 4294967295
571.49396 3756.8906 -200.02432 4294967295
571.40344 3760.8281 -200.1689 4294967295
225.77567 3762.2759 -200.17989 4294967295
233.50095 3764.6821 -200.00446 4294967295
567.51349 3764.8167 -200.13829 4294967295
571.34344 3762.8972 -200.25545 4294967295
222.56125 3767.6716 -200.4893 4294967295
233.6759 3768.9331 -200.34232 4294967295
569.76117 3768.8154 -200.43965 4294967295
222.80482 3771.0708 -200.65115 4294967295
223.13164 3772.7427 -200.72581 4294967295
225.427 3773.4426 -200.80791 4294967295
231.17482 3771.0012 -200.58727 4294967295
571.18134 3772.8452 -200.66496 4294967295
228.48624 3774.4487 -200.88091 4294967295
569.18854 3776.8127 -200.71844 4294967295
567.55939 3780.8008 -200.82056 4294967295
565.51282 3786.8494 -200.99138 4294967295
543.49182 3794.6362 -200.28685 4294967295
549.69281 3794.9141 -200.45442 4294967295
555.92487 3794.7856 -200.68315 4294967295
559.45898 3792.7781 -200.81584 4294967295
527.55927 3796.7891 -200.01421 4294967295
531.43732 3796.6392 -200.10692 4294967295
537.43018 3795.0029 -200.16599 4294967295
552.08331 3796.8093 -200.59142 4294967295
555.75677 3797.1179 -200.77737 4294967295
287.21234 3798.8564 -200.00752 4294967295
529.43628 3798.8579 -200.20291 4294967295
535.23938 3800.7744 -200.589 4294967295
539.55444 3799.9092 -200.60873 4294967295
543.15771 3800.8418 -200.75179 4294967295
544.99811 3798.6934 -200.51268 4294967295
547.61633 3799.793 -200.7027 4294967295
553.34875 3798.8386 -200.79538 4294967295
515.38202 3802.9619 -200.15082 4294967295
295.73755 3804.8594 -200.00816 4294967295
497.23325 3805.0151 -200.01694 4294967295
297.32928 3808.9072 -200.20712 4294967295
301.2196 3808.8093 -200.05829 4294967295
249.58078 3832.542 -200.43666 4294967295
206.77127 3835.0786 -200.13754 4294967295
563.23608 3844.7661 -200.90135 4294967295
525.26825 3848.9185 -200.12531 4294967295
545.22113 3847.8882 -200.4366 4294967295
547.26831 3848.9194 -200.48764 4294967295
549.46613 3846.8184 -200.53049 4294967295
553.62109 3847.6592 -200.60187 4294967295
555.53546 3846.897 -200.61974 4294967295
557.42712 3848.8921 -200.68942 4294967295
561.49896 3846.8853 -200.78093 4294967295
565.14551 3846.9202 -200.88373 4294967295
519.56677 3850.9731 -200.04367 4294967295
523.21405 3850.7322 -200.0829 4294967295
529.62842 3850.8992 -200.25217 4294967295
537.30194 3850.8704 -200.36841 4294967295
539.77441 3850.8008 -200.38438 4294967295
543.66858 3850.9443 -200.45094 4294967295
263.06512 3854.9114 -200.35359 4294967295
266.73099 3854.0239 -200.02602 4294967295
517.65094 3854.8284 -200.12715 4294967295
521.31213 3852.8562 -200.09523 4294967295
527.38696 3854.7998 -200.25177 4294967295
533.16571 3852.8945 -200.3802 4294967295
535.35419 3854.8201 -200.4429 4294967295
541.45508 3852.813 -200.45619 4294967295
551.39844 3852.8296 -200.69907 4294967295
191.47432 3858.5146 -200.84294 4294967295
321.32755 3863.5347 -200.31958 4294967295
311.76007 3866.9167 -200.54872 4294967295
313.51022 3865.03 -200.47807 4294967295
315.34229 3866.9961 -200.52049 4294967295
320.75906 3866.9343 -200.41161 4294967295
323.41071 3865.0271 -200.29385 4294967295
325.37238 3864.7844 -200.24219 4294967295
327.80402 3866.8647 -200.24808 4294967295
331.37714 3864.8711 -200.13553 4294967295
335.4306 3864.9441 -200.0379 4294967295
301.45621 3868.6785 -200.74338 4294967295
307.60587 3868.8159 -200.6312 4294967295
333.96323 3868.7048 -200.21838 4294967295
485.47003 3902.8999 -200.5829 4294967295
491.65381 3901.7683 -200.68826 4294967295
495.35019 3900.7017 -200.75018 4294967295
499.30475 3902.802 -200.81937 4294967295
501.53748 3900.6824 -200.84052 4294967295
503.52084 3902.7622 -200.88194 4294967295
507.68246 3902.7009 -200.98262 4294967295
481.65106 3904.7842 -200.62209 4294967295
489.31711 3904.8792 -200.72644 4294967295
495.228 3904.802 -200.85379 4294967295
505.77856 3904.7656 -200.993 4294967295
449.39832 3908.9192 -200.51045 4294967295
477.54453 3906.9231 -200.6506 4294967295
447.6394 3910.7683 -200.64386 4294967295
451.65903 3910.7856 -200.58014 4294967295
455.35486 3910.5933 -200.57932 4294967295
479.38583 3910.9019 -200.9888 4294967295
455.42712 3912.9417 -200.77324 4294967295
311.87976 4029.3782 -200.1828 4294967295
222.31694 4033.8179 -200.40738 4294967295
263.68332 4032.8457 -200.22028 4294967295
290.12677 4051.0857 -200.85812 4294967295
191.72014 4054.1619 -200.79248 4294967295
204.99966 4057.8704 -200.1954 4294967295
213.94267 4057.4622 -200.73329 4294967295
659.37122 4196.4863 -200.19122 4294967295
679.4704 4195.1543 -200.52118 4294967295
693.71637 4194.3203 -200.66968 4294967295
188.06502 4229.8872 -200.8287 4294967295
687.37573 4228.2129 -200.92523 4294967295
629.51373 4232.543 -200.93282 4294967295
639.12506 4231.7324 -200.94859 4294967295
647.38843 4231.0708 -200.83948 4294967295
661.37585 4230.1567 -200.88177 4294967295
557.61926 4237.498 -200.97379 4294967295
497.54291 4241.9424 -200.92311 4294967295
505.25256 4241.4282 -200.94315 4294967295
471.38977 4243.771 -200.86481 4294967295
477.67059 4243.3325 -200.84578 4294967295
485.25931 4242.833 -200.83208 4294967295
419.50842 4247.4917 -200.79654 4294967295
427.2963 4246.9326 -200.90392 4294967295
201.60257 4262.8188 -200.77324 4294967295
205.32156 4262.5508 -200.96042 4294967295
207.24171 4262.4458 -200.74603 4294967295
235.47618 4260.6978 -200.82481 4294967295
159.22762 4265.8315 -200.795 4294967295
163.2616 4265.7881 -200.76724 4294967295
181.49249 4264.2817 -200.90677 4294967295
185.34267 4264.0244 -200.85504 4294967295
191.43118 4263.582 -200.66637 4294967295
153.1962 4266.1357 -200.84244 4294967295
270.18549 -841.55707 -199.05417 4294967295
-192.60222 -808.51166 -199.12682 4294967295
346.96555 -806.55151 -199.64735 4294967295
364.62585 -625.33289 -199.10817 4294967295
362.44135 -613.28796 -199.07719 4294967295
353.58121 -510.65112 -199.15852 4294967295
302.54492 -466.87115 -199.00542 4294967295
379.39984 -118.10293 -199.02963 4294967295
335.65442 -91.127861 -199.19075 4294967295
336.79941 -76.997208 -199.00964 4294967295
399.74954 -77.094299 -199.34381 4294967295
398.69153 118.92004 -199.0378 4294967295
404.88113 153.17265 -199.93845 4294967295
458.63632 949.25171 -199.4538 4294967295
465.07852 948.33929 -199.31316 4294967295
475.13754 948.07251 -199.79289 4294967295
517.44751 1836.8746 -199.17569 4294967295
525.55457 1979.3501 -199.54152 4294967295
526.20892 1988.7195 -199.04544 4294967295
543.93219 2149.4312 -199.50958 4294967295
551.53436 2376.9783 -199.02449 4294967295
563.82654 2592.7227 -199.10559 4294967295
191.40236 3686.4829 -199.21953 4294967295
189.41052 3687.0356 -199.81544 4294967295
193.06619 3699.6492 -199.81299 4294967295
205.81145 3728.7886 -199.26482 4294967295
205.53062 3734.009 -199.67473 4294967295
215.40849 3734.8914 -199.21474 4294967295
215.22513 3737.0117 -199.33226 4294967295
567.48596 3738.804 -199.1907 4294967295
569.47321 3740.8394 -199.3569 4294967295
571.37848 3743.0374 -199.53314 4294967295
573.40381 3744.7969 -199.71625 4294967295
239.26942 3748.77 -199.28882 4294967295
571.17944 3748.9409 -199.74196 4294967295
249.57822 3751.0889 -199.00714 4294967295
573.40918 3750.8835 -199.93797 4294967295
249.28314 3756.6313 -199.26881 4294967295
253.74953 3756.9016 -199.05936 4294967295
229.42261 3760.3293 -199.9483 4294967295
261.51117 3760.5667 -199.00462 4294967295
231.76367 3762.4155 -199.93204 4294967295
256.80945 3767.1011 -199.57477 4294967295
259.84216 3765.1262 -199.23566 4294967295
255.53867 3770.4775 -199.72404 4294967295
256.89014 3768.4009 -199.61301 4294967295
269.63004 3770.9392 -199.01653 4294967295
258.09717 3773.6294 -199.56625 4294967295
269.68088 3772.9084 -199.11395 4294967295
273.11905 3772.6663 -199.07988 4294967295
259.27121 3775.0408 -199.52136 4294967295
263.09439 3776.9238 -199.65695 4294967295
277.58881 3774.6897 -199.20596 4294967295
265.06015 3777.8679 -199.68456 4294967295
267.81543 3777.8826 -199.66858 4294967295
281.53967 3777.033 -199.20006 4294967295
281.75089 3780.7888 -199.315 4294967295
285.20038 3780.8386 -199.17438 4294967295
285.17618 3784.8315 -199.27831 4294967295
285.22287 3788.9783 -199.49724 4294967295
287.9072 3787.0156 -199.30426 4294967295
285.80902 3792.9719 -199.73772 4294967295
493.51996 3792.6995 -199.13745 4294967295
499.54251 3792.8052 -199.21663 4294967295
503.30176 3794.9155 -199.38751 4294967295
513.27234 3794.8704 -199.55978 4294967295
519.1582 3794.8328 -199.63795 4294967295
533.47699 3792.6995 -199.94833 4294967295
286.16898 3796.6941 -199.93161 4294967295
483.19962 3795.0642 -199.00746 4294967295
497.67007 3796.5498 -199.36128 4294967295
507.59778 3796.8586 -199.56194 4294967295
525.32056 3796.8374 -199.93761 4294967295
321.27032 3800.8918 -199.1749 4294967295
325.38916 3800.9868 -199.0591 4294967295
463.65421 3800.7583 -199.09267 4294967295
467.30667 3798.7717 -199.06316 4294967295
470.71768 3800.866 -199.19832 4294967295
473.99969 3800.8464 -199.23271 4294967295
477.34985 3798.8391 -199.17834 4294967295
483.62988 3798.9897 -199.19427 4294967295
487.42871 3800.8293 -199.39743 4294967295
489.31454 3800.8811 -199.47984 4294967295
491.83667 3798.5239 -199.42918 4294967295
495.93552 3800.9893 -199.58807 4294967295
501.8006 3800.5208 -199.59357 4294967295
505.44159 3798.8904 -199.6109 4294967295
511.28165 3798.802 -199.73392 4294967295
521.46417 3798.8013 -199.88741 4294967295
523.42426 3798.9778 -199.97966 4294967295
291.62424 3802.7295 -199.98308 4294967295
319.34378 3803.0974 -199.36409 4294967295
457.98465 3802.6411 -199.0278 4294967295
461.55408 3802.8848 -199.12999 4294967295
463.5112 3803.0012 -199.20628 4294967295
473.22708 3802.8682 -199.38057 4294967295
479.66092 3802.7036 -199.43008 4294967295
485.56393 3803.0125 -199.51651 4294967295
493.39523 3802.6558 -199.71906 4294967295
500.60254 3802.1389 -199.69267 4294967295
310.08047 3806.7966 -199.73761 4294967295
317.04697 3805.8462 -199.56668 4294967295
339.47836 3806.8381 -199.12416 4294967295
436.66644 3806.8347 -199.01759 4294967295
441.42435 3806.9343 -199.10173 4294967295
449.09656 3804.8098 -199.10269 4294967295
481.35367 3804.9358 -199.71227 4294967295
303.37473 3808.7346 -199.97992 4294967295
304.91336 3807.6245 -199.87276 4294967295
313.74295 3808.7324 -199.77275 4294967295
343.57895 3808.5708 -199.13463 4294967295
349.60794 3808.8394 -199.0464 4294967295
447.51709 3809.0713 -199.54214 4294967295
355.24802 3810.7979 -199.10236 4294967295
375.87616 3811.1016 -199.11092 4294967295
383.17596 3810.9963 -199.03699 4294967295
397.41879 3810.8401 -199.08185 4294967295
493.5643 3850.9185 -199.71288 4294967295
497.35989 3850.7827 -199.7534 4294967295
509.55389 3850.7634 -199.94218 4294967295
513.81268 3850.7437 -199.99333 4294967295
264.771 3853.9658 -199.45906 4294967295
289.61804 3852.2617 -199.1909 4294967295
290.36362 3852.188 -199.11284 4294967295
425.56747 3854.8394 -199.12003 4294967295
439.39532 3854.8826 -199.18961 4294967295
443.77701 3854.8274 -199.21745 4294967295
463.28992 3854.8853 -199.33424 4294967295
473.28653 3854.9949 -199.45174 4294967295
478.03946 3854.2556 -199.46683 4294967295
487.27271 3853.8462 -199.53876 4294967295
489.22668 3852.9543 -199.5952 4294967295
495.23328 3853.0339 -199.74095 4294967295
499.18982 3852.7825 -199.78088 4294967295
501.75354 3853.8914 -199.85075 4294967295
505.23639 3854.8579 -199.93556 4294967295
511.39825 3852.9487 -199.98598 4294967295
367.39081 3856.8179 -199.47884 4294967295
410.30832 3857.1069 -199.10439 4294967295
413.61575 3856.8584 -199.12074 4294967295
427.51041 3856.9338 -199.14351 4294967295
431.49258 3856.9331 -199.18832 4294967295
433.15057 3855.062 -199.17418 4294967295
441.37808 3856.8594 -199.23521 4294967295
446.95126 3856.9836 -199.27032 4294967295
451.2944 3856.9578 -199.299 4294967295
457.05441 3856.9148 -199.35188 4294967295
461.28549 3856.9341 -199.36446 4294967295
465.35971 3856.8628 -199.39188 4294967295
485.66223 3856.9192 -199.57272 4294967295
491.50336 3855.0347 -199.70953 4294967295
347.65424 3860.8997 -199.77594 4294967295
349.67062 3858.5623 -199.85594 4294967295
359.76263 3859.8015 -199.64047 4294967295
373.26523 3860.897 -199.42427 4294967295
375.56226 3858.7378 -199.35873 4294967295
377.71811 3860.6331 -199.36125 4294967295
379.2468 3858.8843 -199.30629 4294967295
387.00616 3858.7937 -199.23376 4294967295
389.29465 3858.9409 -199.22574 4294967295
391.2998 3860.96 -199.28349 4294967295
393.43314 3858.8875 -199.23343 4294967295
395.30865 3860.8787 -199.30553 4294967295
403.45523 3860.843 -199.31039 4294967295
405.42639 3858.6948 -199.23193 4294967295
407.61783 3860.8274 -199.28819 4294967295
409.31668 3858.9958 -199.2047 4294967295
411.96851 3858.613 -199.1696 4294967295
415.21704 3858.7839 -199.19299 4294967295
418.00931 3858.7388 -199.21207 4294967295
422.78842 3859.0662 -199.21265 4294967295
435.49979 3858.5903 -199.2724 4294967295
445.32837 3858.9365 -199.31024 4294967295
449.6452 3860.8706 -199.37682 4294967295
453.29446 3858.9399 -199.37831 4294967295
469.87088 3858.6973 -199.49069 4294967295
475.77036 3858.7805 -199.55284 4294967295
481.302 3858.5605 -199.58493 4294967295
339.64191 3862.5542 -199.86783 4294967295
357.44727 3862.905 -199.76012 4294967295
361.12485 3861.0046 -199.6263 4294967295
381.15433 3862.9563 -199.41908 4294967295
385.80054 3862.6687 -199.35794 4294967295
399.51266 3862.8088 -199.37262 4294967295
429.02124 3861.1304 -199.27528 4294967295
337.76978 3865.0679 -199.9893 4294967295
341.39584 3864.7722 -199.94141 4294967295
345.60382 3866.959 -199.98303 4294967295
351.63904 3864.9001 -199.81364 4294967295
355.62106 3864.8069 -199.8231 4294967295
363.44739 3864.9075 -199.73743 4294967295
366.93628 3865.0769 -199.66583 4294967295
371.24695 3865.0745 -199.59784 4294967295
295.51746 4030.7051 -199.7095 4294967295
297.1326 4030.5781 -199.47632 4294967295
319.10803 4029.0945 -199.806 4294967295
589.71643 4029.7183 -199.5679 4294967295
265.42377 4032.686 -199.14758 4294967295
412.08035 4042.374 -199.80426 4294967295
333.75766 4047.8938 -199.82736 4294967295
267.33572 4052.7944 -199.78764 4294967295
273.30511 4052.4373 -199.52597 4294967295
195.01138 4055.198 -199.61076 4294967295
661.42065 4196.3804 -199.29561 4294967295
691.31592 4194.2871 -199.29936 4294967295
698.12036 4194.0015 -199.72713 4294967295
397.64731 4215.8193 -199.43413 4294967295
398.98242 4215.5996 -199.52386 4294967295
691.46283 4228.0762 -199.11615 4294967295
189.49777 4263.8701 -199.16234 4294967295
351.65005 -846.77954 -198.58792 4294967295
282.99838 -827.10388 -198.79417 4294967295
-177.14352 -792.9245 -198.72473 4294967295
348.09183 -672.92096 -198.65549 4294967295
-166.93671 -653.40833 -198.92342 4294967295
368.36548 -529.17786 -198.76836 4294967295
301.41611 -466.30713 -198.6396 4294967295
309.2139 -373.47519 -198.63676 4294967295
322.86667 -271.04785 -198.60374 4294967295
333.78674 -117.08791 -198.38768 4294967295
334.80811 -103.2964 -198.88925 4294967295
336.09109 -85.346596 -198.98782 4294967295
336.61307 -79.034599 -198.55246 4294967295
391.58746 12.952374 -198.57478 4294967295
402.44016 153.99072 -198.67368 4294967295
413.68805 153.35291 -198.87369 4294967295
424.10287 350.67343 -198.34792 4294967295
416.31952 366.76538 -198.91476 4294967295
426.05234 510.82489 -198.96017 4294967295
430.04114 570.89587 -198.842 4294967295
440.01492 710.79791 -198.55864 4294967295
461.57394 834.97357 -198.81122 4294967295
461.91965 840.73059 -198.95741 4294967295
464.39188 883.87231 -198.88513 4294967295
464.64764 888.862 -198.65504 4294967295
465.01654 894.92157 -198.6403 4294967295
473.28421 948.44525 -198.73674 4294967295
480.00443 1306.7748 -198.69644 4294967295
487.01187 1374.8219 -198.88483 4294967295
494.82135 1512.8562 -198.58578 4294967295
498.14688 1560.9044 -198.62347 4294967295
503.94156 1640.7794 -198.81108 4294967295
507.69385 1698.9894 -198.94501 4294967295
520.88708 1888.89 -198.94707 4294967295
526.46051 1992.7799 -198.56923 4294967295
526.97137 2000.8126 -198.86685 4294967295
529.96997 2044.9172 -198.89713 4294967295
553.09229 2149.4434 -198.86588 4294967295
545.02045 2253.021 -198.7471 4294967295
546.22485 2281.0239 -198.81548 4294967295
547.16602 2300.8594 -198.72157 4294967295
551.71423 2383.0281 -198.58685 4294967295
552.00879 2386.8186 -198.83926 4294967295
552.15564 2389.7998 -198.75629 4294967295
553.0177 2404.8313 -198.98784 4294967295
555.94922 2462.9709 -198.91634 4294967295
556.20569 2466.9287 -198.98332 4294967295
556.89868 2484.8828 -198.62352 4294967295
557.22522 2488.8967 -198.91054 4294967295
563.77997 2594.7922 -198.78601 4294967295
563.85919 2597.0737 -198.8786 4294967295
566.89679 2656.7205 -198.65497 4294967295
567.36108 2666.8511 -198.74286 4294967295
582.48889 3010.8279 -198.59975 4294967295
583.08472 3024.9434 -198.85219 4294967295
587.71948 3180.9561 -198.62909 4294967295
168.61348 3661.0237 -198.40259 4294967295
192.86668 3687.5352 -198.96509 4294967295
195.19652 3689.0718 -198.62056 4294967295
197.66924 3690.6145 -198.29858 4294967295
198.00319 3694.1755 -198.4633 4294967295
197.97011 3697.0964 -198.68062 4294967295
563.49884 3716.7583 -198.03709 4294967295
565.50757 3714.8679 -198.06436 4294967295
221.56586 3718.7371 -198.01863 4294967295
225.31644 3722.8489 -198.06152 4294967295
563.34009 3720.7732 -198.14478 4294967295
236.15323 3725.6399 -198.06641 4294967295
565.22845 3724.9519 -198.4514 4294967295
229.10065 3727.3225 -198.22107 4294967295
235.4955 3728.6301 -198.27937 4294967295
563.44373 3730.8347 -198.67787 4294967295
235.3774 3732.6875 -198.55383 4294967295
249.1992 3733.0225 -198.08824 4294967295
565.41431 3734.8574 -198.95352 4294967295
248.73769 3737.1028 -198.38577 4294967295
245.44774 3742.9814 -198.73682 4294967295
247.98076 3741.0103 -198.61211 4294967295
258.49951 3756.541 -198.936 4294967295
261.57681 3756.9973 -198.91623 4294967295
263.56186 3762.9011 -198.97093 4294967295
267.5748 3764.4907 -198.85017 4294967295
307.33426 3764.9299 -198.20752 4294967295
309.36841 3764.7148 -198.17368 4294967295
267.61862 3766.491 -198.84178 4294967295
269.58145 3767.0132 -198.83072 4294967295
273.42612 3769.7275 -198.94247 4294967295
307.26324 3770.9187 -198.36021 4294967295
309.54822 3768.3872 -198.31735 4294967295
313.20148 3769.9473 -198.25348 4294967295
311.54547 3772.9338 -198.38246 4294967295
305.866 3774.7454 -198.43948 4294967295
309.56369 3774.7239 -198.41821 4294967295
331.71906 3782.8271 -198.38033 4294967295
333.43796 3782.0024 -198.31743 4294967295
341.69019 3782.6086 -198.05582 4294967295
339.6019 3784.9927 -198.24916 4294967295
331.55408 3786.9763 -198.60391 4294967295
335.04306 3786.5125 -198.51703 4294967295
332.86829 3790.8789 -198.69858 4294967295
329.60587 3794.7813 -198.84923 4294967295
335.48898 3792.967 -198.66013 4294967295
327.49557 3796.9343 -198.8959 4294967295
335.40714 3796.9829 -198.79147 4294967295
365.9816 3800.7671 -198.49324 4294967295
409.49197 3800.6797 -198.54579 4294967295
445.38983 3800.9006 -198.78801 4294967295
451.07391 3800.8352 -198.87283 4294967295
455.14783 3798.8406 -198.80945 4294967295
459.65036 3800.9434 -198.98116 4294967295
337.10953 3802.667 -198.94707 4294967295
371.2243 3801.0706 -198.57599 4294967295
375.54462 3802.8123 -198.65675 4294967295
387.20923 3803.0122 -198.63586 4294967295
393.62271 3802.6895 -198.57507 4294967295
401.32095 3802.7598 -198.5889 4294967295
413.63901 3803.0247 -198.68539 4294967295
423.31714 3802.9714 -198.7254 4294967295
433.58768 3802.8601 -198.72075 4294967295
439.50482 3802.8167 -198.76572 4294967295
453.71146 3802.844 -198.98552 4294967295
347.61603 3805.0134 -198.93858 4294967295
353.11798 3806.8989 -198.9241 4294967295
359.31467 3806.7915 -198.81258 4294967295
363.23663 3804.9556 -198.65749 4294967295
381.41159 3806.8591 -198.77396 4294967295
395.30157 3806.6697 -198.73511 4294967295
401.06766 3806.8625 -198.78848 4294967295
403.14792 3806.8457 -198.81868 4294967295
407.23404 3804.865 -198.74329 4294967295
417.65326 3804.9617 -198.85062 4294967295
419.27576 3804.7864 -198.85292 4294967295
421.58182 3806.7595 -198.97208 4294967295
425.31592 3806.8665 -198.93243 4294967295
427.60553 3804.5266 -198.76207 4294967295
429.79529 3805.741 -198.83081 4294967295
433.44324 3805.8557 -198.8826 4294967295
443.02884 3804.9158 -198.95276 4294967295
376.91306 3807.1758 -198.81754 4294967295
385.67624 3808.6501 -198.89362 4294967295
395.93027 3808.5759 -198.84077 4294967295
397.92688 3807.4814 -198.78377 4294967295
399.68875 3808.6782 -198.88921 4294967295
404.6713 3808.7773 -198.96808 4294967295
