# .PCD v0.7 - Point Cloud Data file format
VERSION 0.7
FIELDS x y z rgba
SIZE 4 4 4 4
TYPE F F F U
COUNT 1 1 1 1
WIDTH 1121
HEIGHT 1
VIEWPOINT 0 0 0 1 0 0 0
POINTS 1121
DATA ascii
364.388 -826.65137 -190.04323 4294967106
364.04462 -822.32178 -190.77138 4294967106
363.33118 -820.01929 -190.278 4294967106
355.94601 -817.44843 -190.64439 4294967106
355.63599 -846.47955 -189.17105 4294967107
358.70291 -846.07361 -189.48596 4294967107
360.64758 -845.01611 -189.04865 4294967107
362.63129 -841.81329 -189.9882 4294967107
363.37424 -839.75012 -189.05411 4294967107
364.22714 -831.91095 -189.73593 4294967107
364.32565 -823.89264 -189.3676 4294967107
358.38809 -817.45911 -189.84955 4294967107
360.46216 -817.83844 -189.81207 4294967107
362.21094 -818.60522 -189.66707 4294967107
361.99203 -843.68854 -188.18646 4294967108
364.14026 -834.69647 -188.54573 4294967108
364.44357 -828.85834 -188.35594 4294967108
363.53967 -820.57349 -188.71121 4294967108
361.6272 -818.17145 -188.12494 4294967108
357.6062 -846.36414 -187.40674 4294967109
359.59818 -845.85419 -187.19324 4294967109
361.05988 -845.00299 -187.26384 4294967109
362.96283 -841.93884 -187.53377 4294967109
363.9397 -837.56311 -187.43536 4294967109
364.49252 -825.61389 -187.63037 4294967109
364.31573 -823.02466 -187.57295 4294967109
355.02505 -817.31958 -187.05202 4294967109
358.40091 -817.40466 -187.48579 4294967109
360.33841 -817.63892 -187.91229 4294967109
355.52499 -846.43195 -186.32153 4294967110
361.7403 -844.48492 -186.72809 4294967110
362.40295 -843.63477 -186.2305 4294967110
363.633 -840.18475 -186.2896 4294967110
363.85513 -820.94873 -186.48299 4294967110
360.75476 -817.74786 -186.502 4294967110
362.49832 -818.75916 -186.45349 4294967110
361.18872 -845.21033 -185.093 4294967111
363.19025 -842.28033 -185.26376 4294967111
364.34021 -835.08667 -185.69846 4294967111
364.47363 -823.78351 -185.7148 4294967111
355.62152 -846.4151 -184.54323 4294967112
358.31491 -846.30103 -184.92166 4294967112
362.65448 -843.81744 -184.34 4294967112
364.09491 -838.16302 -184.65756 4294967112
364.62912 -827.8457 -184.94917 4294967112
363.19968 -819.33722 -184.33882 4294967112
364.22861 -821.55933 -184.28011 4294967112
350.89703 -817.52881 -184.90681 4294967112
356.63611 -817.2085 -184.68529 4294967112
359.68253 -817.45612 -184.47395 4294967112
361.66995 -818.08136 -184.98409 4294967112
343.46936 -814.22229 -184.42188 4294967112
362.27039 -844.70319 -183.24651 4294967113
363.45355 -841.79504 -183.56229 4294967113
364.57956 -832.31714 -183.8708 4294967113
364.62943 -824.12653 -183.44992 4294967113
363.94333 -820.23688 -183.2173 4294967113
354.22672 -817.18719 -183.99953 4294967113
355.08633 -817.11218 -183.22946 4294967113
361.85812 -818.07214 -183.27357 4294967113
357.0289 -846.44788 -182.91891 4294967114
358.88934 -846.41547 -182.89192 4294967114
360.24777 -846.05017 -182.91028 4294967114
361.58249 -845.39929 -182.75673 4294967114
362.87784 -843.74304 -182.65742 4294967114
364.42142 -835.8219 -182.89961 4294967114
364.39526 -821.45972 -182.21175 4294967114
351.84073 -817.30591 -182.21397 4294967114
357.88596 -817.09448 -182.31639 4294967114
360.59006 -817.46991 -182.2469 4294967114
343.79086 -812.75946 -182.43536 4294967114
361.25256 -845.51721 -181.03989 4294967115
362.37885 -844.53369 -181.67059 4294967115
363.30252 -842.24292 -181.03197 4294967115
364.04224 -838.94946 -181.96938 4294967115
364.55109 -833.42303 -181.06294 4294967115
364.7439 -826.56219 -181.89383 4294967115
364.72824 -823.75342 -181.24461 4294967115
363.44891 -819.14368 -181.79166 4294967115
345.4812 -816.34967 -181.60173 4294967115
346.13739 -816.61133 -181.34758 4294967115
355.41003 -816.92297 -181.11845 4294967115
362.1611 -817.96375 -181.78064 4294967115
343.64685 -813.92059 -181.48395 4294967115
344.13 -811.90039 -181.87727 4294967115
356.27701 -846.5542 -180.90997 4294967116
359.34821 -846.27191 -180.81618 4294967116
364.30386 -836.58282 -180.23851 4294967116
364.20435 -820.35339 -180.87221 4294967116
348.26212 -817.39539 -180.81126 4294967116
359.99603 -817.22125 -180.7652 4294967116
361.72095 -817.65057 -180.70322 4294967116
362.78305 -818.17029 -180.81384 4294967116
363.37988 -818.60992 -180.15717 4294967116
343.65134 -813.22015 -180.86821 4294967116
355.99237 -846.40948 -179.10396 4294967117
359.3497 -846.64246 -179.0092 4294967117
362.28427 -844.30756 -179.73157 4294967117
363.89078 -839.38031 -179.38066 4294967117
364.55386 -831.33606 -179.1613 4294967117
364.68695 -828.28503 -179.71616 4294967117
364.7804 -825.54407 -179.85339 4294967117
364.78091 -823.5401 -179.61974 4294967117
363.98782 -819.66071 -179.58517 4294967117
364.57053 -821.65717 -179.96356 4294967117
347.5127 -817.14215 -179.18523 4294967117
350.31174 -817.33167 -179.84254 4294967117
357.974 -816.62799 -179.57863 4294967117
362.7283 -818.06702 -179.6517 4294967117
363.45126 -818.64581 -179.07747 4294967117
344.16608 -811.07642 -179.02431 4294967117
359.89484 -846.21405 -178.34985 4294967118
360.98837 -845.42963 -178.46394 4294967118
362.91904 -842.9975 -178.74496 4294967118
363.41364 -841.38721 -178.26871 4294967118
364.35483 -834.36713 -178.43666 4294967118
364.66977 -826.81982 -178.03452 4294967118
364.73495 -823.65515 -178.40802 4294967118
345.8175 -816.33557 -178.39034 4294967118
353.53485 -816.98694 -178.67041 4294967118
355.63281 -816.85217 -178.70334 4294967118
361.49393 -817.57019 -178.94235 4294967118
362.92209 -818.28644 -178.31776 4294967118
343.86984 -814.84448 -178.76047 4294967118
362.23276 -843.93719 -177.4043 4294967119
362.94733 -842.54663 -177.14467 4294967119
363.7225 -839.42151 -177.05347 4294967119
364.09158 -837.13727 -177.76614 4294967119
364.50107 -829.46594 -177.41356 4294967119
363.68048 -819.24414 -177.82683 4294967119
364.40939 -821.09015 -177.79713 4294967119
348.10434 -817.15234 -177.10188 4294967119
354.53726 -816.88898 -177.44113 4294967119
361.65387 -817.19098 -177.59906 4294967119
343.66949 -813.95441 -177.10553 4294967119
344.07828 -810.87836 -177.23618 4294967119
356.37589 -846.38318 -176.82622 4294967120
359.37143 -846.49939 -176.68939 4294967120
360.1026 -845.89539 -176.71204 4294967120
363.28391 -841.19531 -176.18225 4294967120
364.27924 -832.36224 -176.53943 4294967120
364.65964 -825.48358 -176.95027 4294967120
364.66873 -823.40698 -176.88216 4294967120
363.98605 -820.14581 -176.12219 4294967120
358.64792 -816.41425 -176.31999 4294967120
360.85907 -816.80627 -176.99702 4294967120
362.66641 -818.36591 -176.22537 4294967120
344.74426 -815.53894 -176.56062 4294967120
361.06445 -844.89288 -175.13618 4294967121
362.59183 -842.81915 -175.10147 4294967121
363.67969 -838.54132 -175.34607 4294967121
364.06375 -835.14771 -175.95767 4294967121
364.22681 -830.29132 -175.05888 4294967121
364.53552 -826.24176 -175.85257 4294967121
364.53497 -823.45911 -175.02609 4294967121
364.47467 -821.79376 -175.95752 4294967121
358.12985 -816.42859 -175.33191 4294967121
360.53711 -816.85565 -175.48203 4294967121
344.42703 -815.0708 -175.24352 4294967121
356.41733 -846.37201 -174.96419 4294967122
358.86084 -846.02374 -174.88118 4294967122
363.16776 -841.06726 -174.43898 4294967122
363.81125 -835.96417 -174.25468 4294967122
364.24075 -828.30481 -174.02951 4294967122
364.41678 -825.82611 -174.17943 4294967122
363.68768 -819.70831 -174.96907 4294967122
364.2157 -821.40436 -174.04164 4294967122
355.67078 -816.65826 -174.69792 4294967122
343.66171 -813.76355 -174.96634 4294967122
343.72253 -812.66473 -174.92654 4294967122
344.34381 -810.18304 -174.36832 4294967122
362.08734 -843.68878 -173.209 4294967123
363.46463 -838.8653 -173.55086 4294967123
363.84848 -833.37183 -173.25743 4294967123
363.98914 -830.44415 -173.00754 4294967123
364.24548 -827.11407 -173.15623 4294967123
364.4053 -823.85748 -173.41473 4294967123
363.33887 -819.29401 -173.50372 4294967123
355.3381 -816.55536 -173.16684 4294967123
358.68054 -816.2749 -173.05238 4294967123
361.7811 -817.65314 -173.40407 4294967123
356.29324 -846.34998 -172.90727 4294967124
359.64856 -845.75366 -172.88081 4294967124
361.27029 -844.78723 -172.62547 4294967124
362.89642 -841.68201 -172.44867 4294967124
363.50986 -837.06378 -172.05513 4294967124
363.65955 -835.87341 -172.90878 4294967124
364.06931 -828.44476 -172.40038 4294967124
364.29749 -823.01123 -172.11465 4294967124
344.07874 -810.98462 -172.74564 4294967124
360.82138 -845.34027 -171.22485 4294967125
363.3335 -839.17181 -171.77162 4294967125
363.5379 -835.5332 -171.37903 4294967125
363.79984 -831.65588 -171.9913 4294967125
363.974 -828.27808 -171.09229 4294967125
364.21109 -825.94458 -171.65234 4294967125
363.93469 -820.67487 -171.21999 4294967125
362.48926 -817.69629 -171.10033 4294967125
356.21799 -846.27808 -170.64815 4294967126
359.20654 -846.69287 -170.69792 4294967126
362.06427 -843.88373 -170.95985 4294967126
363.13132 -840.74249 -170.88031 4294967126
363.39407 -837.5094 -170.43781 4294967126
363.53879 -834.11414 -170.59785 4294967126
363.63425 -832.38617 -170.61655 4294967126
363.81067 -830.20813 -170.96364 4294967126
364.27499 -823.21533 -170.10898 4294967126
346.11627 -816.20441 -170.77197 4294967126
360.86249 -816.62506 -170.25171 4294967126
344.44196 -815.11017 -170.47354 4294967126
343.70587 -812.8797 -170.81535 4294967126
361.2644 -845.24457 -169.27437 4294967127
362.84033 -842.11346 -169.96519 4294967127
363.22989 -840.00714 -169.35104 4294967127
363.39426 -835.85724 -169.03549 4294967127
363.90219 -828.16705 -169.16678 4294967127
343.86078 -813.78717 -169.3382 4294967127
356.60614 -846.23016 -168.74104 4294967128
360.96585 -846.00952 -168.10764 4294967128
362.34909 -843.82697 -168.4547 4294967128
362.93954 -842.20343 -168.07047 4294967128
363.32196 -838.63611 -168.41283 4294967128
363.51605 -832.33228 -168.40335 4294967128
364.1933 -825.36646 -168.83464 4294967128
364.2692 -820.73712 -168.4798 4294967128
348.03342 -816.90948 -168.8887 4294967128
350.69962 -816.89471 -168.83946 4294967128
355.59021 -816.39575 -168.92665 4294967128
358.36819 -816.0954 -168.84932 4294967128
362.10349 -817.00781 -168.952 4294967128
363.35049 -818.75873 -168.96638 4294967128
344.88806 -815.2251 -168.76724 4294967128
343.72223 -810.99158 -168.81042 4294967128
355.63153 -845.93475 -167.17761 4294967129
364.42383 -822.79443 -167.95543 4294967129
357.72382 -816.16498 -167.37022 4294967129
360.27625 -816.27795 -167.17587 4294967129
364.40494 -818.98615 -167.2336 4294967129
343.7009 -812.75085 -167.62663 4294967129
359.71646 -846.22668 -166.85115 4294967130
360.65845 -846.07465 -166.89456 4294967130
361.77066 -845.44043 -166.5089 4294967130
362.82544 -843.78412 -166.33185 4294967130
363.15585 -841.20837 -166.60327 4294967130
363.33743 -837.95337 -166.92456 4294967130
363.33112 -835.04285 -166.30292 4294967130
363.39786 -832.81781 -166.55365 4294967130
363.7359 -828.89886 -166.15887 4294967130
364.082 -826.39111 -166.80064 4294967130
364.44992 -824.20209 -166.89354 4294967130
346.30557 -816.1734 -166.72916 4294967130
350.9805 -816.7832 -166.58209 4294967130
353.46375 -816.57343 -166.89764 4294967130
361.98605 -816.88586 -166.7408 4294967130
344.96411 -815.08533 -166.74435 4294967130
359.54605 -846.09595 -165.06821 4294967131
355.70313 -845.80945 -165.11958 4294967131
362.62088 -844.19543 -165.24802 4294967131
363.29749 -837.28656 -165.06294 4294967131
364.84201 -819.66486 -165.13213 4294967131
348.0567 -816.5838 -165.71655 4294967131
361.50885 -816.65771 -165.06247 4294967131
343.94891 -813.40051 -165.08917 4294967131
345.30084 -815.18909 -165.23476 4294967131
361.89029 -845.26422 -164.50835 4294967132
363.31381 -841.31433 -164.47015 4294967132
363.37521 -832.19141 -164.64659 4294967132
363.95724 -826.71625 -164.7618 4294967132
364.43402 -824.24695 -164.92676 4294967132
353.3833 -816.47876 -164.69199 4294967132
364.34274 -818.82196 -164.64406 4294967132
357.89578 -815.88965 -164.55852 4294967132
343.67044 -812.20325 -164.06609 4294967132
359.23013 -845.99493 -163.27501 4294967133
362.99469 -843.15393 -163.0576 4294967133
363.2822 -835.14709 -163.23022 4294967133
363.80923 -827.07355 -163.29149 4294967133
364.89975 -819.91248 -163.41295 4294967133
350.57529 -816.67584 -163.00459 4294967133
351.96085 -816.55505 -163.96101 4294967133
355.68872 -816.10779 -163.10548 4294967133
363.54858 -817.88306 -163.20685 4294967133
359.85544 -815.96643 -163.52315 4294967133
356.74442 -845.83936 -162.71904 4294967134
361.86224 -845.08594 -162.84137 4294967134
363.50552 -839.96924 -162.18576 4294967134
363.36957 -832.22516 -162.80885 4294967134
363.58789 -829.28516 -162.89406 4294967134
364.38171 -824.48279 -162.58809 4294967134
353.69473 -816.35211 -162.63684 4294967134
362.18976 -816.78503 -162.31413 4294967134
344.42157 -813.92194 -162.76485 4294967134
346.61749 -815.91119 -162.11574 4294967134
355.91174 -845.60596 -161.01213 4294967135
361.80298 -845.09216 -161.09923 4294967135
363.81845 -827.38306 -161.42627 4294967135
352.47885 -816.4231 -161.5977 4294967135
364.45343 -818.75769 -161.29494 4294967135
344.05576 -813.1488 -161.1525 4294967135
357.94739 -815.71777 -161.13147 4294967135
343.55737 -812.11896 -161.03453 4294967135
359.34512 -845.78644 -160.41544 4294967136
362.78241 -843.98682 -160.59927 4294967136
363.14771 -842.40118 -160.8885 4294967136
363.32806 -837.27838 -160.93018 4294967136
363.33484 -832.87543 -160.65413 4294967136
363.595 -829.25934 -160.52786 4294967136
364.36838 -824.586 -160.13298 4294967136
348.06653 -816.39349 -160.87459 4294967136
350.64832 -816.60962 -160.98029 4294967136
360.16794 -816.0249 -160.64117 4294967136
363.36609 -817.56775 -160.37558 4294967136
346.41415 -815.56427 -160.54906 4294967136
355.53815 -815.99969 -160.71715 4294967136
356.24695 -845.60071 -159.82269 4294967137
359.43143 -845.75433 -159.1528 4294967137
360.53168 -845.61566 -159.017 4294967137
361.99902 -844.89294 -159.08229 4294967137
363.00162 -843.02972 -159.45485 4294967137
363.42651 -831.28821 -159.15884 4294967137
364.66464 -823.2547 -159.75337 4294967137
353.25635 -816.19733 -159.23204 4294967137
361.47083 -816.39789 -159.37296 4294967137
364.13776 -818.46552 -159.32532 4294967137
343.87302 -812.98425 -159.56836 4294967137
362.86996 -843.76483 -158.84251 4294967138
363.52094 -840.08099 -158.59715 4294967138
363.34085 -837.26001 -158.18016 4294967138
363.31067 -835.13983 -158.94502 4294967138
363.62933 -829.05505 -158.99498 4294967138
363.99548 -826.96069 -158.27171 4294967138
364.90787 -819.74597 -158.32191 4294967138
351.45313 -816.34912 -158.62129 4294967138
344.63965 -814.31036 -158.90376 4294967138
346.36331 -815.48328 -158.62895 4294967138
355.67825 -815.9162 -158.80838 4294967138
343.52841 -811.91125 -158.58557 4294967138
361.71692 -845.06842 -157.04546 4294967139
363.06506 -842.89111 -157.20416 4294967139
364.4632 -824.35944 -157.17227 4294967139
361.55911 -816.40552 -157.71429 4294967139
357.66452 -815.57861 -157.11516 4294967139
356.44446 -845.55353 -156.70218 4294967140
359.38049 -845.68469 -156.73199 4294967140
363.4754 -840.34027 -156.49828 4294967140
363.32056 -835.18268 -156.9536 4294967140
363.40146 -831.64923 -156.04803 4294967140
364.5141 -819.04681 -156.52071 4294967140
348.46939 -816.19519 -156.35768 4294967140
350.42853 -816.39758 -156.8571 4294967140
353.18069 -816.13745 -156.5697 4294967140
343.54974 -812.27795 -156.59143 4294967140
356.46432 -845.48254 -155.3038 4294967141
363.35358 -837.23065 -155.26988 4294967141
364.93616 -819.88013 -155.39806 4294967141
359.10999 -845.59576 -154.98083 4294967142
360.76291 -845.61731 -154.78578 4294967142
363.09027 -843.31909 -154.97014 4294967142
363.37421 -841.08667 -154.87068 4294967142
363.31802 -835.20795 -154.76096 4294967142
363.60071 -829.34534 -154.87277 4294967142
363.88443 -827.31573 -154.84026 4294967142
348.20239 -816.07776 -154.55043 4294967142
350.448 -816.33966 -154.69273 4294967142
361.93097 -816.2204 -154.05835 4294967142
363.42932 -817.36676 -154.91371 4294967142
344.50128 -813.91016 -154.97168 4294967142
346.29877 -815.28412 -154.64462 4294967142
353.46124 -815.98108 -154.40894 4294967142
355.73663 -815.74188 -154.52272 4294967142
360.21146 -815.57904 -154.52136 4294967142
343.64737 -812.14667 -154.5294 4294967142
362.46585 -844.57294 -153.11913 4294967143
363.34296 -833.26398 -153.3586 4294967143
363.46078 -830.9715 -153.11676 4294967143
364.46524 -824.41547 -153.07079 4294967143
345.15369 -814.54547 -153.38484 4294967143
346.88794 -815.40356 -153.34879 4294967143
355.40506 -815.68915 -153.18781 4294967143
344.05255 -810.9339 -153.12834 4294967143
356.5047 -845.29077 -152.69434 4294967144
359.37845 -845.47681 -152.96718 4294967144
363.01254 -843.17993 -152.52162 4294967144
363.43994 -840.92743 -152.53529 4294967144
363.38916 -837.43134 -152.76749 4294967144
363.66348 -828.82855 -152.85666 4294967144
363.92026 -826.95874 -152.757 4294967144
350.66592 -816.16394 -152.6469 4294967144
364.46683 -818.70581 -152.65657 4294967144
344.17841 -813.21826 -152.61859 4294967144
353.72736 -815.85272 -152.64891 4294967144
360.71542 -815.53955 -152.52156 4294967144
344.98566 -808.12793 -152.28415 4294967144
362.11765 -844.84534 -151.12282 4294967145
363.36255 -834.97546 -151.1032 4294967145
364.42606 -824.38397 -151.16954 4294967145
344.79611 -813.97125 -151.04515 4294967145
360.5387 -815.36304 -151.12775 4294967145
359.90631 -845.25848 -150.58736 4294967146
362.59702 -844.34857 -150.84879 4294967146
363.30084 -841.60284 -150.55391 4294967146
363.47815 -831.10883 -150.57567 4294967146
363.63416 -829.2005 -150.7449 4294967146
364.83081 -820.8186 -150.62283 4294967146
350.91251 -816.04028 -150.91318 4294967146
362.20471 -816.10052 -150.96501 4294967146
363.67294 -817.11249 -150.89497 4294967146
346.18073 -814.97302 -150.59125 4294967146
348.40942 -815.89563 -150.5228 4294967146
353.25916 -815.81573 -150.82368 4294967146
358.43671 -815.18329 -150.93669 4294967146
343.92926 -811.73828 -150.87085 4294967146
362.59671 -844.29523 -149.11444 4294967147
363.33658 -841.53448 -149.09448 4294967147
363.39267 -833.33228 -149.12335 4294967147
363.85544 -827.25494 -149.03185 4294967147
364.28424 -824.79633 -149.17627 4294967147
347.44293 -815.39288 -149.41742 4294967147
355.47998 -815.54437 -149.70181 4294967147
343.98468 -812.33215 -149.12152 4294967147
360.00131 -845.16162 -148.95732 4294967148
362.16486 -844.69897 -148.89465 4294967148
363.4252 -837.20416 -148.71667 4294967148
363.38574 -835.2627 -148.76837 4294967148
363.508 -830.97736 -148.71825 4294967148
364.81494 -822.14514 -148.99843 4294967148
363.81003 -817.02698 -148.8121 4294967148
351.73981 -815.85071 -148.83618 4294967148
353.44833 -815.69745 -148.53717 4294967148
362.42804 -815.97913 -148.50876 4294967148
345.1142 -807.8172 -148.57095 4294967148
360.81317 -845.10132 -147.53804 4294967149
363.45364 -837.33484 -147.05948 4294967149
363.65674 -829.12854 -147.04137 4294967149
363.85449 -827.1781 -147.32198 4294967149
346.58908 -814.93207 -147.80737 4294967149
358.61841 -815.04059 -147.35864 4294967149
361.62164 -815.62579 -147.51727 4294967149
343.85025 -811.87524 -147.27274 4294967149
359.90918 -845.17126 -146.9958 4294967150
362.19989 -844.56769 -146.98224 4294967150
363.15417 -843.02966 -146.3494 4294967150
363.31271 -841.70734 -146.86992 4294967150
363.43188 -833.0625 -146.90524 4294967150
364.14124 -825.14691 -146.71083 4294967150
364.73825 -822.07104 -146.51257 4294967150
364.73398 -818.15417 -146.83464 4294967150
344.8273 -813.71417 -146.8421 4294967150
349.01337 -815.69434 -146.4292 4294967150
350.74377 -815.82294 -146.80577 4294967150
360.6655 -844.99847 -145.05431 4294967151
363.86874 -827.03156 -145.02029 4294967151
364.66382 -822.14124 -145.15988 4294967151
364.927 -819.22479 -145.02576 4294967151
344.5806 -813.38831 -145.11954 4294967151
350.98245 -815.75916 -145.36905 4294967151
353.21234 -815.49969 -145.33237 4294967151
358.52304 -814.98724 -145.22203 4294967151
362.55728 -815.78534 -145.09814 4294967151
362.68015 -844.10907 -144.72174 4294967152
363.27695 -841.73163 -144.24226 4294967152
363.4671 -837.36066 -144.97098 4294967152
363.51846 -831.25208 -144.68942 4294967152
364.15854 -824.97736 -144.79355 4294967152
363.93539 -816.98334 -144.60892 4294967152
360.8288 -815.19763 -144.91901 4294967152
343.86987 -812.4881 -144.88245 4294967152
344.09976 -810.66736 -144.39291 4294967152
344.86609 -807.48303 -144.86667 4294967152
346.23096 -804.38379 -144.98376 4294967152
359.9794 -845.04114 -143.22458 4294967153
363.24463 -841.93188 -143.50415 4294967153
363.82617 -827.39899 -143.02383 4294967153
363.73221 -816.63007 -143.20717 4294967153
345.33505 -814.22058 -143.33499 4294967153
349.71799 -815.76422 -143.42058 4294967153
362.69876 -844.1524 -142.48688 4294967154
363.66565 -829.09253 -142.96535 4294967154
364.14355 -825.12463 -142.87006 4294967154
364.50519 -822.67047 -142.63391 4294967154
364.88477 -819.34015 -142.90622 4294967154
344.27805 -813.039 -142.29456 4294967154
348.13849 -815.55548 -142.85115 4294967154
353.55045 -815.41467 -142.18837 4294967154
355.35974 -815.20099 -142.81671 4294967154
358.79749 -814.89807 -142.95535 4294967154
362.0502 -815.65302 -142.65526 4294967154
362.87863 -844.08557 -141.04813 4294967155
363.43073 -833.09454 -141.06111 4294967155
364.52802 -822.4798 -141.33896 4294967155
361.09268 -815.29541 -141.14587 4294967155
343.6366 -812.17139 -141.42926 4294967155
344.86069 -807.55408 -141.03371 4294967155
362.21634 -844.81366 -140.69629 4294967156
363.38541 -841.8667 -140.61922 4294967156
363.6593 -829.25128 -140.89409 4294967156
364.71149 -819.18713 -140.97214 4294967156
364.27414 -817.30688 -140.87169 4294967156
346.08545 -814.76837 -140.81274 4294967156
347.96265 -815.59534 -140.51515 4294967156
358.58249 -814.8288 -140.30164 4294967156
362.31287 -815.65155 -140.7321 4294967156
363.52106 -831.10736 -139.34563 4294967157
363.87289 -827.16644 -139.01944 4294967157
364.5867 -822.27362 -139.42957 4294967157
361.42645 -815.27777 -139.06572 4294967157
343.58762 -812.0741 -139.30205 4294967157
344.12671 -809.02081 -139.87798 4294967157
362.99997 -844.32153 -138.84218 4294967158
363.41846 -833.33588 -138.8371 4294967158
364.41043 -817.63379 -138.90424 4294967158
345.95758 -815.07343 -138.94814 4294967158
358.55063 -814.81958 -138.93221 4294967158
343.68192 -812.42297 -138.47343 4294967158
363.64981 -829.44397 -137.03128 4294967159
363.86993 -827.15662 -137.2 4294967159
359.60672 -814.71259 -137.20056 4294967159
364.63934 -822.05273 -136.81848 4294967160
364.81763 -819.01819 -136.427 4294967160
363.10538 -815.60034 -136.05309 4294967160
343.68924 -811.03931 -136.68716 4294967160
363.69647 -828.95209 -135.57553 4294967161
364.79514 -819.10638 -135.187 4294967161
364.62784 -816.90265 -135.20959 4294967161
347.25424 -815.45703 -135.02969 4294967161
360.66632 -814.7182 -135.03529 4294967161
363.54486 -831.10345 -134.68538 4294967162
363.88614 -827.11035 -134.81589 4294967162
364.19318 -824.99353 -134.69139 4294967162
364.60934 -816.59631 -134.16475 4294967162
345.43979 -814.24329 -134.50354 4294967162
362.60236 -815.2782 -134.6187 4294967162
343.77618 -810.69501 -134.30066 4294967162
344.99506 -807.32751 -134.97141 4294967162
363.70184 -829.16132 -133.13358 4294967163
364.879 -817.70624 -133.32373 4294967163
346.20401 -814.86884 -133.15945 4294967163
361.96246 -815.09839 -133.33534 4294967163
363.44589 -842.01721 -132.85928 4294967164
363.88388 -827.18164 -132.93842 4294967164
364.55658 -822.46204 -132.77025 4294967164
364.47479 -816.32288 -132.72467 4294967164
344.72342 -813.55023 -132.87604 4294967164
343.83771 -811.13971 -132.63281 4294967164
344.7937 -807.56873 -132.74171 4294967164
363.7612 -828.5946 -131.37997 4294967165
364.94366 -818.5365 -131.5257 4294967165
344.82541 -813.32245 -131.18982 4294967165
345.44687 -806.01141 -131.71696 4294967165
363.17487 -841.82861 -130.75281 4294967166
364.56277 -822.6004 -130.47699 4294967166
364.53253 -816.72003 -130.92992 4294967166
346.67584 -814.65558 -130.54391 4294967166
358.409 -814.44263 -130.54366 4294967166
362.47968 -815.05762 -130.7037 4294967166
343.75464 -810.29401 -130.57634 4294967166
344.59439 -807.67419 -130.81372 4294967166
346.35507 -803.13324 -130.72366 4294967166
364.84787 -817.83295 -129.21332 4294967167
344.03308 -810.04474 -129.53015 4294967167
363.26459 -840.92468 -128.862 4294967168
345.04114 -813.0285 -128.64745 4294967168
348.21881 -815.03467 -128.54607 4294967168
350.22958 -815.31055 -128.96606 4294967168
361.54224 -814.64288 -128.96997 4294967168
344.15134 -811.45612 -128.89398 4294967168
344.70142 -807.35095 -128.80365 4294967168
346.16986 -803.45178 -128.55862 4294967168
346.27853 -800.47491 -128.68896 4294967168
363.22165 -840.94513 -127.56673 4294967169
364.83673 -821.55542 -127.94485 4294967169
345.78421 -813.62518 -127.47173 4294967169
344.07617 -811.38312 -127.09216 4294967169
344.42654 -808.28583 -127.23841 4294967169
346.22766 -803.17926 -127.16626 4294967169
345.99167 -799.46655 -127.24073 4294967169
360.08069 -844.21826 -126.8475 4294967170
361.79135 -844.08258 -126.38886 4294967170
363.72797 -837.67853 -126.99472 4294967170
365.00922 -819.29321 -126.65633 4294967170
346.85046 -814.15796 -126.48106 4294967170
350.31012 -815.00934 -126.16963 4294967170
361.08084 -814.53577 -126.87816 4294967170
363.73892 -815.55212 -126.96413 4294967170
343.99338 -810.09644 -126.5985 4294967170
346.37488 -801.03204 -126.78614 4294967170
363.83151 -838.4035 -125.485 4294967171
364.9006 -817.93121 -125.36378 4294967171
346.60959 -813.92291 -125.25996 4294967171
360.3905 -814.31598 -125.21306 4294967171
362.39066 -814.82898 -125.02546 4294967171
345.58597 -805.43341 -125.47157 4294967171
346.27747 -803.08765 -125.12785 4294967171
345.90604 -799.27319 -125.0946 4294967171
361.34454 -843.93256 -124.95377 4294967172
363.64612 -840.40656 -124.32024 4294967172
365.05524 -819.30823 -124.20721 4294967172
358.24805 -814.0199 -124.64509 4294967172
363.90207 -815.75403 -124.73552 4294967172
343.89398 -810.5412 -124.30744 4294967172
344.08777 -811.58447 -124.76126 4294967172
346.35529 -800.88885 -124.68082 4294967172
364.89532 -821.73053 -123.60178 4294967173
346.95853 -814.19537 -123.03607 4294967173
348.28818 -814.70398 -123.24689 4294967173
350.59824 -814.86536 -123.33312 4294967173
360.6405 -814.25763 -123.04382 4294967173
343.94958 -810.82385 -123.19092 4294967173
345.17834 -806.23029 -123.04984 4294967173
363.84271 -838.0545 -122.63509 4294967174
364.5058 -816.71344 -122.81259 4294967174
365.10712 -818.30438 -122.94588 4294967174
344.34506 -808.00275 -122.58274 4294967174
346.28857 -802.24683 -122.61725 4294967174
363.10919 -841.6366 -121.04234 4294967175
363.65179 -835.21539 -121.54575 4294967175
346.522 -813.79675 -121.35433 4294967175
353.21716 -814.48962 -121.20228 4294967175
357.82571 -813.95642 -121.06471 4294967175
362.95364 -815.04059 -121.58722 4294967175
362.17725 -843.13397 -120.38452 4294967176
363.54459 -840.35968 -120.44209 4294967176
363.85767 -838.23773 -120.71513 4294967176
364.63382 -817.04089 -120.98189 4294967176
365.25421 -818.95496 -120.04504 4294967176
348.69897 -814.6261 -120.72195 4294967176
350.88287 -814.77625 -120.41716 4294967176
355.84045 -814.07751 -120.49826 4294967176
360.91949 -814.1889 -120.65479 4294967176
344.73981 -812.38916 -120.62888 4294967176
346.35583 -800.76483 -120.97784 4294967176
365.27667 -820.07654 -119.34731 4294967177
365.22754 -818.81244 -119.91599 4294967177
347.06815 -813.92096 -119.00423 4294967177
355.05109 -814.16779 -119.18505 4294967177
360.76443 -813.84448 -119.06296 4294967177
362.22223 -814.44318 -119.09911 4294967177
363.39825 -840.66876 -118.58506 4294967178
363.74139 -835.38849 -118.61032 4294967178
364.40948 -816.19489 -118.27742 4294967178
348.6178 -814.48157 -118.43064 4294967178
350.23755 -814.73242 -118.89301 4294967178
353.34183 -814.33362 -118.43324 4294967178
358.49231 -813.71564 -118.44235 4294967178
363.93854 -815.49683 -118.95792 4294967178
343.97394 -810.9516 -118.82365 4294967178
346.34091 -802.06036 -118.62782 4294967178
363.68686 -832.93372 -117.30556 4294967179
350.61282 -814.62207 -117.02044 4294967179
345.22485 -812.68506 -117.16985 4294967179
363.97498 -827.08716 -116.03271 4294967180
348.46307 -814.35498 -116.82751 4294967180
355.45596 -814.05817 -116.80148 4294967180
358.05988 -813.69366 -116.8788 4294967180
360.89969 -813.70325 -116.72478 4294967180
362.67715 -814.22693 -116.53222 4294967180
363.73145 -815.10022 -116.35328 4294967180
346.28104 -802.97198 -116.94731 4294967180
364.19168 -825.16333 -115.01 4294967181
364.59009 -822.93951 -115.12312 4294967181
358.57422 -813.57202 -115.0958 4294967181
363.79053 -815.10327 -115.25972 4294967181
363.95508 -827.22827 -114.8652 4294967182
365.04785 -819.97284 -114.95652 4294967182
364.69949 -816.80963 -114.67129 4294967182
348.22101 -814.17206 -114.85346 4294967182
350.53409 -814.48767 -114.69965 4294967182
353.15152 -814.21106 -114.60291 4294967182
361.11279 -813.62646 -114.9212 4294967182
345.3782 -812.66589 -114.85542 4294967182
365.09537 -820.20209 -113.19498 4294967183
361.63718 -813.84839 -113.18747 4294967183
364.5079 -823.03455 -112.78714 4294967184
365.1145 -817.86426 -112.59267 4294967184
348.78647 -814.18848 -112.52398 4294967184
358.47318 -813.56793 -112.43005 4294967184
362.6488 -814.15094 -112.76931 4294967184
364.05524 -815.15161 -112.94176 4294967184
344.41571 -810.927 -112.69055 4294967184
346.34918 -802.08374 -112.86703 4294967184
363.96896 -827.0965 -111.22801 4294967185
364.21948 -825.14941 -111.08975 4294967185
350.61105 -814.25568 -111.02613 4294967185
361.71494 -813.77771 -111.03666 4294967185
363.41727 -814.44299 -111.00567 4294967185
364.48682 -823.10638 -110.5987 4294967186
365.04871 -820.19946 -110.80047 4294967186
364.93488 -817.45166 -110.50216 4294967186
347.04025 -813.35028 -110.8913 4294967186
365.05783 -820.02863 -109.10548 4294967187
364.94601 -817.17743 -109.39014 4294967187
361.32391 -813.59637 -109.18282 4294967187
364.5011 -823.17529 -108.87824 4294967188
348.31085 -813.71216 -108.33154 4294967188
350.67725 -814.13312 -108.82768 4294967188
358.73187 -813.42529 -108.49474 4294967188
364.31311 -814.76038 -108.69058 4294967188
344.21274 -810.2229 -108.92741 4294967188
364.45218 -823.27039 -107.51042 4294967189
346.83118 -813.12671 -107.09482 4294967189
362.12924 -813.53772 -107.08447 4294967189
364.93222 -820.45776 -106.84923 4294967190
353.51477 -813.82977 -106.42141 4294967190
364.42444 -814.50775 -106.85197 4294967190
344.07239 -809.94122 -106.97626 4294967190
345.18616 -805.46808 -106.5658 4294967190
346.18427 -802.09869 -106.7971 4294967190
364.4617 -823.07678 -105.38947 4294967191
362.11047 -813.43671 -105.27272 4294967191
364.0441 -813.95837 -105.03587 4294967191
365.11655 -818.32776 -104.63367 4294967192
358.04013 -813.36285 -104.63178 4294967192
364.87622 -814.90283 -104.92403 4294967192
350.66122 -813.94476 -103.49602 4294967193
357.43832 -813.32452 -103.15813 4294967193
362.39627 -813.37836 -103.1647 4294967193
364.70425 -814.38995 -103.02084 4294967193
344.18158 -808.09668 -103.31792 4294967193
346.09537 -802.79083 -103.74563 4294967193
346.6412 -813.01971 -102.6719 4294967194
353.41959 -813.72266 -102.90366 4294967194
352.80942 -813.69995 -101.0421 4294967195
344.09985 -810.17706 -101.41094 4294967195
364.8616 -819.99774 -100.97896 4294967196
365.16418 -816.1842 -100.98778 4294967196
348.37006 -813.64038 -100.86515 4294967196
350.85608 -813.8208 -100.70149 4294967196
355.29901 -813.42126 -100.99691 4294967196
362.02573 -813.22162 -100.53709 4294967196
364.43713 -814.30835 -100.53122 4294967196
345.28107 -812.13385 -100.56641 4294967196
350.41486 -813.75201 -99.248512 4294967197
357.71674 -813.11285 -99.111427 4294967197
361.16696 -813.21771 -99.435616 4294967197
362.83511 -813.44061 -99.154327 4294967197
364.44971 -814.07721 -99.05661 4294967197
348.16641 -813.44318 -98.861847 4294967198
353.505 -813.53607 -98.695221 4294967198
365.08038 -815.86926 -98.380455 4294967198
344.22034 -810.42316 -98.604446 4294967198
346.6864 -812.953 -98.717606 4294967198
353.52646 -813.40863 -97.052444 4294967199
355.67041 -813.17761 -97.24025 4294967199
365.02847 -816.95459 -96.954384 4294967200
347.99973 -813.13715 -96.889488 4294967200
350.7576 -813.57465 -96.815437 4294967200
362.89407 -813.27472 -96.996841 4294967200
344.22949 -810.27863 -96.606651 4294967200
346.60776 -812.60205 -96.906914 4294967200
357.35739 -812.99316 -96.4151 4294967200
361.72339 -812.95941 -96.758484 4294967200
365.03729 -816.32562 -95.402443 4294967201
352.83194 -813.32135 -95.332962 4294967201
355.37378 -813.10071 -95.007133 4294967201
362.56241 -813.14429 -95.227859 4294967201
361.2771 -812.74554 -95.265129 4294967201
348.27856 -813.24194 -94.99765 4294967202
350.57272 -813.47052 -94.760437 4294967202
364.96851 -815.4198 -94.955994 4294967202
344.25385 -810.06366 -94.791901 4294967202
346.95105 -812.65137 -94.673973 4294967202
358.28378 -812.79846 -94.727699 4294967202
364.70541 -814.41425 -93.174355 4294967203
348.19022 -812.94043 -93.058525 4294967203
365.20761 -816.35284 -92.604019 4294967204
350.4411 -813.34033 -92.485161 4294967204
353.34152 -813.1394 -92.329758 4294967204
362.71722 -813.07831 -92.566849 4294967204
344.80081 -811.11481 -92.508614 4294967204
346.58087 -812.34082 -92.800308 4294967204
355.63724 -812.98969 -92.696449 4294967204
358.30374 -812.68646 -92.845215 4294967204
361.26865 -812.80011 -92.466194 4294967204
344.23996 -809.92798 -92.980392 4294967204
353.45477 -813.06824 -91.13031 4294967205
346.66443 -812.28906 -91.298668 4294967205
347.8689 -812.78973 -91.445549 4294967205
351.18396 -813.17847 -90.573631 4294967206
364.4476 -813.75079 -90.724358 4294967206
365.14389 -815.47522 -90.929749 4294967206
357.73566 -812.63519 -90.437843 4294967206
361.61081 -812.71252 -90.873581 4294967206
344.38736 -808.69867 -90.857552 4294967206
344.96097 -805.66492 -90.934586 4294967206
350.29562 -813.16388 -89.064522 4294967207
361.19156 -812.62329 -89.185356 4294967207
365.52695 -817.23718 -88.824501 4294967208
353.34222 -813.00867 -88.81881 4294967208
364.46164 -813.7262 -88.556931 4294967208
365.09619 -815.44794 -88.669365 4294967208
345.34579 -811.27167 -88.996178 4294967208
346.67593 -812.22638 -88.89447 4294967208
358.19418 -812.5199 -88.699905 4294967208
362.73083 -812.90753 -88.572098 4294967208
344.36484 -808.46368 -88.814911 4294967208
344.88443 -805.68866 -88.818253 4294967208
345.73026 -803.32336 -88.926613 4294967208
365.24423 -817.02533 -87.707397 4294967209
365.06857 -815.24591 -87.29232 4294967209
346.85764 -812.25128 -87.099335 4294967209
344.81854 -806.11609 -87.246948 4294967209
345.43875 -803.94031 -87.051399 4294967209
350.38037 -813.09998 -86.738037 4294967210
364.4801 -813.73706 -86.437141 4294967210
345.57227 -811.39459 -86.715126 4294967210
348.02643 -812.69171 -86.800957 4294967210
355.47369 -812.63531 -86.773788 4294967210
361.01898 -812.52368 -86.342293 4294967210
344.35675 -808.39178 -86.562897 4294967210
365.17245 -816.45087 -85.501381 4294967211
353.03354 -812.79431 -85.242058 4294967211
362.80334 -812.79871 -85.055962 4294967211
350.19238 -813.02295 -84.575684 4294967212
364.57034 -813.72327 -84.654251 4294967212
345.29681 -811.05011 -84.999512 4294967212
346.74609 -812.0755 -84.584122 4294967212
358.32355 -812.36383 -84.972298 4294967212
344.39957 -808.21564 -84.837646 4294967212
344.6929 -806.30432 -84.748734 4294967212
345.46426 -803.71722 -84.150627 4294967212
346.12219 -800.08093 -84.655579 4294967212
362.58435 -812.60754 -83.031906 4294967213
344.86862 -805.36029 -83.270218 4294967213
365.23102 -817.43365 -82.485321 4294967214
364.20993 -813.26349 -82.934677 4294967214
365.0015 -815.49426 -82.937508 4294967214
348.02765 -812.74506 -82.909439 4294967214
358.60712 -812.25293 -82.895607 4294967214
344.63544 -809.02136 -82.67411 4294967214
364.11426 -813.29498 -81.083946 4294967215
351.32394 -812.81085 -81.809662 4294967215
344.5903 -807.48254 -81.717445 4294967215
344.77359 -805.56708 -81.524864 4294967215
345.32178 -804.01923 -81.526215 4294967215
364.8284 -814.59814 -80.918694 4294967216
345.92221 -811.36108 -80.899796 4294967216
361.15088 -812.18854 -80.967171 4294967216
362.51208 -812.45575 -80.99649 4294967216
346.02939 -801.05316 -80.953003 4294967216
364.09698 -813.19171 -79.178688 4294967217
362.65231 -812.38849 -79.136391 4294967217
345.98669 -801.38202 -79.032433 4294967217
365.4043 -816.83716 -78.656487 4294967218
358.19397 -812.04657 -78.799294 4294967218
361.27563 -812.11304 -78.869537 4294967218
344.52505 -808.38525 -78.701828 4294967218
344.51907 -806.09998 -78.715378 4294967218
345.53735 -803.34558 -78.397667 4294967218
345.91345 -799.15393 -78.772217 4294967218
345.32098 -797.20117 -78.979294 4294967218
352.66879 -812.39404 -77.110718 4294967219
362.82925 -812.08978 -77.118622 4294967219
365.47644 -817.9809 -76.668106 4294967220
364.2897 -813.13025 -76.589607 4294967220
365.02127 -814.72168 -76.939629 4294967220
357.68073 -811.89325 -76.899307 4294967220
344.58878 -806.1908 -76.554024 4294967220
361.53156 -811.69324 -75.426605 4294967221
365.46078 -818.60596 -74.771698 4294967222
365.64227 -815.99585 -74.371483 4294967222
346.53079 -811.11926 -74.654305 4294967222
350.24664 -812.37811 -74.827362 4294967222
357.53259 -811.69098 -74.913284 4294967222
362.59048 -811.81384 -74.576035 4294967222
364.21091 -812.79401 -74.969711 4294967222
365.53955 -818.44214 -73.155663 4294967223
365.53976 -815.36182 -73.102997 4294967223
365.28989 -814.22058 -72.826118 4294967224
350.42148 -812.04315 -72.566078 4294967224
353.14703 -811.78845 -72.364265 4294967224
355.56921 -811.54529 -72.527435 4294967224
362.70642 -811.521 -72.940948 4294967224
364.88095 -812.98267 -72.244064 4294967224
342.91971 -790.5083 -72.19101 4294967224
346.68878 -810.95465 -71.07003 4294967225
358.09222 -811.02271 -71.127373 4294967225
361.28168 -811.01208 -71.38369 4294967225
363.93945 -811.74615 -71.004387 4294967225
364.86057 -812.3902 -71.25322 4294967225
365.67746 -814.8241 -70.807663 4294967226
350.64032 -811.65399 -70.59906 4294967226
355.55991 -811.14368 -70.424065 4294967226
345.05933 -806.8941 -70.618248 4294967226
345.77313 -802.35999 -70.493637 4294967226
343.78174 -793.43884 -70.704353 4294967226
349.93246 -811.35736 -69.132996 4294967227
364.1969 -811.40808 -69.20504 4294967227
345.41721 -809.62018 -69.095032 4294967227
343.74655 -793.3175 -69.061707 4294967227
365.52106 -818.34772 -68.704102 4294967228
365.7113 -814.41931 -68.77359 4294967228
353.12915 -811.05756 -68.82827 4294967228
355.47235 -810.83954 -68.836433 4294967228
361.03958 -810.53973 -68.88176 4294967228
362.88434 -810.87433 -68.569435 4294967228
365.30331 -812.52881 -68.973656 4294967228
345.19122 -807.50507 -68.295227 4294967228
345.56915 -803.99725 -68.852638 4294967228
342.81125 -789.06775 -68.900536 4294967228
343.09225 -791.14111 -68.215118 4294967228
365.64929 -813.67542 -67.142517 4294967229
364.5076 -811.53607 -67.211266 4294967229
346.48859 -810.07147 -66.965263 4294967230
350.45575 -810.74567 -66.656395 4294967230
353.26065 -810.79163 -66.725792 4294967230
358.02829 -810.35596 -66.834282 4294967230
360.85367 -810.38751 -66.84935 4294967230
345.37039 -807.91406 -66.541397 4294967230
346.08203 -799.1947 -66.620209 4294967230
345.51733 -797.29962 -66.787003 4294967230
343.65527 -793.13666 -66.605804 4294967230
342.77893 -789.27057 -66.95224 4294967230
343.0553 -791.11383 -66.90992 4294967230
342.6763 -787.28125 -66.364281 4294967230
365.6347 -814.80127 -65.122826 4294967231
364.74417 -811.6875 -65.148293 4294967231
345.9343 -803.37189 -65.482964 4294967231
344.45117 -795.04395 -65.080811 4294967231
343.55194 -793.01599 -65.191589 4294967231
342.81314 -790.15106 -65.234314 4294967231
342.5257 -782.51038 -65.3489 4294967231
342.54742 -779.65338 -65.337349 4294967231
365.42627 -813.32623 -64.290474 4294967232
348.70532 -810.50964 -64.945557 4294967232
362.85782 -810.77271 -64.811256 4294967232
345.61267 -807.87421 -64.757324 4294967232
342.47565 -785.95026 -64.576576 4294967232
342.4086 -778.04443 -64.183418 4294967232
352.96967 -810.74811 -63.045853 4294967233
362.87192 -810.97095 -63.083717 4294967233
346.26291 -809.93988 -63.186123 4294967233
342.31396 -781.26483 -63.628033 4294967233
342.35706 -773.36255 -63.5117 4294967233
365.43726 -814.15369 -62.735535 4294967234
348.14545 -810.54968 -62.720055 4294967234
358.19461 -810.48846 -62.64328 4294967234
361.71033 -810.69885 -62.885906 4294967234
364.67435 -811.72192 -62.677998 4294967234
345.96631 -799.02783 -62.587524 4294967234
345.2254 -797.01788 -62.822998 4294967234
343.31058 -792.98553 -62.813942 4294967234
342.42123 -789.34222 -62.8479 4294967234
342.04443 -783.25415 -62.119633 4294967234
342.11545 -781.24841 -62.451992 4294967234
342.17731 -779.43274 -62.863258 4294967234
342.2005 -776.69232 -62.889408 4294967234
351.37729 -810.86304 -61.084717 4294967235
353.27499 -810.79504 -61.076931 4294967235
346.03476 -809.84741 -61.026966 4294967235
341.8139 -780.88831 -61.078598 4294967235
341.89188 -775.005 -61.027115 4294967235
342.03625 -772.02844 -61.394974 4294967235
365.181 -814.16266 -60.379242 4294967236
346.06021 -810.06366 -60.519272 4294967236
347.96964 -810.63739 -60.4781 4294967236
358.26334 -810.74243 -60.236252 4294967236
362.1749 -811.06134 -60.276585 4294967236
363.09238 -811.25659 -60.47287 4294967236
364.91983 -812.38959 -60.922527 4294967236
344.16187 -795.35089 -60.900887 4294967236
345.04105 -797.1593 -60.713799 4294967236
343.0477 -793.20441 -60.542625 4294967236
341.64728 -778.10724 -60.253334 4294967236
345.55872 -798.95349 -59.022541 4294967237
341.53857 -782.39178 -59.827076 4294967237
341.48865 -775.93176 -59.223198 4294967237
341.54193 -773.98358 -59.127922 4294967237
341.71906 -766.99463 -59.314838 4294967237
365.0795 -814.4682 -58.157196 4294967238
345.96075 -810.14313 -58.338188 4294967238
346.25058 -810.47113 -58.731171 4294967238
358.66245 -810.8949 -58.653713 4294967238
362.10898 -811.2373 -58.574947 4294967238
364.76004 -812.50421 -58.758228 4294967238
344.58298 -796.92914 -58.793026 4294967238
342.67361 -793.08771 -58.981941 4294967238
341.34235 -784.78601 -58.654583 4294967238
341.19098 -781.53918 -58.451328 4294967238
341.17578 -778.86884 -58.330124 4294967238
341.27396 -775.2995 -58.149929 4294967238
341.47318 -771.69244 -58.49699 4294967238
350.76807 -811.41528 -57.071007 4294967239
341.61652 -791.18134 -57.201626 4294967239
340.88062 -783.32672 -57.134895 4294967239
341.03915 -777.08777 -57.525635 4294967239
341.31055 -769.29816 -57.470058 4294967239
365.0022 -814.20984 -56.873657 4294967240
348.19107 -811.10376 -56.826859 4294967240
358.06732 -811.01996 -56.629303 4294967240
362.60861 -811.5127 -56.733196 4294967240
364.56619 -812.64331 -56.20245 4294967240
345.6713 -809.81567 -56.614346 4294967240
345.1683 -799.23914 -56.757153 4294967240
343.13123 -795.12817 -56.951023 4294967240
344.10242 -797.03082 -56.678425 4294967240
340.95242 -787.46075 -56.356785 4294967240
340.55579 -781.83636 -56.08762 4294967240
340.77606 -779.47955 -56.824326 4294967240
340.94778 -774.19519 -56.615383 4294967240
346.64749 -810.67596 -55.205105 4294967241
348.35349 -811.22363 -55.222168 4294967241
350.31915 -811.4856 -55.130592 4294967241
355.41733 -811.15576 -55.110222 4294967241
361.85052 -811.51501 -55.702335 4294967241
362.66061 -811.71973 -55.223999 4294967241
344.99414 -806.9527 -55.083229 4294967241
345.20602 -801.4201 -55.124405 4294967241
341.82748 -793.48718 -55.275642 4294967241
340.45309 -784.59033 -55.391476 4294967241
340.26978 -780.08319 -55.041195 4294967241
340.40079 -778.25671 -55.303299 4294967241
340.5253 -776.31036 -55.413013 4294967241
340.85382 -771.51569 -55.760494 4294967241
340.9993 -766.77777 -55.925091 4294967241
340.89822 -764.3009 -55.377907 4294967241
365.03445 -814.56433 -54.732746 4294967242
353.49094 -811.35065 -54.662109 4294967242
344.55994 -799.00958 -54.965492 4294967242
343.5257 -797.08344 -54.827469 4294967242
340.7684 -789.87988 -54.717178 4294967242
340.40686 -773.06647 -54.350891 4294967242
340.65747 -769.43121 -54.702732 4294967242
364.13766 -812.57294 -53.104885 4294967243
345.02704 -808.21222 -53.010948 4294967243
341.05969 -793.33777 -53.129314 4294967243
339.99359 -786.8963 -53.336559 4294967243
339.83359 -783.10413 -53.55389 4294967243
339.82446 -781.25024 -53.591194 4294967243
339.8858 -778.20099 -53.495193 4294967243
340.19211 -774.94763 -53.966434 4294967243
340.17896 -771.33929 -53.295364 4294967243
340.31027 -766.59772 -53.258144 4294967243
340.36957 -762.90924 -53.416557 4294967243
364.82208 -815.06897 -52.964916 4294967244
346.80045 -810.91937 -52.958599 4294967244
350.54266 -811.59076 -52.991768 4294967244
355.36426 -811.1994 -52.896904 4294967244
357.97034 -810.97815 -52.693886 4294967244
360.73193 -811.27783 -52.605881 4294967244
362.41489 -811.72913 -52.723118 4294967244
345.42743 -809.64288 -52.689388 4294967244
344.40518 -801.14978 -52.855003 4294967244
343.76886 -799.08795 -52.669796 4294967244
342.84412 -797.30005 -52.867393 4294967244
341.56516 -794.85413 -52.892918 4294967244
339.99805 -789.43805 -52.426426 4294967244
339.6774 -784.76746 -52.837353 4294967244
339.73315 -773.32611 -52.190517 4294967244
340.06866 -769.69659 -52.668373 4294967244
340.00473 -763.97852 -52.171062 4294967244
348.3858 -811.27338 -51.090168 4294967245
350.67548 -811.51465 -51.058632 4294967245
339.24759 -783.64978 -51.675217 4294967245
339.263 -781.39056 -51.789948 4294967245
339.26425 -778.15546 -51.523026 4294967245
339.44739 -775.73169 -51.71394 4294967245
339.77408 -768.75275 -51.627182 4294967245
339.66702 -766.77325 -51.193283 4294967245
364.63864 -814.10266 -50.878422 4294967246
346.9985 -810.79834 -50.88541 4294967246
355.22684 -811.14081 -50.674397 4294967246
358.13913 -810.90875 -50.665073 4294967246
360.58856 -811.13715 -50.704163 4294967246
362.35657 -811.79034 -50.196648 4294967246
363.87582 -812.59686 -50.867397 4294967246
345.49023 -809.78137 -50.944302 4294967246
344.26028 -806.13916 -50.896286 4294967246
343.78537 -801.14191 -50.945568 4294967246
342.97977 -799.11957 -50.983086 4294967246
340.91153 -795.18744 -50.90366 4294967246
341.8381 -797.23749 -50.741344 4294967246
339.94473 -792.29987 -50.663055 4294967246
339.20306 -787.63013 -50.81752 4294967246
338.98764 -785.33368 -50.723751 4294967246
339.23483 -769.57117 -50.199665 4294967246
339.59113 -763.65112 -50.912567 4294967246
339.54907 -760.99799 -50.741955 4294967246
348.34622 -811.21069 -49.076904 4294967247
353.40878 -811.21771 -49.15823 4294967247
358.20197 -810.88092 -49.483131 4294967247
339.11353 -789.52917 -49.903687 4294967247
338.5343 -787.38965 -49.12635 4294967247
338.52533 -782.42181 -49.663319 4294967247
338.49725 -779.4021 -49.422314 4294967247
338.71161 -775.44641 -49.518913 4294967247
338.9726 -766.99329 -49.232994 4294967247
339.03906 -765.54553 -49.358105 4294967247
364.43964 -814.10999 -48.84832 4294967248
355.48749 -811.00732 -48.67271 4294967248
359.87421 -810.99103 -48.540604 4294967248
362.58673 -811.88861 -48.66214 4294967248
344.39374 -807.77478 -48.276802 4294967248
345.31186 -809.63794 -48.731754 4294967248
342.01514 -799.12817 -48.862522 4294967248
340.47803 -796.18756 -48.877693 4294967248
338.508 -790.17578 -48.105808 4294967248
338.52429 -768.38812 -48.150105 4294967248
338.62555 -763.50745 -48.180286 4294967248
338.9426 -760.66614 -48.981857 4294967248
351.18176 -811.30939 -47.05975 4294967249
363.18198 -812.27106 -47.142704 4294967249
338.79919 -793.0365 -47.333015 4294967249
337.8291 -787.59357 -47.361904 4294967249
337.8371 -784.98975 -47.779152 4294967249
337.62323 -780.48242 -47.195747 4294967249
337.68713 -777.97748 -47.094917 4294967249
337.79575 -775.38885 -47.046314 4294967249
338.19229 -766.0686 -47.128716 4294967249
338.25711 -759.46112 -47.034393 4294967249
364.5152 -814.35474 -46.782139 4294967250
346.9209 -810.72101 -46.936859 4294967250
356.67685 -810.89832 -46.226509 4294967250
360.82553 -811.22339 -46.843025 4294967250
362.01721 -811.66913 -46.579529 4294967250
345.03854 -809.50415 -46.936378 4294967250
343.55695 -806.41913 -46.636887 4294967250
341.05762 -799.02173 -46.855713 4294967250
339.16364 -795.13678 -46.978878 4294967250
337.84601 -789.40338 -46.853649 4294967250
337.48947 -782.60571 -46.987148 4294967250
337.7988 -770.12262 -46.458359 4294967250
