# .PCD v0.7 - Point Cloud Data file format
VERSION 0.7
FIELDS x y z rgba
SIZE 4 4 4 4
TYPE F F F U
COUNT 1 1 1 1
WIDTH 1098
HEIGHT 1
VIEWPOINT 0 0 0 1 0 0 0
POINTS 1098
DATA ascii
71.457344 -811.75574 -515.70178 4294966781
75.361122 -811.60938 -515.47479 4294966781
77.204926 -810.0755 -515.03595 4294966781
79.513702 -810.77661 -515.37665 4294966781
81.129898 -810.29706 -515.15295 4294966781
27.348864 -807.67999 -515.72461 4294966781
29.584833 -807.85175 -515.63025 4294966781
33.160717 -807.78894 -515.60229 4294966781
35.228149 -807.83234 -515.57788 4294966781
37.386837 -807.97797 -515.46521 4294966781
39.344448 -808.26697 -515.50916 4294966781
43.410751 -807.97736 -515.27881 4294966781
45.062328 -807.93622 -515.3576 4294966781
47.744545 -808.10132 -515.36835 4294966781
49.425053 -808.14624 -515.36389 4294966781
51.211388 -808.80103 -515.521 4294966781
53.45842 -808.90137 -515.52686 4294966781
54.979031 -809.513 -515.65656 4294966781
55.710186 -808.23248 -515.32306 4294966781
57.498188 -808.96368 -515.48364 4294966781
59.379753 -809.73535 -515.56696 4294966781
61.322544 -809.54285 -515.46271 4294966781
63.374588 -809.12097 -515.43744 4294966781
65.446251 -809.41187 -515.40472 4294966781
67.289513 -809.31281 -515.36627 4294966781
69.180779 -808.26849 -515.07849 4294966781
73.444221 -807.90009 -515.13538 4294966781
75.320511 -807.97772 -515.33508 4294966781
77.285538 -807.7981 -515.2594 4294966781
79.836845 -807.98822 -515.4046 4294966781
-18.671946 -804.16681 -515.92487 4294966781
-14.450919 -804.09784 -515.85486 4294966781
-12.778355 -804.23065 -515.88367 4294966781
-8.492712 -804.01147 -515.63879 4294966781
-6.5097871 -804.3349 -515.70477 4294966781
-2.5597494 -804.68817 -515.71033 4294966781
1.255178 -804.6134 -515.38336 4294966781
3.5525746 -805.09375 -515.68518 4294966781
5.253293 -805.23907 -515.65393 4294966781
7.4068408 -805.18195 -515.61212 4294966781
9.4871855 -804.46173 -515.50513 4294966781
11.079163 -805.16479 -515.43762 4294966781
13.329718 -806.14703 -515.56598 4294966781
14.031507 -804.38702 -515.26953 4294966781
15.468099 -804.37604 -515.28937 4294966781
25.309547 -806.85114 -515.27057 4294966781
27.574612 -805.29858 -515.45032 4294966781
29.361837 -805.61365 -515.31958 4294966781
31.340494 -805.69537 -515.35974 4294966781
33.653481 -806.49414 -515.40326 4294966781
35.230167 -806.44836 -515.43463 4294966781
37.158737 -804.10303 -515.8623 4294966781
41.550529 -806.51831 -515.38031 4294966781
43.454258 -806.32953 -515.41461 4294966781
47.226082 -806.25793 -515.50305 4294966781
49.270187 -806.33081 -515.5094 4294966781
53.137657 -806.8302 -515.52448 4294966781
55.489746 -806.12579 -515.57233 4294966781
59.44907 -806.32471 -515.55176 4294966781
63.373917 -805.50647 -515.70599 4294966781
65.322739 -805.43701 -515.83014 4294966781
-40.834778 -801.91974 -515.93896 4294966781
-38.537338 -802.0351 -515.80463 4294966781
-36.798695 -802.10046 -515.77386 4294966781
-34.467106 -802.08124 -515.79724 4294966781
-30.884077 -802.25616 -515.70978 4294966781
-28.10132 -802.27985 -515.91797 4294966781
-24.82382 -802.41882 -515.84735 4294966781
-22.403526 -802.22296 -515.79028 4294966781
-20.64695 -803.20581 -515.85876 4294966781
-18.524805 -802.41663 -515.74249 4294966781
-16.594242 -803.15222 -515.8092 4294966781
-14.721336 -802.29828 -515.72473 4294966781
-12.600899 -802.33728 -515.48047 4294966781
-10.8515 -802.27771 -515.50537 4294966781
-8.7652082 -802.0542 -515.52441 4294966781
-6.7837315 -802.18201 -515.5246 4294966781
-4.4419241 -802.12518 -515.56482 4294966781
-0.62048626 -802.27844 -515.55072 4294966781
1.0862803 -801.99731 -515.64154 4294966781
3.2703071 -801.99731 -515.65588 4294966781
7.4400616 -801.78571 -515.80988 4294966781
35.305946 -803.97083 -515.81763 4294966781
-80.594673 -798.42468 -515.94043 4294966781
-78.617775 -798.44897 -515.9389 4294966781
-76.637421 -798.78973 -515.98682 4294966781
-72.863495 -799.13831 -515.90295 4294966781
-70.487396 -799.37408 -515.91168 4294966781
-66.709114 -800.66254 -515.96265 4294966781
-62.273991 -798.05408 -515.89484 4294966781
-56.628143 -798.18427 -515.93878 4294966781
-54.415951 -800.42902 -515.841 4294966781
-52.735077 -799.33099 -515.8645 4294966781
-50.760006 -800.14508 -515.95227 4294966781
-48.410992 -800.36456 -515.9411 4294966781
-46.786087 -800.26215 -515.96356 4294966781
-44.427055 -800.37799 -515.9751 4294966781
-40.654236 -800.22754 -515.88867 4294966781
-38.766262 -800.03491 -515.86157 4294966781
-36.719585 -800.04053 -515.86835 4294966781
-34.702293 -799.83624 -515.87018 4294966781
-32.508377 -799.93469 -515.91785 4294966781
-30.6472 -799.77576 -515.89276 4294966781
-28.482105 -799.85455 -515.92938 4294966781
-26.64102 -799.98615 -515.90137 4294966781
-22.389017 -799.70868 -515.98151 4294966781
-20.675043 -800.05743 -515.91754 4294966781
-124.91574 -797.46698 -515.65125 4294966781
-122.43136 -797.39636 -515.88257 4294966781
-88.994591 -795.81104 -515.95801 4294966781
-60.590252 -797.89874 -515.96838 4294966781
-54.64315 -797.78168 -515.99567 4294966781
-110.56792 -793.65131 -515.49133 4294966781
-108.64615 -793.70154 -515.63452 4294966781
-106.66155 -793.198 -515.72192 4294966781
-102.54385 -793.40442 -515.95044 4294966781
-110.50641 -791.28192 -515.07037 4294966781
-108.58625 -791.56323 -515.28186 4294966781
-106.42165 -791.05023 -515.35834 4294966781
-102.81207 -791.19196 -515.56549 4294966781
-100.62164 -791.45154 -515.6889 4294966781
-98.702774 -789.25641 -515.14453 4294966781
-94.698242 -791.21722 -515.6969 4294966781
-92.396507 -789.21179 -515.13684 4294966781
-90.96373 -791.04456 -515.66492 4294966781
-88.688454 -789.08954 -515.07977 4294966781
-86.741966 -790.59937 -515.53583 4294966781
-84.489532 -789.27069 -515.15082 4294966781
-82.544563 -790.61395 -515.59393 4294966781
-96.52108 -788.8512 -515.01422 4294966781
-44.225243 -833.8783 -514.80859 4294966782
-118.87363 -828.2912 -514.70081 4294966782
-116.96233 -828.42987 -514.90607 4294966782
-108.09579 -829.17157 -514.91803 4294966782
-105.59414 -829.34888 -514.59863 4294966782
-94.68306 -829.99945 -514.27258 4294966782
-90.363136 -830.27924 -514.42865 4294966782
-86.755638 -830.51202 -514.32263 4294966782
-84.975464 -830.67151 -514.84625 4294966782
73.534981 -810.34949 -514.91901 4294966782
-130.12717 -797.23096 -514.55481 4294966782
-126.25276 -796.8161 -514.9035 4294966782
-122.70547 -795.29968 -514.39856 4294966782
-112.50043 -789.32556 -514.2973 4294966782
-110.72736 -789.12646 -514.45593 4294966782
-106.71748 -789.06873 -514.80811 4294966782
-102.47347 -789.0116 -514.98969 4294966782
-108.13551 -788.87695 -514.64063 4294966782
-106.61205 -787.23413 -514.12738 4294966782
-104.04655 -786.96063 -514.12476 4294966782
-94.608391 -787.02863 -514.27924 4294966782
-92.691597 -787.29041 -514.38867 4294966782
-90.516991 -787.17621 -514.32227 4294966782
-88.883392 -787.03949 -514.24902 4294966782
-113.76772 -828.59991 -513.19153 4294966783
-111.66309 -828.78705 -513.22168 4294966783
-109.49591 -828.97327 -513.0033 4294966783
-102.52579 -829.52271 -513.83673 4294966783
-97.245911 -829.80731 -513.36908 4294966783
-88.555351 -830.3598 -513.73663 4294966783
-125.28985 -827.862 -513.41589 4294966783
-123.4337 -827.98029 -513.84991 4294966783
-138.75391 -797.34253 -513.87549 4294966783
-130.03856 -796.41974 -513.62402 4294966783
-128.14888 -795.0885 -513.13428 4294966783
-126.74534 -795.53705 -513.81537 4294966783
-124.43855 -794.01184 -513.4303 4294966783
-112.42287 -787.10315 -513.53754 4294966783
-110.38564 -787.04297 -513.74713 4294966783
-108.52552 -785.22327 -513.16193 4294966783
-106.33009 -784.94836 -513.17432 4294966783
-102.63948 -785.06415 -513.34399 4294966783
-92.32576 -785.12195 -513.43915 4294966783
-119.90623 -828.13348 -512.87012 4294966784
-117.81017 -828.2677 -512.81891 4294966784
-115.79993 -828.42377 -512.99725 4294966784
-107.21539 -829.15442 -512.66638 4294966784
-105.04202 -829.30988 -512.45001 4294966784
-99.816109 -829.6167 -512.20142 4294966784
-92.855904 -830.03015 -512.50012 4294966784
-87.675537 -830.36963 -512.36005 4294966784
-85.46537 -830.54419 -512.59894 4294966784
-123.80265 -827.87567 -512.17682 4294966784
-121.98791 -827.99939 -512.64319 4294966784
-139.17603 -796.85822 -512.44513 4294966784
-128.84464 -794.04102 -512.27979 4294966784
-126.27412 -793.19562 -512.61786 4294966784
-112.6057 -785.02063 -512.6842 4294966784
-110.71822 -783.23895 -512.16235 4294966784
-108.2167 -783.26617 -512.37396 4294966784
-104.30299 -783.13593 -512.49976 4294966784
-114.72188 -828.43414 -511.09006 4294966785
-112.78328 -828.60864 -511.22345 4294966785
-110.82091 -828.78839 -511.16977 4294966785
-103.76882 -829.35718 -511.21475 4294966785
-101.91762 -829.45972 -511.0065 4294966785
-95.504715 -829.83734 -511.70679 4294966785
-90.03125 -830.19006 -511.88287 4294966785
-134.21741 -795.99115 -511.69925 4294966785
-131.98984 -794.0545 -511.26736 4294966785
-130.52393 -793.22949 -511.36926 4294966785
-128.67276 -791.14795 -511.19415 4294966785
-126.69921 -790.39844 -511.56186 4294966785
-112.41837 -781.16364 -511.16171 4294966785
-108.2186 -781.10052 -511.53107 4294966785
-106.39766 -781.05865 -511.6304 4294966785
-118.74287 -828.10846 -510.34894 4294966786
-116.62796 -828.27698 -510.89349 4294966786
-108.75216 -828.9715 -510.85468 4294966786
-106.22109 -829.16687 -510.2374 4294966786
-97.795738 -829.66724 -510.58542 4294966786
-94.287178 -829.85791 -510.17081 4294966786
-92.314949 -829.98376 -510.11096 4294966786
-90.505333 -830.10327 -510.05176 4294966786
-125.3964 -827.72046 -510.66714 4294966786
-122.68487 -827.85889 -510.37869 4294966786
-120.76265 -827.99554 -510.8992 4294966786
-138.78488 -795.59894 -510.34375 4294966786
-130.58138 -790.66931 -510.40204 4294966786
-128.42201 -787.45367 -510.08475 4294966786
-124.54148 -784.9718 -510.26416 4294966786
-118.68477 -781.08252 -510.0697 4294966786
-113.11812 -779.62695 -510.53091 4294966786
-115.55904 -828.31274 -509.21298 4294966787
-113.81953 -828.45947 -509.16122 4294966787
-112.01133 -828.6333 -509.62802 4294966787
-110.32884 -828.78937 -509.17014 4294966787
-96.020958 -829.73315 -509.44012 4294966787
-88.179626 -830.25739 -509.01282 4294966787
-135.91707 -794.20276 -509.88846 4294966787
-134.4758 -792.2608 -509.45038 4294966787
-132.3024 -789.25006 -509.37982 4294966787
-130.6857 -787.12976 -509.24924 4294966787
-117.03377 -828.18939 -508.85074 4294966788
-108.31843 -828.97333 -508.81516 4294966788
-103.56937 -829.31354 -508.76025 4294966788
-100.42277 -829.48364 -508.99765 4294966788
-91.414558 -830.01636 -508.35422 4294966788
-120.70934 -827.90961 -508.09824 4294966788
-139.64322 -794.39624 -508.9794 4294966788
-136.20224 -792.16443 -508.79089 4294966788
-134.3763 -789.2998 -508.59692 4294966788
-132.65884 -787.45734 -508.63358 4294966788
-126.50222 -783.0531 -508.90771 4294966788
-126.69721 -781.32751 -508.1077 4294966788
-124.18096 -781.23621 -508.78827 4294966788
-122.60857 -779.58411 -508.57941 4294966788
-120.35171 -778.21033 -508.72369 4294966788
-118.31289 -828.07196 -507.5567 4294966789
-112.41983 -828.56079 -507.64093 4294966789
-97.803131 -829.59186 -507.55576 4294966789
-94.550743 -829.79297 -507.32394 4294966789
-123.599 -827.69635 -507.67249 4294966789
-140.70914 -793.21783 -507.76196 4294966789
-136.38344 -788.46063 -507.54376 4294966789
-134.39726 -787.16016 -507.85648 4294966789
-132.23299 -783.97394 -507.45142 4294966789
-130.58865 -783.31421 -507.75284 4294966789
-124.48052 -778.92365 -507.83115 4294966789
-122.16237 -777.13336 -507.97263 4294966789
-115.30837 -828.30035 -506.34354 4294966790
-113.22308 -828.4682 -506.19122 4294966790
-111.84456 -828.60126 -506.02887 4294966790
-109.77697 -828.81818 -506.84601 4294966790
-106.42012 -829.1156 -506.80774 4294966790
-104.09934 -829.26599 -506.67151 4294966790
-102.11992 -829.36462 -506.3093 4294966790
-99.945297 -829.45953 -506.51315 4294966790
-90.45446 -830.03723 -506.73096 4294966790
-124.94057 -827.55219 -506.00034 4294966790
-142.69913 -793.14044 -506.82779 4294966790
-141.32822 -790.5379 -506.25055 4294966790
-140.30643 -789.21771 -506.16409 4294966790
-135.0123 -785.19574 -506.90878 4294966790
-126.40534 -777.25934 -506.74506 4294966790
-96.805557 -829.63495 -505.41156 4294966791
-92.331863 -829.8736 -505.43906 4294966791
-123.44105 -827.64105 -505.33875 4294966791
-121.82254 -827.77313 -505.7717 4294966791
-112.64087 -828.52515 -504.80353 4294966792
-110.61635 -828.7323 -504.63547 4294966792
-108.41196 -828.95465 -504.38266 4294966792
-104.31855 -829.26166 -504.65839 4294966792
-100.56274 -829.43359 -504.84836 4294966792
-98.750435 -829.5271 -504.99283 4294966792
-95.536072 -829.73163 -504.57922 4294966792
-94.270271 -829.75433 -504.34146 4294966792
-119.2157 -827.98187 -504.43958 4294966792
-136.55795 -781.3515 -504.57834 4294966792
-132.59093 -777.19189 -504.49203 4294966792
-116.11565 -828.22961 -503.00992 4294966793
-111.34618 -828.66174 -503.05811 4294966793
-106.42332 -829.12842 -503.94977 4294966793
-102.11413 -829.37817 -503.59903 4294966793
-97.35022 -829.6543 -503.03839 4294966793
-89.898476 -829.89362 -503.91043 4294966793
-125.07159 -827.52039 -503.86191 4294966793
-122.23562 -827.73206 -503.51358 4294966793
-136.40292 -778.96289 -503.56284 4294966793
17.510668 -837.87708 -502.33633 4294966794
21.420397 -838.10687 -502.6622 4294966794
23.562269 -838.28394 -502.29953 4294966794
25.562281 -838.42151 -502.40237 4294966794
-36.558384 -834.06366 -502.20047 4294966794
-4.6111622 -836.31854 -502.35519 4294966794
-2.5994782 -836.4444 -502.46378 4294966794
-0.77042383 -836.53088 -502.85413 4294966794
1.597729 -836.72937 -502.28195 4294966794
-42.485664 -833.48682 -502.77167 4294966794
-38.649773 -833.84308 -502.67566 4294966794
-113.30182 -828.47168 -502.71594 4294966794
-109.70281 -828.83398 -502.73743 4294966794
-105.389 -829.20807 -502.54892 4294966794
-103.75508 -829.30664 -502.3541 4294966794
-99.941879 -829.50031 -502.85309 4294966794
-95.631584 -829.66486 -502.48203 4294966794
-83.973618 -830.34729 -502.60574 4294966794
-82.256866 -830.54675 -502.20062 4294966794
-80.764389 -830.77563 -502.90167 4294966794
-78.532066 -830.92969 -502.84854 4294966794
-107.56548 -829.02814 -501.31265 4294966795
-97.223274 -829.57324 -501.04816 4294966795
-93.507851 -829.5033 -501.60983 4294966795
-91.243271 -829.46918 -501.28259 4294966795
-87.871872 -829.78345 -501.88919 4294966795
-123.47682 -827.64807 -501.11267 4294966795
11.585574 -837.51154 -500.0918 4294966796
13.479723 -837.65277 -500.02792 4294966796
-38.482685 -834.0697 -500.2056 4294966796
-26.531538 -834.9079 -500.09799 4294966796
-16.791739 -835.63293 -500.11447 4294966796
-12.588894 -835.84027 -500.10764 4294966796
-4.7384896 -836.5177 -500.03262 4294966796
1.7216578 -836.91296 -500.04749 4294966796
-78.629486 -831.1322 -500.10034 4294966796
-76.790337 -831.24182 -500.31445 4294966796
-74.701439 -831.35889 -500.51593 4294966796
-46.516384 -833.2796 -500.2193 4294966796
-42.326752 -833.70117 -500.07913 4294966796
-117.67724 -828.13617 -500.93906 4294966796
-114.61127 -828.34412 -500.7244 4294966796
-112.79834 -828.52625 -500.47086 4294966796
-110.74081 -828.73608 -500.49292 4294966796
-104.86253 -829.22198 -500.41495 4294966796
-102.07664 -829.39404 -500.45035 4294966796
-99.312691 -829.43311 -500.42578 4294966796
-96.206932 -829.46649 -500.23041 4294966796
-89.769577 -829.3631 -500.66074 4294966796
-85.691307 -829.75873 -500.83765 4294966796
-83.070778 -830.14398 -500.27676 4294966796
-80.524559 -830.53857 -500.2644 4294966796
-120.57278 -827.91284 -500.71893 4294966796
5.3577404 -837.04565 -499.76578 4294966797
7.4774961 -837.17297 -499.88287 4294966797
9.3659801 -837.33118 -499.95657 4294966797
15.625334 -837.80927 -499.65613 4294966797
17.596258 -837.98431 -499.67181 4294966797
19.516273 -838.0755 -499.65509 4294966797
21.418877 -838.33838 -499.72797 4294966797
23.497343 -838.30219 -499.64218 4294966797
25.345583 -838.48828 -499.12891 4294966797
27.44936 -838.55048 -499.54855 4294966797
29.354469 -838.73621 -499.63666 4294966797
-36.631657 -834.26984 -499.96008 4294966797
-34.605759 -834.33118 -499.9093 4294966797
-28.613363 -834.77905 -499.8342 4294966797
-22.394863 -835.18713 -499.94025 4294966797
-18.649157 -835.42365 -499.70557 4294966797
-14.565266 -835.69537 -499.97549 4294966797
-10.632028 -836.16864 -499.56152 4294966797
-8.5766907 -836.23242 -499.75668 4294966797
-6.4734101 -836.3078 -499.88773 4294966797
-2.6781459 -836.64868 -499.83997 4294966797
-0.46760139 -836.81061 -499.88852 4294966797
-52.306084 -832.84546 -499.76129 4294966797
-44.493744 -833.4989 -499.85983 4294966797
-40.577587 -833.88245 -499.81854 4294966797
-98.050453 -829.34723 -499.25067 4294966797
-95.713127 -829.08856 -499.04761 4294966797
-88.195114 -829.00092 -499.54205 4294966797
-74.963364 -831.48828 -498.26904 4294966798
-120.36448 -828.02313 -498.1333 4294966798
-118.36057 -828.1557 -498.36191 4294966798
-116.48489 -828.28302 -498.51001 4294966798
-108.65638 -828.93463 -498.44315 4294966798
-103.94147 -829.10297 -498.46164 4294966798
-102.54572 -829.15155 -498.526 4294966798
-101.26374 -829.16376 -498.5206 4294966798
-99.715996 -829.07458 -498.17084 4294966798
-97.577209 -828.96393 -498.20047 4294966798
-94.518311 -828.70459 -498.63977 4294966798
-91.945587 -828.56622 -498.97931 4294966798
-89.854042 -828.58826 -498.96957 4294966798
-86.557983 -828.48853 -498.26419 4294966798
-84.157104 -829.26526 -498.66168 4294966798
-82.777214 -829.69495 -498.68008 4294966798
-81.7948 -829.95203 -498.81116 4294966798
-124.69404 -827.53894 -498.83105 4294966798
-122.5181 -827.77747 -498.58081 4294966798
9.3378344 -837.02332 -497.83447 4294966799
11.64264 -837.22418 -497.71121 4294966799
13.793078 -837.36609 -497.75101 4294966799
15.27746 -837.45758 -497.58163 4294966799
17.542759 -837.7171 -497.5835 4294966799
19.305632 -837.71765 -497.65659 4294966799
23.366215 -837.92236 -497.73145 4294966799
27.325354 -838.23376 -497.84915 4294966799
-34.780994 -834.28717 -497.77017 4294966799
-30.697281 -834.42493 -497.62863 4294966799
-27.077641 -834.67975 -497.88391 4294966799
-24.532967 -834.77173 -497.53854 4294966799
-22.489155 -834.92249 -497.60327 4294966799
-20.419275 -835.10992 -497.76617 4294966799
-14.363983 -835.48694 -497.66315 4294966799
-12.429495 -835.60406 -497.5918 4294966799
-10.450226 -835.75946 -497.6228 4294966799
-8.3156052 -835.89532 -497.65869 4294966799
-6.596736 -836.03455 -497.64258 4294966799
-4.5490041 -836.12994 -497.59 4294966799
-0.42192098 -836.35156 -497.90915 4294966799
1.3202729 -836.66193 -497.84177 4294966799
3.6258013 -836.77124 -497.79788 4294966799
7.3068585 -836.88342 -497.86911 4294966799
-76.510101 -831.2879 -497.71838 4294966799
-72.704353 -831.66742 -497.74771 4294966799
-70.557007 -831.61963 -497.45978 4294966799
-68.620743 -831.7345 -497.18906 4294966799
-66.680626 -831.87146 -497.06497 4294966799
-62.563873 -832.23834 -497.49026 4294966799
-44.416977 -833.23486 -497.14203 4294966799
-42.690945 -833.31177 -497.10165 4294966799
-40.867729 -833.56409 -497.9425 4294966799
-38.253834 -833.98364 -497.892 4294966799
-112.76465 -828.51648 -497.96164 4294966799
-110.23638 -828.79028 -497.62289 4294966799
-106.36696 -829.06799 -497.87354 4294966799
-101.23912 -828.76868 -497.10703 4294966799
-98.78344 -829.00732 -497.90009 4294966799
-81.969757 -828.69397 -497.11255 4294966799
-80.507568 -829.9043 -497.94681 4294966799
-78.470825 -830.24792 -497.32925 4294966799
-89.732437 -826.9068 -497.04944 4294966799
-84.702209 -827.7453 -497.00256 4294966799
17.657885 -837.24298 -496.43182 4294966800
19.266281 -837.10223 -496.28583 4294966800
21.614983 -837.185 -496.32727 4294966800
23.222654 -837.3468 -496.52542 4294966800
25.834898 -837.46582 -496.53079 4294966800
27.230661 -837.54236 -496.4017 4294966800
-26.782173 -834.21381 -496.48825 4294966800
-24.440578 -834.26105 -496.23248 4294966800
-22.719343 -834.46484 -496.43362 4294966800
-18.445803 -834.74915 -496.37918 4294966800
-14.618695 -835.01239 -496.47531 4294966800
-12.861655 -835.15167 -496.50766 4294966800
-10.67617 -835.31622 -496.49057 4294966800
-7.0753498 -835.54028 -496.40829 4294966800
-4.7453213 -835.38232 -496.01938 4294966800
-2.6969557 -835.98053 -496.52222 4294966800
11.360041 -836.82245 -496.68646 4294966800
13.628942 -836.91638 -496.46646 4294966800
-64.748711 -832.02545 -496.8562 4294966800
-60.589375 -832.50208 -496.80405 4294966800
-58.275169 -832.35785 -496.82932 4294966800
-56.690117 -832.47675 -496.79492 4294966800
-54.571045 -832.58228 -496.76215 4294966800
-50.548027 -832.84241 -496.11676 4294966800
-46.585533 -833.02777 -496.86081 4294966800
-41.261848 -833.06488 -496.1611 4294966800
-36.946735 -833.52069 -496.40155 4294966800
-32.662945 -833.77283 -496.38846 4294966800
-110.69071 -828.7243 -496.01822 4294966800
-106.19711 -828.61749 -496.22137 4294966800
-104.86286 -828.82642 -496.92657 4294966800
-103.04183 -828.78333 -496.99048 4294966800
-100.00411 -828.18121 -496.47531 4294966800
-79.756226 -829.34125 -496.63608 4294966800
-126.77116 -827.41199 -496.7308 4294966800
-97.027092 -827.9342 -496.92703 4294966800
-94.623573 -827.44788 -496.91376 4294966800
-92.705032 -826.97455 -496.77786 4294966800
-86.805771 -826.93726 -496.70416 4294966800
-83.289009 -826.9389 -496.13416 4294966800
29.507755 -837.52753 -495.81146 4294966801
-16.532166 -834.00842 -495.01688 4294966801
-12.575814 -834.25616 -495.0224 4294966801
-10.667706 -834.71857 -495.31509 4294966801
-8.6496897 -834.73639 -495.30432 4294966801
-3.2380927 -835.26843 -495.68448 4294966801
1.4687955 -835.76868 -495.97543 4294966801
9.3069201 -835.89508 -495.05939 4294966801
15.56634 -836.69952 -495.66 4294966801
20.943317 -835.80157 -495.10532 4294966801
23.80908 -835.32867 -495.0741 4294966801
-76.569412 -831.05219 -495.82932 4294966801
-66.788261 -831.56256 -495.46762 4294966801
-64.255966 -831.9007 -495.59161 4294966801
-60.408394 -831.88519 -495.60571 4294966801
-54.475925 -832.33716 -495.68668 4294966801
-52.775471 -832.42706 -495.16187 4294966801
-48.354996 -832.72382 -495.44315 4294966801
-44.55648 -832.93536 -495.73114 4294966801
-42.473373 -833.00189 -495.91006 4294966801
-34.785156 -832.72119 -495.09122 4294966801
-32.669613 -832.91046 -495.15158 4294966801
-30.68708 -833.16846 -495.29233 4294966801
-28.574966 -833.57861 -495.59647 4294966801
-26.545284 -833.66211 -495.50876 4294966801
-24.533337 -833.52759 -495.15482 4294966801
-22.803833 -833.79272 -495.32715 4294966801
-20.386002 -833.95477 -495.24545 4294966801
-120.39735 -828.17871 -495.73672 4294966801
-118.4733 -828.32294 -495.85065 4294966801
-114.4895 -828.45605 -495.71854 4294966801
-108.45248 -828.4231 -495.93982 4294966801
-106.47123 -828.14178 -495.22968 4294966801
-104.83416 -828.27728 -495.66934 4294966801
-103.5653 -828.15881 -495.72449 4294966801
-102.33051 -828.19434 -495.94818 4294966801
-79.474152 -828.11261 -495.57553 4294966801
-78.294754 -828.9248 -495.52313 4294966801
-77.808754 -828.93762 -495.24258 4294966801
-76.942917 -828.90204 -495.17297 4294966801
-122.39674 -827.9715 -495.88092 4294966801
-102.03032 -827.61237 -495.41324 4294966801
-101.6262 -826.83069 -495.01743 4294966801
-99.711014 -826.35883 -495.14435 4294966801
-97.21566 -825.71002 -495.22 4294966801
-94.593704 -825.90918 -495.72552 4294966801
-92.856964 -825.47168 -495.74515 4294966801
-87.72551 -825.46271 -495.88852 4294966801
-85.181015 -825.2937 -495.57495 4294966801
-81.234512 -825.70599 -495.12473 4294966801
-91.805878 -823.85492 -495.20825 4294966801
-89.35994 -824.33868 -495.4664 4294966801
-14.608522 -834.09705 -494.97586 4294966802
-6.7263565 -834.32532 -494.88412 4294966802
6.1086617 -835.17151 -494.74545 4294966802
15.290499 -835.44318 -494.66943 4294966802
17.341476 -834.9726 -494.44565 4294966802
19.73299 -835.39642 -494.90604 4294966802
22.988359 -834.3335 -494.57544 4294966802
27.217159 -835.03467 -494.84476 4294966802
-64.509506 -831.20953 -494.26593 4294966802
-62.663906 -831.3786 -494.72952 4294966802
-58.745697 -831.43042 -494.66608 4294966802
-55.886417 -831.63806 -494.65942 4294966802
-54.369194 -831.6554 -494.49802 4294966802
-52.739105 -832.1264 -494.60303 4294966802
-50.619572 -832.1225 -494.30533 4294966802
-42.512794 -832.37012 -494.74832 4294966802
-40.450027 -832.32434 -494.72958 4294966802
-38.537483 -832.32635 -494.70602 4294966802
-26.643362 -831.45087 -494.00699 4294966802
-22.898495 -832.10242 -494.13416 4294966802
-20.855875 -832.10596 -494.05923 4294966802
-12.421425 -832.57874 -494.02304 4294966802
-10.41789 -833.44739 -494.37543 4294966802
-8.6238461 -832.50128 -494.00397 4294966802
-7.0885901 -832.62268 -494.09647 4294966802
-5.0499716 -833.81531 -494.55048 4294966802
-0.57219994 -833.99371 -494.62195 4294966802
17.487181 -833.14453 -494.18637 4294966802
18.689459 -833.5376 -494.47839 4294966802
21.957048 -832.30487 -494.41141 4294966802
-112.3473 -828.14093 -494.32861 4294966802
-110.60828 -828.30908 -494.48697 4294966802
-74.737595 -830.92633 -494.82748 4294966802
-68.165764 -830.82794 -494.19296 4294966802
-60.373192 -830.71967 -494.01096 4294966802
-128.33257 -827.37219 -494.42908 4294966802
-109.73071 -827.58453 -494.0282 4294966802
-107.21941 -827.14697 -494.15909 4294966802
-105.64968 -827.75848 -494.80035 4294966802
-104.09097 -827.02856 -494.6752 4294966802
-78.393326 -827.0332 -494.82346 4294966802
-77.080528 -826.61603 -494.46054 4294966802
-102.38062 -824.75311 -494.0488 4294966802
-99.952652 -824.46765 -494.29514 4294966802
-98.617775 -823.61298 -494.20941 4294966802
-95.541832 -823.58038 -494.6496 4294966802
-87.763176 -823.27948 -494.99298 4294966802
-85.67971 -822.29541 -494.65051 4294966802
-83.576332 -823.65955 -494.80896 4294966802
-82.00959 -823.51929 -494.60608 4294966802
-79.554504 -823.83533 -494.33972 4294966802
-93.622475 -820.75647 -494.2468 4294966802
-90.257591 -821.9776 -494.66116 4294966802
-88.225243 -820.68616 -494.39835 4294966802
-85.841049 -819.75293 -494.23676 4294966802
-82.844284 -821.38611 -494.30347 4294966802
-80.077881 -820.78772 -494.01773 4294966802
-48.218975 -831.87042 -493.89545 4294966803
-44.799713 -831.51801 -493.79254 4294966803
-43.024658 -831.2746 -493.849 4294966803
-33.038799 -831.3902 -493.94705 4294966803
-31.09103 -831.32501 -493.94144 4294966803
-28.070297 -831.19019 -493.90289 4294966803
-23.792149 -831.37537 -493.9494 4294966803
-18.612467 -832.02075 -493.95773 4294966803
-14.529454 -832.22333 -493.97766 4294966803
-12.977663 -831.3053 -493.61002 4294966803
-7.1362305 -831.16974 -493.65915 4294966803
-118.35699 -828.00024 -493.67245 4294966803
-66.684967 -828.82446 -493.06732 4294966803
-64.954926 -829.93457 -493.41388 4294966803
-61.705032 -829.42737 -493.40836 4294966803
-58.340382 -828.70734 -493.46677 4294966803
-57.165443 -828.81482 -493.47519 4294966803
-56.196251 -829.85663 -493.72144 4294966803
-54.672707 -829.67407 -493.61365 4294966803
-52.331657 -829.54773 -493.36801 4294966803
-50.639271 -829.85907 -493.3685 4294966803
-49.066471 -829.38995 -493.22247 4294966803
-46.871098 -829.33429 -493.28235 4294966803
-42.843586 -829.73297 -493.4993 4294966803
-40.656876 -829.89746 -493.41443 4294966803
-36.44492 -830.02716 -493.37497 4294966803
-31.520357 -829.91064 -493.50107 4294966803
-28.584625 -828.28821 -493.25323 4294966803
-26.42174 -828.04681 -493.38492 4294966803
-24.868704 -830.26904 -493.65628 4294966803
-22.471956 -830.18866 -493.47824 4294966803
-20.526295 -830.65662 -493.54355 4294966803
-18.642845 -829.52362 -493.75555 4294966803
-10.094342 -830.68542 -493.57941 4294966803
-126.42877 -827.61353 -493.9173 4294966803
-124.3618 -827.65259 -493.64224 4294966803
-122.32968 -827.71521 -493.7655 4294966803
-116.39197 -827.89404 -493.40381 4294966803
-112.6921 -827.52563 -493.0769 4294966803
-107.65627 -825.13367 -493.02448 4294966803
-106.03806 -826.04724 -493.70062 4294966803
-73.533524 -826.34406 -493.78452 4294966803
-67.348419 -827.94495 -493.00186 4294966803
-105.3225 -824.57001 -493.41788 4294966803
-98.509621 -822.00006 -493.90802 4294966803
-76.887619 -823.92554 -493.99994 4294966803
-74.119354 -822.89545 -493.62878 4294966803
-104.50329 -821.98108 -493.09485 4294966803
-103.63107 -820.09821 -493.065 4294966803
-101.49455 -821.71051 -493.5304 4294966803
-99.833862 -819.84381 -493.5502 4294966803
-97.02597 -820.61597 -493.90912 4294966803
-78.78244 -819.36816 -493.87369 4294966803
-77.859428 -821.13037 -493.88339 4294966803
-75.356499 -820.94073 -493.70993 4294966803
-102.38265 -818.70569 -493.21555 4294966803
-100.88746 -817.65924 -493.36261 4294966803
-98.584114 -818.19159 -493.58923 4294966803
-81.075485 -818.81604 -493.99463 4294966803
-130.34618 -827.16724 -492.02414 4294966804
-128.05049 -827.25531 -492.09784 4294966804
-118.48122 -827.4975 -492.5415 4294966804
-114.59319 -827.25513 -492.68295 4294966804
-109.91462 -826.25525 -492.89789 4294966804
-110.19872 -824.06189 -492.09842 4294966804
-107.51115 -822.31824 -492.57349 4294966804
-107.67348 -819.17566 -492.44601 4294966804
-106.21509 -820.69592 -492.67075 4294966804
-105.15688 -819.79779 -492.81097 4294966804
-105.14584 -817.76666 -492.83252 4294966804
-126.32093 -827.33112 -491.92108 4294966805
-124.32056 -827.37524 -491.83853 4294966805
-122.46624 -827.38647 -491.90048 4294966805
-120.4968 -826.73895 -491.05322 4294966805
-115.83891 -825.47437 -491.16696 4294966805
-112.29918 -825.6626 -491.59473 4294966805
-112.72285 -823.87561 -491.14725 4294966805
-111.22746 -820.69812 -491.80325 4294966805
-126.35836 -826.95264 -490.41843 4294966806
-124.50829 -826.8775 -490.53052 4294966806
-122.66149 -826.73138 -490.64511 4294966806
-116.50376 -824.54559 -490.72198 4294966806
-136.24864 -826.71124 -489.8381 4294966807
-134.16345 -826.67218 -489.70108 4294966807
-132.35078 -826.80347 -489.8678 4294966807
-128.27637 -826.85071 -489.87228 4294966807
-126.33991 -826.05273 -488.24594 4294966808
-139.95064 -826.47174 -487.69211 4294966809
-138.06273 -826.56268 -487.68713 4294966809
-134.3055 -826.38538 -487.84256 4294966809
-129.52844 -826.15869 -487.625 4294966809
-138.07983 -826.04633 -486.04382 4294966810
-136.52747 -826.00305 -486.40329 4294966810
-134.4938 -825.99585 -486.74396 4294966810
-142.00623 -826.09363 -485.8573 4294966811
-133.78078 -825.04156 -485.29291 4294966811
-132.84315 -825.31873 -485.75125 4294966811
-138.54951 -825.22003 -484.11328 4294966812
-134.72134 -824.90222 -484.92538 4294966812
-145.44449 -825.84131 -483.88522 4294966813
-142.01427 -825.72748 -483.77817 4294966813
-136.52826 -823.27661 -483.35577 4294966813
-150.35092 -825.31561 -482.58368 4294966814
-144.15462 -825.43408 -482.07043 4294966814
-142.48526 -825.35388 -482.65344 4294966814
-140.63469 -825.0166 -482.85254 4294966814
-138.52405 -823.40564 -482.63129 4294966814
-147.91702 -825.53638 -481.56015 4294966815
-145.71443 -825.49237 -481.77594 4294966815
-140.56436 -823.50183 -481.49097 4294966815
-140.63622 -811.15271 -481.31262 4294966815
-152.15181 -825.13507 -480.39221 4294966816
-144.58717 -825.07935 -480.86365 4294966816
-140.42006 -822.5957 -480.90674 4294966816
-142.49124 -812.96271 -480.14871 4294966816
-141.4375 -801.07275 -480.75583 4294966816
-141.91562 -799.18585 -480.42303 4294966816
-142.34578 -796.87567 -480.1236 4294966816
-149.91066 -825.30817 -479.97397 4294966817
-147.70863 -825.26495 -479.89209 4294966817
-143.29753 -824.05652 -479.94104 4294966817
-142.15164 -821.12317 -479.50986 4294966817
-154.02553 -824.87177 -478.06531 4294966818
-148.0112 -824.88934 -478.23047 4294966818
-146.54958 -824.76917 -478.85895 4294966818
-145.40985 -823.52588 -478.0238 4294966818
-144.4968 -822.79077 -478.44467 4294966818
-144.51671 -817.18188 -478.3266 4294966818
-144.62242 -814.05615 -478.59225 4294966818
-149.44855 -825.01489 -477.46872 4294966819
-151.38016 -824.95959 -477.47314 4294966819
-146.60834 -823.7254 -477.42545 4294966819
-148.29413 -824.48859 -476.57578 4294966820
-146.41992 -821.51813 -476.86624 4294966820
-155.53743 -824.63483 -475.44562 4294966821
-153.19841 -824.64001 -475.16364 4294966821
-151.55853 -824.73419 -475.76511 4294966821
-148.98827 -823.85724 -475.51282 4294966821
-148.42888 -821.83148 -475.3732 4294966821
-158.04349 -824.59198 -474.19699 4294966822
-150.66881 -824.34503 -474.99289 4294966822
-155.56021 -824.56042 -473.83215 4294966823
-151.48773 -824.22668 -473.51456 4294966823
-150.93329 -823.69434 -473.82269 4294966823
-150.13547 -821.88971 -473.9791 4294966823
-150.31752 -817.81775 -473.63641 4294966823
-160.07266 -824.34088 -472.31659 4294966824
-154.33853 -824.22308 -472.54211 4294966824
-152.42761 -823.22705 -472.55103 4294966824
-157.82527 -824.38226 -471.92386 4294966825
-152.40375 -819.1264 -471.58499 4294966825
-154.93901 -823.77698 -470.97198 4294966826
-153.92984 -818.28442 -470.13559 4294966826
-153.96176 -808.95483 -470.3945 4294966826
-153.92746 -804.87103 -470.22357 4294966826
-161.25752 -823.96454 -469.62436 4294966827
-159.76724 -824.02167 -469.93332 4294966827
-157.69504 -823.88702 -469.87091 4294966827
-155.61049 -822.9646 -469.22049 4294966827
-154.89891 -821.62408 -469.42267 4294966827
-155.12671 -814.3606 -469.08478 4294966827
-155.04332 -811.10382 -469.31488 4294966827
-155.14285 -809.23047 -469.16998 4294966827
-154.94009 -805.01721 -469.17358 4294966827
-161.71559 -823.75128 -468.04633 4294966828
-155.52374 -822.22571 -468.86676 4294966828
-155.32126 -818.16779 -468.58029 4294966828
-155.04918 -801.22168 -468.897 4294966828
-158.78421 -823.34387 -467.30298 4294966829
-157.58115 -823.3692 -467.96399 4294966829
-156.31682 -821.87457 -467.97223 4294966829
-156.28468 -816.54657 -467.66034 4294966829
-156.79053 -813.73541 -467.46045 4294966829
-157.02 -810.88434 -467.14703 4294966829
-156.79976 -808.77155 -467.29462 4294966829
-156.55453 -806.75897 -467.47675 4294966829
-156.40665 -803.01349 -467.42175 4294966829
-160.05272 -823.32465 -466.50131 4294966830
-157.18594 -819.14203 -466.65656 4294966830
-157.78018 -807.90552 -466.09048 4294966830
-156.9093 -805.39087 -466.9841 4294966830
-156.71692 -799.45642 -466.90219 4294966830
-163.09743 -823.4624 -465.85587 4294966831
-161.31387 -823.36047 -465.79434 4294966831
-160.74594 -823.08057 -465.10382 4294966831
-158.8082 -821.89423 -465.31766 4294966831
-158.79372 -811.08118 -465.08823 4294966831
-158.25165 -799.2431 -465.03214 4294966831
-165.7961 -823.46802 -464.34036 4294966832
-162.86278 -823.18958 -464.00064 4294966832
-159.16589 -821.39667 -464.42224 4294966832
-159.16545 -813.53363 -464.83215 4294966832
-158.80746 -809.30908 -464.97479 4294966832
-158.56671 -805.16656 -464.97754 4294966832
-158.63969 -803.20483 -464.73453 4294966832
-158.39696 -800.80774 -464.90973 4294966832
-158.33322 -795.51764 -464.79413 4294966832
-160.04094 -808.45172 -463.2894 4294966833
-167.75446 -823.36078 -462.20883 4294966834
-163.54909 -822.91248 -462.1846 4294966834
-161.01459 -822.14203 -462.55655 4294966834
-160.30061 -819.5061 -462.48822 4294966834
-160.20087 -807.2019 -462.97232 4294966834
-159.85628 -801.02533 -462.96646 4294966834
-165.5554 -822.95105 -460.23935 4294966836
-161.62103 -819.68573 -460.45819 4294966836
-161.89787 -811.55426 -460.72852 4294966836
-163.18298 -821.11438 -459.23529 4294966837
-163.01981 -811.25824 -459.08261 4294966837
-169.71925 -823.06128 -458.34833 4294966838
-167.42236 -822.9129 -458.30124 4294966838
-166.00339 -822.72791 -458.67834 4294966838
-163.14575 -819.74286 -458.73303 4294966838
-163.49455 -814.57684 -457.99033 4294966839
-171.68073 -822.73889 -456.08475 4294966840
-169.36244 -822.79663 -456.04837 4294966840
-167.84285 -822.60864 -456.19492 4294966840
-166.52306 -822.2511 -456.47632 4294966840
-165.20578 -821.58246 -456.75482 4294966840
-164.60974 -819.79254 -456.32355 4294966840
-164.32162 -816.17999 -456.3266 4294966840
-164.38553 -811.98798 -456.61365 4294966840
-164.34927 -809.2868 -456.72516 4294966840
-174.08784 -822.42035 -454.79764 4294966842
-171.62495 -822.68134 -454.61224 4294966842
-169.8567 -822.6015 -454.42053 4294966842
-168.15643 -822.29376 -454.63098 4294966842
-166.58997 -821.62524 -454.93439 4294966842
-165.60046 -819.74658 -454.71866 4294966842
-165.41272 -816.01373 -454.32751 4294966842
-165.46013 -813.5271 -454.58038 4294966842
-165.47556 -811.05072 -454.81036 4294966842
-165.53174 -809.04633 -454.67252 4294966842
-166.13121 -813.28296 -453.34521 4294966843
-173.97437 -822.50665 -452.55261 4294966844
-171.57346 -822.4873 -452.22842 4294966844
-168.64188 -821.89166 -452.64673 4294966844
-167.19112 -820.98529 -452.99915 4294966844
-166.78401 -820.10187 -452.8049 4294966844
-166.51884 -818.48114 -452.43756 4294966844
-166.22438 -815.80066 -452.73611 4294966844
-166.48752 -810.89771 -452.86981 4294966844
-168.59848 -821.21735 -451.17978 4294966845
-173.43573 -822.34003 -450.36151 4294966846
-171.5769 -822.21466 -450.46692 4294966846
-170.06718 -821.93317 -450.99872 4294966846
-167.90179 -819.8606 -450.7164 4294966846
-167.04318 -816.2525 -450.72623 4294966846
-167.56259 -813.05176 -450.43271 4294966846
-167.45813 -811.33008 -450.85834 4294966846
-167.63318 -818.16351 -449.80457 4294966847
-175.92229 -822.04803 -448.505 4294966848
-173.55157 -822.0976 -448.27423 4294966848
-171.69315 -821.83026 -448.21625 4294966848
-170.1279 -821.22174 -448.73633 4294966848
-168.27228 -817.27594 -448.48163 4294966848
-168.25264 -813.43127 -448.75275 4294966848
-170.54491 -820.94574 -447.12128 4294966849
-175.98802 -822.013 -446.80853 4294966850
-173.34178 -821.81006 -446.25943 4294966850
-172.00441 -821.59393 -446.8862 4294966850
-169.25749 -818.53967 -446.68634 4294966850
-169.06032 -813.56689 -446.84811 4294966850
-168.93671 -815.96497 -446.5528 4294966850
-170.46095 -819.65369 -445.03815 4294966851
-175.47917 -821.79877 -444.14642 4294966852
-173.7942 -821.66449 -444.62387 4294966852
-169.65263 -816.69312 -444.56049 4294966852
-175.55006 -821.81036 -442.42142 4294966854
-173.5943 -821.32422 -442.5188 4294966854
-170.44711 -817.42938 -442.72412 4294966854
-172.76373 -820.64838 -441.05029 4294966855
-175.16876 -821.43695 -440.26431 4294966856
-171.12936 -817.03455 -440.30389 4294966856
-177.77278 -821.56732 -438.70663 4294966858
-175.33311 -821.23773 -438.49069 4294966858
-172.51599 -819.68701 -438.93839 4294966858
-171.84644 -817.33997 -438.78979 4294966858
-175.58385 -821.00146 -436.45401 4294966860
-173.17279 -819.65039 -436.5661 4294966860
-172.31062 -813.40686 -436.8645 4294966860
-172.68352 -814.01654 -435.05899 4294966861
-176.95261 -821.02905 -434.53912 4294966862
-173.11205 -818.2146 -434.75122 4294966862
-172.8217 -809.07611 -434.95404 4294966862
-176.0087 -820.6026 -432.62012 4294966864
-173.08228 -817.30267 -432.64847 4294966864
-173.12274 -813.69629 -432.75238 4294966864
-173.18552 -811.28925 -432.81757 4294966864
-174.53882 -819.53455 -431.07791 4294966865
-173.4538 -811.47009 -431.12085 4294966865
-177.22943 -820.79712 -430.81702 4294966866
-173.59392 -816.95728 -430.6575 4294966866
-173.41931 -813.96851 -430.58322 4294966866
-173.81233 -816.90271 -429.22238 4294966867
-179.57443 -820.82141 -428.77301 4294966868
-176.18494 -820.30743 -428.93405 4294966868
-174.25854 -818.34912 -428.75916 4294966868
-173.7677 -811.24677 -428.85132 4294966868
-177.37537 -820.49426 -426.49536 4294966870
-175.12416 -819.3208 -426.82001 4294966870
-174.49792 -818.25403 -426.89673 4294966870
-173.80441 -813.79321 -426.81033 4294966870
-174.8049 -818.30389 -425.06625 4294966871
-173.93187 -814.06549 -425.1412 4294966871
-178.6666 -820.57074 -424.54239 4294966872
-174.15596 -816.24469 -424.79663 4294966872
-174.45943 -816.60242 -423.07242 4294966873
-181.35625 -820.43512 -422.65289 4294966874
-178.78441 -820.69647 -422.60236 4294966874
-175.99521 -819.51208 -422.88831 4294966874
-174.93497 -817.97998 -422.75549 4294966874
-174.13246 -813.93805 -422.70432 4294966874
-174.29121 -811.02521 -422.76523 4294966874
-176.11987 -819.35657 -421.03171 4294966875
-179.23148 -820.40973 -420.7829 4294966876
-174.60541 -816.38867 -420.68686 4294966876
-174.23399 -813.86523 -420.80545 4294966876
-179.46919 -820.28796 -419.16183 4294966877
-177.59973 -819.99622 -419.0119 4294966877
-175.11586 -817.56915 -418.82111 4294966878
-174.28754 -814.13013 -418.78223 4294966878
-179.20541 -820.3808 -417.04837 4294966879
-176.30522 -819.18256 -417.12244 4294966879
-174.73863 -816.36462 -416.81326 4294966880
-178.84657 -820.03503 -414.67789 4294966882
-176.26057 -819.11096 -414.7496 4294966882
-174.38162 -814.30182 -414.76941 4294966882
-178.76993 -819.9389 -412.6387 4294966884
-177.41438 -819.82922 -412.73679 4294966884
-176.14417 -818.92902 -412.57678 4294966884
-175.22073 -817.83276 -412.89056 4294966884
-174.8627 -816.55176 -412.94397 4294966884
-174.42857 -814.14557 -412.87936 4294966884
-174.93553 -816.58337 -411.01782 4294966885
-178.73479 -819.82367 -410.48471 4294966886
-176.34508 -818.97333 -410.63046 4294966886
-175.25092 -817.78369 -410.92145 4294966886
-175.42229 -817.53668 -409.0741 4294966887
-178.60962 -819.6828 -408.16141 4294966888
-175.00772 -816.49548 -408.69641 4294966888
-174.54927 -814.47021 -408.91895 4294966888
-175.53197 -817.51117 -407.008 4294966889
-176.18352 -818.39343 -406.9093 4294966890
-179.60101 -819.5025 -405.14944 4294966891
-176.16907 -818.08569 -404.86771 4294966892
-179.17543 -819.28564 -402.67026 4294966894
-177.88628 -818.99475 -402.86572 4294966894
-181.18098 -819.40167 -400.57581 4294966896
-179.66589 -819.23749 -400.94699 4294966896
-176.51373 -818.11249 -400.92899 4294966896
-175.38596 -816.0379 -400.56555 4294966896
-174.851 -814.94745 -400.90604 4294966896
-182.06068 -819.1842 -398.95999 4294966898
-178.47882 -818.88464 -398.61267 4294966898
-176.26576 -817.55286 -398.86118 4294966898
-175.52129 -816.32825 -398.70609 4294966898
-174.8475 -814.32465 -398.55142 4294966898
-177.99976 -818.59924 -396.6586 4294966900
-176.54523 -817.69556 -396.77603 4294966900
-175.13115 -814.5675 -395.14929 4294966901
-181.55238 -819.05151 -394.97525 4294966902
-178.10231 -818.59265 -394.83997 4294966902
-179.51198 -818.89319 -393.00235 4294966903
-176.52193 -817.52484 -392.9599 4294966904
-175.00252 -814.35913 -392.60574 4294966904
-181.57379 -818.88074 -390.80435 4294966906
-179.15511 -818.72559 -390.21155 4294966906
-178.15723 -818.40979 -390.70132 4294966906
-176.80519 -817.62958 -390.854 4294966906
-175.23727 -814.13928 -390.52579 4294966906
-179.48495 -818.69556 -388.7002 4294966908
-178.17717 -818.28802 -388.72299 4294966908
-175.80177 -816.05804 -388.75659 4294966908
-175.36852 -814.50592 -388.95966 4294966908
-176.79617 -817.16986 -386.9649 4294966910
-175.33348 -814.46442 -386.9928 4294966910
-179.4695 -818.61108 -384.76361 4294966912
-177.35286 -817.48456 -384.96951 4294966912
-176.15758 -815.95605 -384.6647 4294966912
-177.84064 -817.7168 -382.89084 4294966914
-179.50644 -818.47034 -380.88928 4294966916
-176.27119 -815.66296 -380.9382 4294966916
-177.55315 -817.36719 -378.74872 4294966918
-176.26378 -815.62836 -378.70926 4294966918
-175.82788 -814.27161 -378.31595 4294966918
-181.3246 -818.43994 -376.36411 4294966920
-178.2747 -817.64893 -376.76794 4294966920
-176.34834 -815.59961 -376.7995 4294966920
-175.87183 -814.27942 -376.34409 4294966920
-180.76956 -818.12054 -374.69772 4294966922
-179.47702 -818.01117 -374.80835 4294966922
-176.37411 -815.4707 -374.79733 4294966922
-175.85683 -814.24048 -374.68509 4294966922
-175.50307 -812.14819 -374.81787 4294966922
-180.83815 -818.0636 -372.98532 4294966924
-178.38255 -817.48517 -372.80557 4294966924
-176.44191 -815.53345 -372.69131 4294966924
-175.98204 -814.44629 -372.7955 4294966924
-181.87038 -818.02966 -370.76752 4294966926
-179.37694 -817.73828 -370.48077 4294966926
-177.62355 -816.95929 -370.68463 4294966926
-176.11339 -814.61292 -370.64819 4294966926
-175.53824 -812.41632 -370.78665 4294966926
-177.71257 -816.91388 -369.07507 4294966927
-175.58995 -812.45728 -369.11066 4294966927
-181.26758 -817.82843 -368.85562 4294966928
-176.14885 -814.48309 -368.9758 4294966928
-179.38298 -817.52148 -367.0538 4294966929
-178.13289 -817.04047 -367.32712 4294966929
-176.45746 -815.01685 -367.23093 4294966929
-175.69911 -812.29962 -366.71368 4294966930
-175.75577 -812.78235 -365.39822 4294966931
-179.45227 -817.46393 -364.9072 4294966932
-177.77258 -816.72546 -364.7684 4294966932
-181.5311 -817.59265 -362.99225 4294966934
-179.34583 -817.33826 -362.54745 4294966934
-176.85109 -815.51862 -362.85513 4294966934
-176.48367 -814.5592 -361.05472 4294966935
-181.18529 -817.69196 -360.83698 4294966936
-177.93895 -816.69226 -360.93896 4294966936
-181.38771 -817.44275 -358.72345 4294966938
-178.41008 -816.83966 -358.76724 4294966938
-177.15099 -815.76917 -358.79425 4294966938
-176.47798 -814.33014 -358.50275 4294966938
-178.34894 -816.74286 -357.19397 4294966939
-181.26402 -817.48822 -356.6629 4294966940
-179.48068 -817.12988 -356.96069 4294966940
-177.08704 -815.57489 -356.97476 4294966940
-176.51578 -814.2088 -356.55829 4294966940
-180.8604 -817.19171 -354.9902 4294966942
-178.23788 -816.75281 -354.96402 4294966942
-177.05623 -815.64703 -354.76447 4294966942
-180.50085 -817.06482 -352.74796 4294966944
-177.78285 -816.45367 -352.97455 4294966944
-176.47321 -813.5058 -352.8439 4294966944
-177.4043 -816.07855 -351.01361 4294966945
-180.14893 -816.82959 -348.4111 4294966948
-177.41641 -816.04871 -348.96359 4294966948
-180.98422 -816.80225 -347.20212 4294966949
-176.76155 -814.58673 -347.10886 4294966949
-177.83582 -816.26379 -346.91669 4294966950
-177.66321 -815.91864 -345.19266 4294966951
-180.41675 -816.69611 -344.57239 4294966952
-180.72238 -816.61554 -342.7308 4294966954
-178.01479 -815.8797 -342.97116 4294966954
-176.78412 -813.19592 -342.83469 4294966954
-179.6423 -816.49512 -341.004 4294966955
-177.5498 -814.84332 -340.86313 4294966956
-176.71378 -812.55994 -340.71371 4294966956
-177.27612 -814.03973 -339.09378 4294966957
-181.35632 -816.45953 -338.9227 4294966958
-179.71982 -816.23889 -338.98718 4294966958
-178.15285 -815.36688 -338.83008 4294966958
-183.66525 -816.31671 -337.02292 4294966959
-181.3035 -816.61804 -337.13574 4294966959
-179.60562 -816.0694 -336.9216 4294966960
-177.41034 -814.10742 -336.99777 4294966960
-176.66966 -811.53082 -336.57965 4294966960
-179.70305 -816.02203 -335.02667 4294966961
-178.46355 -815.36438 -335.03705 4294966961
-177.42117 -813.966 -335.01401 4294966961
-183.46388 -816.26917 -334.76263 4294966962
-176.855 -812.40356 -334.99811 4294966962
-181.15054 -816.19867 -332.59531 4294966964
-179.60092 -815.90857 -332.6666 4294966964
-178.29698 -815.15826 -332.28046 4294966964
-177.50929 -814.09515 -332.71201 4294966964
-177.00667 -812.68805 -332.39145 4294966964
-183.50743 -816.07196 -330.3555 4294966966
-180.84982 -816.0921 -330.68982 4294966966
-177.46083 -813.95044 -330.82184 4294966966
-176.91858 -812.43628 -330.79276 4294966966
-181.18701 -816.05353 -329.43893 4294966967
-183.78127 -815.98022 -329.20215 4294966967
-179.51503 -815.75873 -329.46185 4294966967
-178.09819 -814.88129 -329.08609 4294966967
-177.34975 -814.02722 -328.96179 4294966968
-177.09932 -812.98291 -328.88614 4294966968
-176.58369 -810.21967 -328.85156 4294966968
-183.65399 -815.93042 -327.02374 4294966969
-181.00464 -815.97205 -326.6857 4294966970
-179.46707 -815.62646 -326.66858 4294966970
-178.19826 -814.8913 -326.87616 4294966970
-177.48717 -813.91638 -326.73358 4294966970
-176.80917 -811.40033 -326.84528 4294966970
-183.51358 -815.89429 -324.61218 4294966972
-180.64682 -815.79956 -324.81531 4294966972
-178.33427 -814.88873 -324.87674 4294966972
-177.01492 -812.47437 -324.66708 4294966972
-176.69447 -810.66003 -324.82416 4294966972
-177.1107 -812.44153 -323.20609 4294966973
-183.60968 -815.81927 -322.80121 4294966974
-181.40042 -815.77692 -322.91751 4294966974
-179.7395 -815.3985 -322.74307 4294966974
-178.43776 -814.71368 -322.70517 4294966974
-177.53197 -813.43488 -322.91351 4294966974
-176.64694 -810.17517 -322.87753 4294966974
-181.30748 -815.65076 -321.05792 4294966975
-177.70502 -813.48669 -320.86365 4294966976
-177.17738 -812.39099 -320.67319 4294966976
-183.7766 -815.60504 -318.89801 4294966978
-181.35042 -815.47607 -318.73517 4294966978
-180.00563 -815.11609 -318.75024 4294966978
-178.33632 -814.12756 -318.89838 4294966978
-177.22632 -812.33197 -318.93518 4294966978
