# .PCD v0.7 - Point Cloud Data file format
VERSION 0.7
FIELDS x y z rgba
SIZE 4 4 4 4
TYPE F F F U
COUNT 1 1 1 1
WIDTH 1305
HEIGHT 1
VIEWPOINT 0 0 0 1 0 0 0
POINTS 1305
DATA ascii
601.18011 3064.5901 -641.20923 27228
616.78522 3068.0571 -641.96344 27228
617.6297 3069.616 -641.05725 27228
618.03302 3071.2146 -641.05347 27228
618.07935 3073.1321 -641.91638 27228
618.5459 3079.908 -641.2876 27228
615.50726 3083.5977 -641.36633 27228
617.98395 3081.4097 -641.91193 27228
609.75684 3084.7463 -641.02838 27228
589.66846 3055.0444 -640.55249 27228
589.6001 3057.2791 -640.68695 27228
591.62952 3063.4185 -640.87146 27228
596.69183 3065.0356 -640.32037 27228
598.71411 3064.9792 -640.68005 27228
603.33276 3064.3721 -640.64868 27228
605.36084 3064.0125 -640.91052 27228
607.40222 3063.6909 -640.8783 27228
616.46082 3066.8516 -640.42029 27228
617.41656 3068.3633 -640.04291 27228
618.65814 3072.7817 -640.04431 27228
618.93036 3075.2568 -640.09607 27228
617.56073 3082.4648 -640.65283 27228
618.21271 3081.6309 -640.86182 27228
595.10065 3085.5969 -640.78571 27228
596.55023 3085.0298 -640.38617 27228
601.19672 3084.5244 -640.83893 27228
605.62109 3084.6099 -640.72516 27228
607.53986 3084.6729 -640.67084 27228
611.9386 3084.7449 -640.92358 27228
592.88104 3089.7007 -640.75867 27228
593.80725 3094.6885 -640.66388 27228
594.0025 3096.854 -640.93066 27228
609.76776 3063.4382 -639.00714 27228
612.78577 3063.8389 -639.58264 27228
615.16052 3065.2405 -639.13977 27228
618.38153 3070.4517 -639.1687 27228
619.237 3074.231 -639.00085 27228
619.06708 3077.957 -639.87836 27228
618.96521 3079.6118 -639.70258 27228
619.15497 3079.356 -639.06836 27228
616.26837 3083.448 -639.80176 27228
617.46606 3082.793 -639.52423 27228
618.5332 3081.1182 -639.93573 27228
611.8446 3084.7925 -639.14343 27228
614.12982 3084.1838 -639.06262 27228
593.75879 3091.8142 -639.40228 27228
595.16321 3096.8806 -639.0199 27228
590.81848 3054.9333 -638.72778 27228
590.87378 3057.0378 -638.69037 27228
591.0824 3059.8308 -638.75177 27228
591.49109 3061.8552 -638.93848 27228
592.9989 3063.5188 -638.72723 27228
594.96045 3064.5339 -638.56702 27228
596.62567 3064.8252 -638.49152 27228
598.51862 3065.0806 -638.79132 27228
602.06403 3064.6746 -638.5993 27228
605.80688 3064.0981 -638.73529 27228
617.4408 3067.9346 -638.75049 27228
618.05579 3068.8064 -638.03015 27228
619.10748 3072.8943 -638.68042 27228
619.46045 3076.3208 -638.55133 27228
618.83752 3080.8042 -638.42365 27228
619.31531 3079.2368 -638.26532 27228
616.57263 3083.385 -638.33368 27228
618.01831 3082.2458 -638.5957 27228
594.57574 3086.8215 -638.92169 27228
598.36426 3084.9194 -638.2019 27228
600.698 3084.5093 -638.4231 27228
603.38373 3084.5549 -638.81281 27228
609.45239 3084.7368 -638.7998 27228
593.92688 3088.8247 -638.44135 27228
594.91669 3094.71 -638.74603 27228
609.75415 3063.5776 -637.0918 27228
613.57111 3064.0239 -637.04504 27228
618.7962 3070.27 -637.18671 27228
619.23578 3072.2397 -637.72333 27228
619.70667 3075.175 -637.27802 27228
619.53528 3078.9841 -637.46814 27228
617.70331 3082.7305 -637.11603 27228
595.44757 3086.7346 -637.06683 27228
612.00916 3084.5537 -637.63055 27228
591.95679 3055.1135 -636.77039 27228
591.99988 3057.3074 -636.6275 27228
592.00348 3059.9216 -636.82904 27228
592.758 3061.7126 -636.86462 27228
593.61591 3063.0491 -636.72675 27228
598.47064 3065.0835 -636.15497 27228
601.22986 3064.9124 -636.75067 27228
607.61157 3063.9319 -636.86414 27228
612.23444 3063.2158 -636.99359 27228
615.13995 3064.7852 -636.14685 27228
616.43152 3066.042 -636.95483 27228
617.82086 3067.8757 -636.5033 27228
619.60962 3072.5332 -636.17194 27228
619.39978 3079.5396 -636.65161 27228
616.33704 3083.6794 -636.87494 27228
596.07806 3085.8394 -636.69324 27228
600.42792 3084.644 -636.54138 27228
603.25586 3084.5476 -636.74207 27228
605.34229 3084.6018 -636.77808 27228
614.38495 3084.1812 -636.53723 27228
595.06097 3089.0144 -636.79065 27228
595.35419 3091.8386 -636.60559 27228
596.04962 3094.8145 -636.86096 27228
596.36182 3096.8308 -636.86072 27228
592.86145 3054.9419 -635.18292 27228
611.95416 3063.717 -635.60608 27228
613.74261 3064.0376 -635.06256 27228
619.03625 3069.9927 -635.4682 27228
619.85864 3078.5352 -635.36694 27228
616.48468 3083.73 -635.64154 27228
617.92065 3082.8723 -635.66095 27228
593.12396 3058.6384 -634.63971 27228
593.83026 3061.8179 -634.6228 27228
594.80493 3063.3145 -634.8985 27228
600.8175 3065.1438 -634.3064 27228
609.60596 3063.9512 -634.27515 27228
614.87695 3064.4717 -634.50116 27228
616.60199 3065.8374 -634.3432 27228
618.22052 3067.9897 -634.61523 27228
619.80212 3072.1069 -634.56116 27228
620.23303 3075.408 -634.60071 27228
617.38037 3083.3916 -634.24927 27228
618.47144 3082.4673 -634.95038 27228
596.54327 3086.9329 -634.59186 27228
598.43964 3085.3018 -634.65814 27228
605.22046 3084.5662 -634.81482 27228
610.36981 3084.5989 -634.82037 27228
596.10229 3087.1172 -634.8421 27228
596.39386 3091.9031 -634.58252 27228
597.0412 3094.7507 -634.76221 27228
597.51434 3096.6741 -634.60614 27228
595.87671 3063.4006 -633.17389 27228
597.28571 3064.3611 -633.336 27228
612.64893 3063.9749 -633.38452 27228
613.99902 3064.0654 -633.97717 27228
614.70404 3064.4309 -633.13715 27228
618.15582 3067.4771 -633.09113 27228
619.17712 3069.7095 -633.57855 27228
620.22693 3078.802 -633.62872 27228
619.08502 3081.6558 -633.61823 27228
614.65253 3084.2517 -633.65503 27228
597.28833 3092.1128 -633.00403 27228
594.15314 3058.5908 -632.6405 27228
598.58398 3064.8105 -632.64557 27228
617.46576 3066.3745 -632.18958 27228
620.13007 3072.8171 -632.85303 27228
620.65247 3076.8018 -632.51355 27228
617.0293 3083.7114 -632.23438 27228
597.22058 3086.6333 -632.9248 27228
600.46436 3084.8081 -632.5061 27228
596.9967 3087.335 -632.74384 27228
598.4469 3096.8462 -632.75714 27228
594.86206 3059.6929 -631.04193 27228
616.05963 3065.0759 -631.97546 27228
617.27704 3066.0127 -631.0473 27228
620.24023 3080.1482 -631.98535 27228
612.01825 3084.6331 -631.28607 27228
614.93866 3084.4692 -631.00928 27228
595.71259 3061.7966 -630.58618 27228
596.27167 3062.927 -630.90399 27228
597.73804 3064.2495 -630.63959 27228
600.58154 3065.2805 -630.32941 27228
610.61993 3064.1968 -630.99017 27228
614.10614 3064.3535 -630.72198 27228
616.19989 3065.0198 -630.54236 27228
619.11438 3068.916 -630.90051 27228
620.75806 3074.4031 -630.9444 27228
620.45532 3080.8867 -630.37762 27228
621.01996 3078.3657 -630.854 27228
618.84949 3082.8411 -630.61847 27228
598.03436 3086.9177 -630.71271 27228
609.50726 3084.7102 -630.78168 27228
616.81378 3084.1548 -630.50635 27228
597.98395 3087.0813 -630.70502 27228
598.1441 3091.8569 -630.89587 27228
617.46527 3066.0898 -629.96649 27228
621.43427 3076.9126 -629.33795 27228
621.12073 3079.7395 -629.47253 27228
613.41553 3084.6709 -629.02435 27228
615.74048 3084.5281 -629.45831 27228
617.26892 3084.1377 -629.30084 27228
595.78351 3060.0381 -628.69934 27228
596.24652 3061.8979 -628.76495 27228
599.21368 3064.8667 -628.71326 27228
602.73041 3065.3743 -628.3775 27228
614.47791 3064.3455 -628.68414 27228
616.2301 3065.0051 -628.93878 27228
618.47571 3066.9111 -628.56238 27228
620.22931 3069.563 -628.01453 27228
621.00366 3072.9631 -628.96136 27228
618.4342 3083.5728 -628.51318 27228
620.25409 3081.8562 -628.59192 27228
607.04413 3084.5332 -628.76105 27228
609.55145 3084.7141 -628.48901 27228
599.12732 3092.4873 -628.78558 27228
596.28363 3057.4424 -627.65466 27228
612.4621 3064.2896 -627.74805 27228
615.40735 3064.5381 -627.16931 27228
621.89313 3076.1096 -627.50934 27228
621.46985 3079.3184 -627.96991 27228
616.19501 3084.4202 -627.45764 27228
596.49683 3060.198 -626.84637 27228
597.6485 3063.1855 -626.49652 27228
600.63049 3065.0481 -626.34637 27228
617.92487 3065.7869 -626.61243 27228
619.5733 3067.6418 -626.82715 27228
621.58832 3072.646 -626.80432 27228
621.95612 3078.8601 -626.14014 27228
619.11792 3083.3586 -626.72925 27228
620.89514 3081.4395 -626.65021 27228
602.6969 3084.9355 -626.41943 27228
604.48615 3084.469 -626.73962 27228
606.89819 3084.5435 -626.77954 27228
609.14807 3084.6907 -626.83453 27228
612.28894 3084.7566 -626.37518 27228
599.43903 3087.1404 -626.73041 27228
609.87738 3064.5479 -625.75806 27228
614.63983 3064.3218 -625.62494 27228
616.69061 3064.7502 -625.21277 27228
619.91772 3067.4436 -625.04773 27228
620.93164 3069.6711 -625.86725 27228
622.36407 3075.6228 -625.55096 27228
620.27966 3082.658 -625.74316 27228
617.66199 3084.259 -625.42267 27228
597.51532 3061.0935 -624.75824 27228
600.59827 3064.9348 -624.98486 27228
602.7326 3065.2893 -624.23364 27228
615.62531 3064.4353 -624.0285 27228
618.79303 3065.8157 -624.05176 27228
622.09375 3072.3669 -624.72626 27228
622.48438 3078.3208 -624.28381 27228
619.42157 3083.4895 -624.85968 27228
621.25769 3081.5374 -624.61664 27228
603.56689 3084.7397 -624.29187 27228
606.66461 3084.55 -624.62396 27228
609.41895 3084.748 -624.85443 27228
615.4978 3084.7217 -624.71082 27228
600.16364 3087.2087 -624.47876 27228
597.79401 3060.0527 -623.02594 27228
612.82239 3064.4141 -623.74304 27228
617.302 3064.8296 -623.50806 27228
620.36548 3067.3325 -623.26965 27228
621.32367 3069.4109 -623.79663 27228
622.84454 3075.1921 -623.61633 27228
619.98041 3083.3232 -623.31824 27228
617.83099 3084.3528 -623.31683 27228
598.5816 3062.1138 -622.5741 27228
599.27203 3063.5669 -622.84827 27228
601.24908 3065.0134 -622.50378 27228
604.315 3065.3826 -622.47253 27228
618.63379 3065.3921 -622.24066 27228
619.91956 3066.4971 -622.36096 27228
622.47064 3072.0015 -622.65961 27228
623.02588 3077.7991 -622.46954 27228
622.31995 3080.3621 -622.92847 27228
621.30402 3082.3115 -622.508 27228
603.05615 3085.0405 -622.93396 27228
605.83832 3084.532 -622.61084 27228
609.41931 3084.7869 -622.72333 27228
613.39594 3085.0073 -622.89056 27228
615.44391 3084.8669 -622.56897 27228
600.69586 3087.3701 -622.59521 27228
616.36499 3064.6589 -621.84283 27228
619.95575 3066.3396 -621.25464 27228
621.41547 3068.4961 -621.38586 27228
623.23444 3074.9507 -621.69122 27228
622.79156 3080.1274 -621.11841 27228
619.73022 3083.7437 -621.22943 27228
622.15265 3081.3958 -621.94208 27228
598.75818 3057.561 -620.63806 27228
598.64117 3060.1943 -620.44336 27228
599.63013 3063.1167 -620.82941 27228
604.47327 3065.499 -620.57758 27228
606.78516 3065.251 -620.84454 27228
610.29211 3064.7354 -620.95294 27228
613.69592 3064.5088 -620.20972 27228
618.83972 3065.4404 -620.47211 27228
620.44257 3066.668 -620.19476 27228
622.95331 3072.0916 -620.66901 27228
623.44147 3077.5469 -620.58594 27228
621.74237 3082.2166 -620.85547 27228
601.65875 3086.3682 -620.8598 27228
602.60999 3085.5259 -620.37701 27228
608.53186 3084.7083 -620.76617 27228
613.52161 3085.0696 -620.80066 27228
616.87915 3084.7759 -620.98877 27228
599.22302 3057.1018 -619.14655 27228
600.11407 3063.0605 -619.08673 27228
621.48889 3067.7131 -619.23743 27228
622.6167 3069.9536 -619.3606 27228
623.66406 3076.2993 -619.52173 27228
622.44696 3081.4866 -619.56506 27228
616.11029 3085.2966 -619.04425 27228
599.52045 3061.1104 -618.65393 27228
601.16138 3064.1187 -618.64154 27228
602.68237 3064.9749 -618.50323 27228
606.87665 3065.3489 -618.70715 27228
611.5636 3064.5215 -618.91595 27228
617.03943 3064.8125 -618.40723 27228
619.90137 3066.0181 -618.81165 27228
622.40356 3068.75 -618.07111 27228
623.46393 3072.5662 -618.85016 27228
623.76813 3077.0447 -618.46686 27228
623.33917 3079.613 -618.49854 27228
621.34875 3083.1467 -618.70135 27228
622.52875 3081.75 -618.46521 27228
603.8147 3085.3279 -618.81342 27228
613.40131 3085.1536 -618.99109 27228
618.87836 3084.6008 -618.95758 27228
601.7337 3088.502 -618.63373 27228
600.13263 3061.9453 -617.18756 27228
621.36084 3067.0991 -617.45026 27228
623.29401 3070.832 -617.58429 27228
623.79657 3073.8828 -617.62512 27228
623.78668 3077.6521 -617.41858 27228
622.7265 3082.0103 -617.0246 27228
620.5495 3084.3687 -617.10327 27228
599.81805 3058.8303 -616.6438 27228
601.23553 3063.7537 -616.8299 27228
602.54095 3064.9006 -616.8374 27228
604.45465 3065.311 -616.59222 27228
606.84692 3065.439 -616.92102 27228
609.15991 3065.0935 -616.83795 27228
617.81006 3064.7407 -616.25677 27228
619.45081 3065.5142 -616.75763 27228
622.61835 3068.71 -616.43176 27228
623.8067 3072.865 -616.54358 27228
623.90387 3076.8914 -616.32581 27228
623.56604 3079.7891 -616.39978 27228
621.90332 3083.4812 -616.48334 27228
605.19537 3084.8225 -616.55554 27228
613.63367 3085.2014 -616.77509 27228
618.74426 3085.5032 -616.70099 27228
602.47327 3088.4287 -616.67352 27228
600.19305 3056.6929 -615.50104 27228
600.54657 3061.6145 -615.211 27228
615.77301 3064.5496 -615.33844 27228
623.54773 3070.8899 -615.40411 27228
623.91272 3073.8413 -615.45258 27228
623.23712 3081.5327 -615.75323 27228
600.27679 3060.1895 -614.4472 27228
601.59698 3063.6748 -614.78497 27228
603.245 3064.8726 -614.65741 27228
606.74768 3065.5874 -614.70398 27228
609.30273 3065.1924 -614.77435 27228
618.51129 3064.8545 -614.22021 27228
621.32611 3066.79 -614.83356 27228
622.8515 3068.6563 -614.98975 27228
623.30194 3069.4548 -614.19659 27228
623.87201 3072.9285 -614.28882 27228
623.90875 3077.4216 -614.80017 27228
623.66382 3080.2766 -614.57605 27228
622.93689 3082.5752 -614.89221 27228
605.50934 3084.9121 -614.4765 27228
615.80316 3085.3931 -614.88397 27228
618.5257 3085.4595 -614.9342 27228
621.84772 3084.5496 -614.68304 27228
601.65997 3063.3826 -613.1059 27228
611.10242 3065.0283 -613.16699 27228
622.66351 3068.1257 -613.88885 27228
623.29083 3069.7488 -613.18408 27228
623.96643 3075.1746 -613.5105 27228
615.48212 3085.4456 -613.01501 27228
618.39856 3085.5471 -613.07721 27228
600.82458 3055.0042 -612.91687 27228
600.75946 3059.405 -612.28357 27228
601.06201 3062.2107 -612.52435 27228
604.38171 3065.2737 -612.83734 27228
606.28882 3065.7273 -612.67786 27228
609.41235 3065.3042 -612.78748 27228
616.25763 3064.0256 -612.76843 27228
620.16321 3065.4319 -612.20923 27228
622.04645 3067.384 -612.06317 27228
623.84961 3072.874 -612.55707 27228
623.96625 3080.2671 -612.75983 27228
624.03448 3078.0566 -612.51953 27228
623.46814 3082.645 -612.7959 27228
606.26007 3084.9653 -612.49042 27228
620.67657 3085.1189 -612.71918 27228
621.87598 3084.6599 -612.87805 27228
603.13892 3088.2913 -612.69897 27228
602.94086 3064.6633 -611.12836 27228
623.40375 3070.5291 -611.23798 27228
623.94189 3074.2859 -611.40747 27228
624.35498 3080.7122 -611.02527 27228
613.30707 3085.2251 -611.10052 27228
615.5022 3085.4072 -611.04651 27228
618.50543 3085.6965 -611.12006 27228
620.52484 3085.2292 -611.17737 27228
601.22247 3055.7397 -610.70502 27228
601.00067 3060.6208 -610.94281 27228
604.8009 3065.3574 -610.60522 27228
608.59705 3065.5825 -610.86285 27228
611.51636 3065.0823 -610.53326 27228
613.70886 3064.595 -610.95123 27228
618.30249 3064.0271 -610.87103 27228
623.47424 3083.3921 -610.68396 27228
607.58228 3084.8545 -610.66467 27228
621.80688 3084.7568 -610.9212 27228
603.50403 3088.0046 -610.74182 27228
601.47192 3061.7439 -609.20166 27228
622.5686 3068.0012 -609.79065 27228
623.88605 3073.457 -609.60046 27228
624.2243 3077.2974 -609.48181 27228
624.34357 3082.1553 -609.02386 27228
605.68793 3085.6167 -609.06781 27228
601.42834 3058.6023 -608.77991 27228
602.28992 3063.2705 -608.59631 27228
603.40491 3064.5627 -608.57416 27228
606.20782 3065.813 -608.69934 27228
608.96649 3065.6646 -608.74384 27228
611.20587 3065.2261 -608.95874 27228
613.20874 3064.9133 -608.82928 27228
616.37549 3064.2332 -608.91028 27228
620.41095 3064.6975 -608.72406 27228
623.05389 3067.5479 -608.9184 27228
624.56073 3080.8428 -608.67468 27228
623.56445 3083.6377 -608.8009 27228
604.24707 3086.7236 -608.96851 27228
607.73718 3084.9822 -608.55994 27228
610.65027 3084.9749 -608.85474 27228
613.23584 3085.1262 -608.96503 27228
615.76758 3085.429 -608.573 27228
618.35687 3085.6814 -608.85199 27228
620.71143 3085.2593 -608.78448 27228
604.03827 3087.3179 -608.67255 27228
604.03394 3091.9773 -608.99408 27228
605.12164 3065.2952 -607.1203 27228
611.29761 3065.2983 -607.06488 27228
620.36108 3064.6575 -607.07031 27228
623.52783 3070.1895 -607.36835 27228
601.75928 3056.9861 -606.78809 27228
601.72772 3059.9531 -606.34058 27228
602.84674 3063.6509 -606.729 27228
606.82837 3065.687 -606.54523 27228
613.48895 3064.8792 -606.70087 27228
616.33435 3064.3616 -606.95514 27228
618.65302 3064.1714 -606.7287 27228
621.78735 3065.356 -606.79126 27228
623.20636 3067.5627 -606.79419 27228
624.50482 3077.8625 -606.80194 27228
623.71057 3083.8496 -606.92865 27228
624.60138 3081.9536 -606.95581 27228
606.48834 3085.354 -606.79614 27228
610.68665 3084.9036 -606.80927 27228
613.56384 3085.2642 -606.89667 27228
618.1106 3085.6475 -606.67694 27228
620.70502 3085.2861 -606.86963 27228
622.25623 3084.7959 -606.85748 27228
604.18555 3087.303 -606.67499 27228
604.25812 3092.0105 -606.88159 27228
601.9787 3054.6477 -605.48297 27228
601.86243 3057.6194 -605.20129 27228
613.25055 3065.0417 -605.18494 27228
618.6073 3064.3662 -605.15558 27228
621.4657 3065.1118 -605.07111 27228
623.32825 3067.7085 -605.2829 27228
624.57532 3077.6973 -605.22113 27228
620.61871 3085.3723 -605.10138 27228
602.05365 3061.9133 -604.7934 27228
603.6181 3064.2859 -604.52545 27228
605.23865 3065.2717 -604.51202 27228
606.44391 3065.7739 -604.8855 27228
608.56323 3065.925 -604.6579 27228
623.92542 3072.658 -604.6712 27228
624.87775 3080.9229 -604.88934 27228
623.69952 3083.9548 -604.86865 27228
604.58911 3086.8516 -604.83496 27228
607.08252 3085.2896 -604.93042 27228
608.47821 3084.9912 -604.69122 27228
610.91705 3084.8794 -604.72626 27228
613.46484 3085.2004 -604.87445 27228
615.51538 3085.3611 -604.92896 27228
618.04639 3085.6455 -604.92499 27228
622.4621 3084.8386 -604.64673 27228
604.2865 3091.6445 -604.71497 27228
601.85522 3059.5879 -603.14453 27228
603.35132 3063.856 -603.08954 27228
604.89063 3065.1172 -603.28033 27228
606.67023 3065.8401 -603.08008 27228
610.99219 3065.5732 -603.19885 27228
615.3418 3064.7148 -603.19495 27228
621.87616 3065.3254 -603.02655 27228
624.49213 3083.1128 -603.15131 27228
620.70386 3085.4314 -603.078 27228
602.21344 3052.7146 -602.32477 27228
602.17035 3055.177 -602.59155 27228
602.09888 3057.0474 -602.70807 27228
608.70343 3065.9866 -602.83441 27228
613.40338 3065.1848 -602.81635 27228
619.05548 3064.2986 -602.7948 27228
623.41461 3067.5461 -602.57965 27228
624.00909 3069.5903 -602.79236 27228
624.67053 3077.5647 -602.9494 27228
625.0224 3080.9805 -602.87415 27228
604.68005 3086.9265 -602.71729 27228
608.53906 3085.0686 -602.65735 27228
615.23187 3085.272 -602.95215 27228
618.25922 3085.6499 -602.8739 27228
623.7392 3084.2578 -602.60474 27228
604.42493 3090.8564 -602.55389 27228
602.27173 3054.9268 -601.10107 27228
602.21002 3057.0002 -601.11182 27228
618.56244 3064.5334 -601.03271 27228
608.5061 3066.1631 -601.08722 27228
624.73846 3077.6116 -601.07263 27228
625.08997 3080.7178 -601.29523 27228
606.84937 3085.6558 -601.07422 27228
612.91174 3085.0803 -601.14893 27228
601.99805 3059.7905 -600.83307 27228
603.15985 3063.5366 -600.87683 27228
605.93048 3065.6228 -600.87903 27228
610.89783 3065.7505 -600.83459 27228
613.26202 3065.3015 -600.78217 27228
616.14136 3064.7649 -600.76825 27228
623.0318 3066.4224 -600.96155 27228
624.13031 3069.9099 -600.78247 27228
624.16443 3072.6462 -600.70154 27228
625.01422 3082.293 -600.98029 27228
608.37787 3085.2712 -600.90338 27228
610.9422 3084.9932 -600.66162 27228
615.7403 3085.3115 -600.67322 27228
618.203 3085.5938 -600.73486 27228
620.61108 3085.4961 -600.82123 27228
622.5553 3085.0195 -600.99628 27228
623.79565 3084.3772 -600.83856 27228
604.67133 3087.6709 -600.85852 27228
604.53632 3090.509 -600.36316 27228
602.38391 3052.7234 -599.33313 27228
602.36603 3055.0259 -599.12213 27228
602.29565 3061.8418 -599.07349 27228
615.448 3064.978 -599.05414 27228
624.40112 3074.8782 -599.03033 27228
624.74585 3083.2581 -599.065 27228
617.75922 3085.5288 -599.05219 27228
602.26685 3057.1582 -598.76019 27228
603.78284 3064.4751 -598.47455 27228
605.26526 3065.5149 -598.98328 27228
610.75861 3065.9268 -598.69147 27228
618.78967 3064.4338 -598.84601 27228
606.64746 3066.2158 -598.79138 27228
608.49078 3066.3462 -598.92786 27228
622.98077 3066.5024 -598.82666 27228
623.6217 3067.7004 -598.78394 27228
624.08344 3069.8091 -598.8725 27228
624.25055 3072.7471 -598.92981 27228
624.72693 3077.1968 -598.58722 27228
625.17926 3080.551 -598.71478 27228
625.11322 3082.3535 -598.88947 27228
608.91687 3085.6602 -598.50061 27228
613.40344 3085.2854 -598.60846 27228
620.71533 3085.5635 -598.74951 27228
622.72119 3085.1064 -598.77997 27228
623.89191 3084.4819 -598.88513 27228
605.16803 3088.0872 -598.81628 27228
604.68427 3090.4058 -598.3996 27228
602.46802 3052.8567 -597.51135 27228
602.13525 3059.7598 -597.30475 27228
608.354 3066.4436 -597.03149 27228
625.25531 3080.7166 -597.13275 27228
617.51611 3085.5535 -597.02979 27228
602.3866 3057.1052 -596.99994 27228
602.62329 3062.2368 -596.85553 27228
603.50476 3064.0562 -596.78784 27228
613.41907 3065.4731 -596.90247 27228
615.90204 3064.9919 -596.79694 27228
621.43933 3065.1997 -596.70905 27228
606.2912 3066.0376 -596.90131 27228
610.79791 3066.0098 -596.8371 27228
623.69293 3067.7156 -596.89844 27228
624.34821 3072.5972 -596.83514 27228
624.78809 3077.085 -596.97119 27228
625.13336 3082.7417 -596.7207 27228
610.95325 3085.9094 -596.36908 27228
613.33136 3085.5623 -596.8266 27228
615.30212 3085.4768 -596.96399 27228
621.2984 3085.4719 -596.86163 27228
623.84973 3084.6809 -596.70789 27228
605.12323 3089.3889 -596.73517 27228
607.21124 3087.0537 -596.76575 27228
602.52313 3056.7788 -595.02344 27228
618.17554 3064.5986 -595.06537 27228
624.62238 3074.8135 -595.07526 27228
625.58533 3080.624 -595.01215 27228
622.65784 3085.3523 -595.14539 27228
602.58386 3052.8833 -594.97906 27228
602.34351 3059.655 -594.76532 27228
602.724 3062.4275 -594.57849 27228
603.2533 3063.7478 -594.83795 27228
613.40344 3065.5872 -594.91821 27228
615.33887 3065.1775 -594.68005 27228
620.47345 3064.8835 -594.85608 27228
606.03033 3066.158 -594.4975 27228
608.46295 3066.3909 -594.66449 27228
610.78699 3066.095 -594.93805 27228
624.45654 3069.6775 -594.6026 27228
624.45313 3072.3137 -594.9762 27228
624.97699 3077.3667 -594.88849 27228
624.99213 3083.3093 -594.80817 27228
611.09546 3086.4685 -594.74896 27228
615.47144 3085.7661 -594.88074 27228
618.08459 3085.7393 -594.89014 27228
621.30011 3085.5964 -594.93958 27228
624.26538 3084.5498 -594.78741 27228
605.97375 3089.2009 -594.94232 27228
608.16473 3087.5452 -594.75226 27228
605.14832 3093.9624 -594.66492 27228
602.58917 3051.0632 -593.03314 27228
602.67621 3061.9421 -593.30182 27228
608.06183 3066.3823 -593.0351 27228
625.67517 3080.0381 -593.16541 27228
625.44025 3082.3181 -593.00671 27228
606.76483 3089.1611 -593.24774 27228
602.72217 3054.7393 -592.56165 27228
602.68414 3057.2134 -592.21857 27228
603.5578 3064.0786 -592.90833 27228
613.2691 3065.7129 -592.92969 27228
615.39496 3065.2451 -592.88129 27228
618.80573 3064.6099 -592.73969 27228
610.63385 3066.1841 -592.75763 27228
623.9024 3067.7446 -592.98926 27228
624.68646 3073.6006 -592.94556 27228
625.11401 3077.0623 -592.47998 27228
613.68964 3086.3684 -592.64178 27228
615.58685 3086.0403 -592.81085 27228
617.90405 3085.9036 -592.87231 27228
620.6781 3085.8635 -592.96497 27228
624.02911 3084.8323 -592.92798 27228
608.00494 3088.3704 -592.76801 27228
610.8183 3087.144 -592.55145 27228
605.13263 3093.9575 -592.79755 27228
602.6261 3050.6714 -591.11981 27228
603.72021 3064.269 -591.40906 27228
605.61584 3065.8833 -591.95258 27228
621.84985 3065.3367 -591.00317 27228
608.13428 3066.3835 -591.09229 27228
623.95203 3067.6091 -591.1731 27228
624.67145 3069.5959 -591.06512 27228
624.92279 3074.8115 -591.03107 27228
615.43225 3086.1995 -591.15918 27228
607.09436 3089.1997 -591.17981 27228
610.83496 3087.2173 -591.29584 27228
605.80737 3090.876 -591.16785 27228
602.50348 3049.0046 -590.85962 27228
602.82373 3055.0144 -590.77155 27228
602.60089 3059.7322 -590.8634 27228
602.88721 3061.9524 -590.8833 27228
605.60077 3065.8408 -590.68829 27228
613.14197 3065.7917 -590.71838 27228
615.64191 3065.2793 -590.58691 27228
618.70538 3064.6895 -590.79877 27228
606.37256 3066.1497 -590.91846 27228
624.77905 3072.7612 -590.93726 27228
625.7121 3080.0771 -590.92291 27228
625.46448 3082.6494 -590.84045 27228
612.84625 3086.6609 -590.9231 27228
618.02228 3086.0525 -590.80859 27228
624.08667 3084.9458 -590.89777 27228
605.33789 3092.4458 -590.6723 27228
605.22015 3094.1711 -590.88647 27228
602.59558 3049.4163 -589.08014 27228
602.87415 3058.6716 -589.15143 27228
603.12329 3062.7935 -589.75409 27228
603.61249 3063.9771 -589.01154 27228
620.51874 3064.9414 -589.14331 27228
606.37073 3066.1782 -589.07611 27228
610.61414 3066.2383 -589.32019 27228
626.01038 3080.0789 -589.18341 27228
625.73193 3082.1768 -589.0885 27228
613.3468 3086.4473 -589.13867 27228
615.49121 3086.2339 -589.06738 27228
608.29395 3087.8271 -589.09473 27228
610.16589 3087.0942 -589.31659 27228
605.24738 3094.2468 -589.44403 27228
602.7547 3050.9751 -588.79675 27228
602.89264 3052.9299 -588.95813 27228
602.95721 3054.9797 -588.9129 27228
604.76709 3065.5403 -588.73828 27228
616.37256 3065.1726 -588.67651 27228
618.58044 3064.8589 -588.88049 27228
608.23462 3066.4548 -588.98334 27228
623.23987 3066.228 -588.75085 27228
624.82404 3069.5981 -588.8139 27228
624.89465 3072.3008 -588.93396 27228
625.08636 3074.6602 -588.6189 27228
625.40656 3077.0974 -588.94641 27228
624.26501 3084.9077 -588.85345 27228
607.27734 3088.4436 -588.91095 27228
605.86597 3090.0745 -588.83002 27228
602.27142 3044.6062 -587.26196 27228
603.08209 3054.709 -587.39075 27228
607.55408 3066.4277 -587.40033 27228
625.74072 3082.6968 -587.09198 27228
605.18634 3091.8193 -587.03796 27228
602.42596 3046.7588 -586.79987 27228
602.74884 3049.7051 -586.5929 27228
603.07837 3058.4053 -586.77026 27228
603.91162 3064.4128 -586.7774 27228
605.1452 3065.7556 -586.87219 27228
615.61627 3065.3813 -586.84845 27228
618.1731 3064.8616 -586.85931 27228
621.68585 3065.3103 -586.97504 27228
611.02051 3066.2561 -586.64996 27228
624.58569 3068.332 -586.79272 27228
625.22278 3074.6816 -586.90723 27228
625.54547 3077.0598 -586.93329 27228
608.91071 3086.8196 -586.55054 27228
613.51135 3086.125 -586.95514 27228
624.13287 3085.1145 -586.80511 27228
605.79144 3089.4377 -586.92773 27228
605.28699 3093.9976 -586.74951 27228
602.96558 3050.4961 -585.13123 27228
603.18555 3052.2622 -585.03113 27228
603.27692 3054.5808 -585.35315 27228
620.43054 3065.0598 -585.00775 27228
625.1593 3072.158 -585.02563 27228
626.17419 3079.8323 -585.50366 27228
620.5694 3086.4001 -585.00806 27228
602.79651 3049.3296 -584.55896 27228
603.19678 3059.7253 -584.97699 27228
603.73694 3064.0889 -584.79938 27228
613.43732 3065.8787 -584.74805 27228
618.13861 3064.9502 -584.99231 27228
606.34796 3066.2908 -584.97552 27228
608.24091 3066.5562 -584.94275 27228
610.74872 3066.3538 -584.89819 27228
623.2514 3066.0449 -584.09009 27228
625.64703 3076.998 -584.79346 27228
625.71899 3083.3074 -584.65009 27228
626.00446 3081.9856 -584.60443 27228
610.4469 3086.0752 -584.93127 27228
615.59406 3085.9668 -584.73456 27228
624.36407 3084.9932 -584.92999 27228
605.57007 3089.1702 -584.94073 27228
605.07172 3091.4087 -584.73602 27228
602.93359 3046.8555 -583.66437 27228
603.69031 3063.199 -583.28735 27228
605.0733 3065.918 -583.08881 27228
615.56415 3065.5098 -583.00269 27228
620.94464 3065.1853 -583.27026 27228
606.323 3066.4861 -583.11523 27228
611.20416 3066.3604 -583.03601 27228
625.46313 3074.7261 -583.13519 27228
625.64911 3083.3337 -583.21088 27228
612.98358 3085.8408 -583.13141 27228
620.40167 3086.468 -583.16486 27228
622.5061 3086.2 -583.02545 27228
605.10638 3091.6638 -583.13049 27228
602.85382 3045.709 -582.61542 27228
603.26208 3047.9304 -582.25391 27228
602.86169 3048.1245 -582.66888 27228
603.34937 3052.958 -582.58862 27228
603.45734 3059.3079 -582.52539 27228
604.16858 3064.9319 -582.83917 27228
618.2489 3065.0464 -582.93402 27228
607.74512 3066.5903 -582.76508 27228
613.31049 3066.0137 -582.81335 27228
625.20496 3069.3213 -582.6991 27228
625.78772 3077.2563 -582.94623 27228
626.16211 3079.8281 -582.86011 27228
626.3075 3081.9341 -582.67572 27228
617.84534 3086.1863 -582.72235 27228
605.53339 3094.2495 -582.76062 27228
603.50348 3058.645 -581.40405 27228
606.45496 3066.4861 -581.02399 27228
610.81421 3066.5 -581.03394 27228
625.26135 3069.3469 -581.13049 27228
625.3902 3072.3042 -581.03015 27228
626.42963 3079.8809 -581.2641 27228
626.27771 3082.1692 -581.01843 27228
622.51263 3086.175 -581.01245 27228
623.79083 3085.6506 -581.04962 27228
605.53961 3089.9409 -581.14227 27228
602.63098 3037.8518 -580.31183 27228
602.79553 3039.8215 -580.1507 27228
602.69031 3044.947 -580.0849 27228
603.43774 3055.8789 -580.64935 27228
603.97675 3063.8777 -580.43951 27228
604.28394 3065.0134 -580.99146 27228
615.56628 3065.7 -580.71606 27228
618.57678 3065.125 -580.74457 27228
621.97272 3065.5056 -580.98743 27228
605.8421 3066.2781 -580.05341 27228
608.2417 3066.687 -580.74866 27228
624.16241 3066.9722 -580.63458 27228
625.84357 3077.0947 -580.99786 27228
625.89551 3083.5964 -580.61176 27228
608.461 3086.7422 -580.90057 27228
610.5351 3086.1104 -580.69897 27228
612.80157 3085.9128 -580.8277 27228
615.44226 3086.0425 -580.81433 27228
617.52118 3086.228 -580.8183 27228
620.46802 3086.5898 -580.95764 27228
605.31079 3091.8064 -580.80347 27228
605.63599 3094.1282 -580.66394 27228
602.935 3043.1416 -579.21771 27228
603.08911 3052.9978 -579.68274 27228
610.62061 3066.592 -579.15552 27228
613.15955 3066.1777 -579.15063 27228
626.2948 3082.9385 -579.0918 27228
617.37762 3086.3013 -579.01514 27228
620.47382 3086.6682 -579.05695 27228
603.11212 3037.3813 -578.39014 27228
603.20416 3042.4763 -578.71661 27228
603.37866 3058.3379 -578.67871 27228
603.79669 3063.0276 -578.65259 27228
604.34125 3064.9421 -578.99438 27228
605.23993 3065.9624 -578.85498 27228
615.36145 3065.8247 -578.75317 27228
618.26215 3065.269 -578.90631 27228
620.62219 3065.2734 -578.52014 27228
622.10291 3065.5439 -578.83221 27228
606.55695 3066.5642 -578.73718 27228
608.18835 3066.6548 -578.9386 27228
623.96552 3066.6938 -578.87103 27228
625.37701 3069.4453 -578.86993 27228
625.51147 3072.1829 -578.91742 27228
626.01306 3077.2395 -578.93384 27228
626.59167 3080.0076 -578.96307 27228
612.9967 3086.0408 -578.98035 27228
615.27588 3086.1919 -578.96802 27228
622.55212 3086.3335 -578.95917 27228
623.99591 3085.8347 -578.79889 27228
625.35614 3084.8262 -578.89832 27228
607.2478 3087.959 -578.73828 27228
605.50891 3091.6101 -578.79163 27228
605.79047 3094.3591 -578.79358 27228
603.57855 3040.4036 -577.40698 27228
602.22137 3043.5852 -577.83221 27228
603.3103 3059.5708 -577.14734 27228
603.85736 3063.4058 -577.17261 27228
620.32111 3065.3354 -577.18408 27228
626.08917 3077.103 -577.03357 27228
603.27887 3037.479 -576.97559 27228
603.54834 3039.4373 -576.7829 27228
604.15735 3064.1907 -576.73523 27228
615.54352 3065.865 -576.96887 27228
618.29095 3065.3569 -576.9895 27228
622.17908 3065.593 -576.86456 27228
605.65192 3066.0984 -576.70215 27228
606.62866 3066.303 -576.70428 27228
608.20471 3066.5918 -576.69745 27228
611.42566 3066.48 -576.854 27228
613.7522 3066.1467 -576.6145 27228
625.4696 3069.4246 -576.8772 27228
625.70837 3073.5107 -576.77667 27228
626.56506 3082.7334 -576.8833 27228
612.72321 3086.1619 -576.90796 27228
615.26038 3086.3164 -576.7511 27228
620.18268 3086.7263 -576.9585 27228
622.7041 3086.4539 -576.74921 27228
624.08972 3086.1177 -576.55072 27228
626.32324 3084.0574 -576.8559 27228
606.11737 3089.9353 -576.45703 27228
607.15826 3088.3662 -576.83942 27228
609.01532 3087.0295 -576.71857 27228
605.63428 3091.8843 -576.89087 27228
605.8739 3094.2373 -576.70306 27228
602.49341 3041.4895 -575.28125 27228
602.86426 3057.7971 -575.57581 27228
604.87775 3065.4363 -575.13599 27228
622.2757 3065.6182 -575.01044 27228
607.16101 3066.2185 -575.12378 27228
625.78699 3072.2903 -575.16821 27228
626.92889 3081.3035 -575.07318 27228
607.37946 3088.4041 -575.09912 27228
605.84772 3093.7476 -575.07544 27228
603.31805 3038.0386 -574.90063 27228
603.44739 3062.52 -574.89874 27228
615.6228 3065.9224 -574.81177 27228
624.83478 3067.7903 -574.82544 27228
625.60339 3069.5818 -574.77997 27228
610.51178 3086.6018 -574.96393 27228
612.77277 3086.2964 -574.82489 27228
620.44598 3086.8247 -574.71259 27228
625.59937 3085.0425 -574.6803 27228
606.06659 3090.1414 -574.80231 27228
602.94257 3037.2563 -573.85992 27228
602.39136 3040.4219 -573.19501 27228
601.68402 3043.061 -573.14331 27228
602.34882 3056.6135 -573.96442 27228
618.83228 3065.3943 -573.96417 27228
622.32678 3065.5659 -573.0011 27228
608.34583 3066.2249 -573.06305 27228
611.04138 3066.469 -573.0946 27228
615.30072 3066.0447 -573.03522 27228
625.9267 3072.1917 -573.07141 27228
612.49091 3086.3997 -573.10138 27228
615.15356 3086.5247 -573.21307 27228
608.93024 3087.377 -573.10181 27228
602.46753 3038.7209 -572.49609 27228
601.4538 3049.3838 -572.26141 27228
601.849 3054.9316 -572.41034 27228
621.01782 3065.3677 -572.88788 27228
613.3772 3066.293 -572.84393 27228
624.99341 3067.9424 -572.87689 27228
625.67743 3069.5835 -572.91437 27228
626.0434 3074.7793 -572.71198 27228
626.30493 3077.1545 -572.97876 27228
626.95502 3082.8469 -572.76764 27228
610.29108 3086.7383 -572.92401 27228
617.66272 3086.6211 -572.84039 27228
620.39868 3086.8821 -572.70905 27228
622.56 3086.5969 -572.71082 27228
624.28333 3086.1917 -572.92279 27228
606.26788 3089.9358 -572.74823 27228
607.16742 3088.3938 -572.73248 27228
605.68298 3091.853 -572.71332 27228
605.98492 3094.187 -572.84534 27228
602.19794 3036.4841 -571.89844 27228
605.13599 3064.5134 -571.36499 27228
621.40863 3065.405 -571.01068 27228
610.0675 3066.3855 -571.43457 27228
625.61426 3069.4973 -571.07672 27228
626.34955 3077.0222 -571.08887 27228
601.35046 3040.595 -570.26672 27228
601.69318 3054.999 -570.66089 27228
602.26556 3059.2039 -570.85852 27228
602.7226 3060.6084 -570.59454 27228
618.22968 3065.5933 -570.41766 27228
611.30493 3066.425 -570.75153 27228
613.36145 3066.3391 -570.73615 27228
615.33295 3066.136 -570.74561 27228
624.12933 3066.502 -570.90247 27228
626.04602 3072.2292 -570.92786 27228
626.81818 3079.8022 -570.67261 27228
626.66754 3083.334 -570.97729 27228
610.02917 3086.8721 -570.63007 27228
612.40448 3086.4846 -570.83148 27228
615.45593 3086.6609 -570.81018 27228
620.20612 3086.9512 -570.93524 27228
622.30994 3086.6965 -570.96838 27228
624.1048 3086.1172 -570.86932 27228
625.33466 3085.4451 -570.97632 27228
606.9624 3088.5837 -570.89813 27228
605.71106 3091.5127 -570.70886 27228
606.09241 3094.2771 -570.44122 27228
601.53473 3050.9966 -569.01349 27228
621.59711 3065.3884 -569.35297 27228
623.39783 3065.8884 -569.23962 27228
609.16565 3066.3625 -569.0296 27228
615.3139 3066.1799 -569.20447 27228
624.33112 3066.676 -569.03943 27228
625.15149 3067.9353 -569.07117 27228
626.86542 3082.2151 -569.02148 27228
620.01685 3086.9963 -569.10669 27228
607.25745 3088.4497 -569.01215 27228
606.0426 3093.7058 -569.05371 27228
601.03497 3040.8096 -568.88782 27228
601.55145 3053.0671 -568.72992 27228
601.71765 3055.1426 -568.27136 27228
601.85223 3057.1335 -568.76385 27228
603.40839 3061.8376 -568.87122 27228
605.61035 3064.5774 -568.52124 27228
607.35785 3065.7283 -568.98303 27228
618.15436 3065.6326 -568.94781 27228
622.34039 3065.5273 -568.61548 27228
611.27362 3066.5076 -568.8689 27228
625.7475 3069.4863 -568.83105 27228
626.13672 3071.9702 -568.94519 27228
626.87274 3079.8613 -568.67883 27228
626.53156 3083.7539 -568.88312 27228
610.263 3086.9565 -568.73889 27228
612.92981 3086.5925 -568.74109 27228
617.51495 3086.7979 -568.77106 27228
622.63208 3086.7705 -568.81073 27228
625.84442 3085.0081 -568.95898 27228
605.77563 3091.1274 -568.91791 27228
606.26294 3090.1584 -568.58685 27228
618.3924 3065.6284 -567.02008 27228
626.20587 3073.4373 -567.2204 27228
626.89435 3079.8 -567.11462 27228
612.79065 3086.6526 -567.12665 27228
617.45215 3086.9067 -567.07294 27228
620.28601 3087.0984 -567.02747 27228
601.48651 3051.5332 -566.76935 27228
602.45795 3058.5818 -566.54144 27228
603.07367 3060.8245 -566.78143 27228
604.65198 3063.6873 -566.71729 27228
607.12628 3065.7993 -566.66418 27228
621.73999 3065.4722 -566.47552 27228
608.53058 3066.4016 -566.77106 27228
611.12408 3066.7371 -566.71887 27228
613.17627 3066.5952 -566.95886 27228
615.30304 3066.3242 -566.88489 27228
624.64777 3066.8223 -566.90112 27228
625.2124 3067.7732 -566.90869 27228
625.86707 3069.6829 -566.47003 27228
626.90228 3082.646 -566.88641 27228
615.38385 3086.7654 -566.87952 27228
624.06006 3086.3792 -566.81995 27228
625.638 3085.3762 -566.79901 27228
607.09174 3088.6597 -566.82922 27228
608.47009 3087.6465 -566.86792 27228
605.96893 3090.989 -566.78827 27228
606.20142 3093.8245 -566.7522 27228
602.81 3058.8157 -565.18115 27228
603.51495 3061.1421 -565.16101 27228
626.92017 3079.7019 -565.22162 27228
626.09717 3085.2236 -565.03717 27228
601.15649 3049.7837 -564.90222 27228
601.73975 3053.125 -564.97369 27228
602.0719 3055.2009 -564.84833 27228
605.58221 3064.7864 -564.60388 27228
618.33582 3065.7505 -564.75397 27228
610.87 3066.9822 -564.72668 27228
615.28961 3066.3455 -564.7771 27228
623.61615 3066.011 -564.84662 27228
625.32159 3067.8821 -564.9137 27228
625.8833 3069.3789 -564.7182 27228
626.34088 3073.5073 -564.77954 27228
626.83136 3083.7178 -564.87604 27228
612.84576 3086.6902 -564.72162 27228
615.16962 3086.8484 -564.92065 27228
617.51111 3086.9851 -564.81329 27228
622.53479 3086.926 -564.89087 27228
624.32617 3086.375 -564.94922 27228
607.24194 3088.5662 -564.86353 27228
610.13977 3087.0735 -564.83344 27228
606.0592 3091.0085 -564.79108 27228
603.54413 3059.865 -563.50055 27228
617.53741 3065.9937 -563.01843 27228
608.7121 3066.9067 -563.13239 27228
624.68622 3066.8752 -563.03418 27228
626.39819 3072.2681 -563.02753 27228
620.10803 3087.2139 -563.13068 27228
606.2951 3090.9817 -563.11719 27228
606.29956 3093.7788 -563.11707 27228
601.48853 3051.479 -562.83942 27228
602.46722 3054.9065 -562.43835 27228
602.72247 3057.0168 -562.95721 27228
604.59552 3063.1438 -562.76575 27228
621.47302 3065.5471 -562.83893 27228
607.38214 3066.3713 -562.85962 27228
625.36694 3067.9341 -562.63763 27228
626.03967 3069.8284 -562.88403 27228
626.54944 3076.729 -562.66571 27228
626.93652 3079.6084 -562.86578 27228
627.09467 3082.6929 -562.95337 27228
612.49573 3086.6863 -562.90192 27228
615.3042 3086.8762 -562.9187 27228
623.51654 3086.8535 -562.74097 27228
624.40424 3086.644 -562.97418 27228
625.82416 3085.9392 -562.90674 27228
626.52234 3085.0596 -562.88025 27228
606.56342 3089.8696 -562.76459 27228
607.11151 3088.8362 -562.8844 27228
608.53912 3087.6833 -562.72711 27228
600.54993 3044.6592 -561.93506 27228
600.79449 3046.925 -561.67938 27228
600.92303 3048.7957 -561.17523 27228
603.39648 3055.8789 -561.15131 27228
603.39642 3058.7429 -561.65833 27228
604.14191 3059.9543 -561.44031 27228
604.66443 3064.4207 -561.12024 27228
618.07343 3065.8979 -561.07385 27228
615.51416 3066.4036 -561.04718 27228
624.93121 3067.1978 -561.16602 27228
626.9502 3079.4883 -561.38995 27228
612.43127 3086.7266 -561.138 27228
606.49249 3089.9292 -561.15887 27228
600.51294 3043.0146 -560.5882 27228
603.73596 3059.4158 -560.87695 27228
605.07629 3063.2781 -560.38501 27228
620.63751 3065.5417 -560.99969 27228
608.50757 3067.0327 -560.90723 27228
610.65686 3067.3831 -560.65271 27228
613.46149 3066.8176 -560.67395 27228
623.62994 3066.1216 -560.72748 27228
625.59253 3068.3096 -560.90161 27228
626.26605 3070.7449 -560.81458 27228
626.49115 3074.7205 -560.78424 27228
627.15302 3082.9436 -560.83234 27228
624.67035 3086.769 -560.70819 27228
625.64032 3086.3086 -560.88531 27228
627.07855 3084.0793 -560.96228 27228
608.573 3087.7507 -560.94617 27228
615.64594 3087.0225 -560.69366 27228
620.34845 3087.3647 -560.94873 27228
606.36462 3091.6992 -560.85004 27228
606.3501 3093.7798 -560.58514 27228
600.68823 3044.7983 -559.06036 27228
601.02911 3049.6116 -559.1582 27228
602.70654 3055.2412 -559.30206 27228
603.08466 3056.4592 -559.22186 27228
603.79303 3059.8594 -559.5683 27228
603.9433 3061.4604 -559.2619 27228
607.34125 3066.6208 -559.0592 27228
608.58472 3067.1924 -559.04944 27228
626.60217 3074.25 -559.01886 27228
609.90833 3087.1128 -559.08655 27228
620.21893 3087.4473 -559.09796 27228
600.64142 3040.9236 -558.83765 27228
600.83368 3047.0317 -558.76794 27228
601.95673 3053.4834 -558.6568 27228
605.12817 3064.2107 -558.08771 27228
606.31421 3065.9697 -558.54272 27228
618.12848 3065.9084 -558.80676 27228
620.66553 3065.4429 -558.78436 27228
610.38135 3067.4692 -558.98224 27228
612.84174 3067.032 -558.96405 27228
616.02283 3066.3633 -558.50677 27228
624.23132 3066.5564 -558.71503 27228
626.12463 3069.6548 -558.75366 27228
627.09509 3079.6533 -558.86829 27228
627.28955 3082.7151 -558.74438 27228
612.76196 3086.8831 -558.37573 27228
626.22192 3086.0518 -558.60931 27228
627.15271 3084.1958 -558.94971 27228
615.21588 3087.0574 -558.99725 27228
617.27881 3087.1973 -558.89697 27228
623.63477 3087.1257 -558.90991 27228
606.60059 3090.8164 -558.83093 27228
606.43817 3093.9038 -558.53931 27228
600.79352 3044.7395 -557.13397 27228
601.58844 3052.4531 -557.98645 27228
603.05609 3056.9954 -557.27258 27228
603.40137 3057.9133 -557.73602 27228
620.63519 3065.6733 -557.01105 27228
610.2934 3067.4141 -557.25055 27228
627.19806 3079.4524 -557.12073 27228
627.35266 3082.9285 -557.1662 27228
608.81177 3087.9248 -557.40173 27228
600.71283 3042.7871 -556.57251 27228
601.07727 3049.1975 -556.15076 27228
601.42859 3051.7764 -556.89984 27228
602.32599 3055.2673 -556.37067 27228
605.71417 3065.4646 -556.87128 27228
617.97852 3065.9968 -556.82458 27228
622.46106 3065.8621 -556.93481 27228
607.36249 3066.7239 -556.77325 27228
613.61218 3066.8611 -556.23749 27228
615.44904 3066.4927 -556.79254 27228
625.74457 3068.3262 -556.9881 27228
626.50122 3070.613 -556.84009 27228
612.1983 3086.9175 -556.84888 27228
626.85529 3085.2925 -556.95856 27228
607.78046 3088.7302 -556.82635 27228
610.41296 3087.3145 -556.67419 27228
617.46204 3087.3206 -556.73438 27228
620.04321 3087.5232 -556.73578 27228
622.49817 3087.4785 -556.92267 27228
606.47375 3091.5842 -556.74554 27228
600.92346 3046.6929 -555.96393 27228
602.90906 3056.9412 -555.0423 27228
603.48444 3058.8201 -555.3244 27228
604.03687 3062.6892 -555.45398 27228
605.76282 3065.5457 -555.09314 27228
620.66614 3065.7649 -555.3548 27228
617.61914 3066.071 -555.11047 27228
625.95465 3086.4312 -555.02618 27228
627.44226 3084.1707 -555.01965 27228
607.26495 3089.9036 -555.03821 27228
622.56433 3087.531 -555.22803 27228
624.42279 3087.1101 -555.40485 27228
600.81824 3044.0208 -554.38257 27228
601.00183 3047.02 -554.45038 27228
601.47815 3052.0879 -554.80627 27228
604.1593 3061.9604 -554.71344 27228
622.24353 3065.9119 -554.98334 27228
607.38409 3066.7275 -554.85242 27228
610.41229 3067.4563 -554.74951 27228
613.19025 3066.9905 -554.75952 27228
624.21594 3066.6345 -554.79462 27228
626.36774 3069.6089 -554.7345 27228
627.54767 3080.198 -554.66541 27228
627.64032 3082.1306 -554.9325 27228
626.75598 3085.2271 -554.95844 27228
608.9422 3087.9626 -554.80688 27228
612.64575 3087.0295 -554.58325 27228
615.2406 3087.2151 -554.56866 27228
601.16888 3046.9109 -553.01331 27228
603.98279 3059.5366 -553.23688 27228
605.12146 3063.9978 -553.00446 27228
607.24213 3066.6406 -553.49689 27228
608.297 3067.0088 -553.13586 27228
612.79156 3067.125 -553.10254 27228
617.89496 3066.137 -553.32776 27228
625.07794 3067.4907 -553.14203 27228
601.40387 3048.8755 -552.91309 27228
602.82068 3055.0972 -552.69385 27228
603.4657 3057.2063 -552.8233 27228
605.97882 3065.519 -552.99762 27228
620.31299 3065.6492 -552.96918 27228
622.34296 3065.925 -552.54071 27228
610.4762 3067.4983 -552.61456 27228
624.06958 3066.5603 -552.94897 27228
625.7356 3068.314 -552.97742 27228
625.81219 3086.4624 -552.9679 27228
626.79156 3085.3096 -552.61853 27228
627.52203 3084.2205 -552.83319 27228
607.59625 3089.6816 -552.61108 27228
610.36487 3087.4548 -552.77582 27228
617.23615 3087.4238 -552.82623 27228
620.49695 3087.7668 -552.84247 27228
622.57208 3087.698 -552.96088 27228
624.51953 3087.1875 -552.69739 27228
602.50952 3050.9331 -551.04211 27228
602.88129 3052.9429 -551.22522 27228
603.48151 3055.0249 -551.10956 27228
604.63873 3061.8479 -551.14038 27228
605.66138 3064.821 -551.18842 27228
627.60663 3084.3174 -551.02087 27228
619.98096 3087.833 -551.03772 27228
622.51361 3087.7993 -551.11194 27228
624.18335 3087.4033 -551.0282 27228
606.79333 3091.696 -551.15204 27228
604.41333 3058.3843 -550.66357 27228
605.20319 3063.7488 -550.74512 27228
620.37372 3065.7131 -550.61023 27228
610.04871 3067.5715 -550.8786 27228
612.72333 3067.2161 -550.61121 27228
617.68237 3066.2551 -550.84363 27228
624.61017 3066.9741 -550.68451 27228
625.73547 3086.6021 -550.86133 27228
609.07416 3088.2058 -550.91724 27228
612.18414 3087.2332 -550.97266 27228
603.9162 3052.8025 -549.09491 27228
604.76807 3058.0273 -549.14221 27228
605.94189 3065.1892 -549.211 27228
607.85498 3066.9529 -549.90033 27228
608.28448 3067.124 -549.07025 27228
627.07739 3085.4702 -549.07727 27228
608.07007 3089.1865 -549.08057 27228
622.60797 3087.9075 -549.01355 27228
624.20032 3087.5076 -549.17181 27228
604.74597 3055.3604 -548.14655 27228
604.84662 3061.781 -548.8855 27228
620.27655 3065.7737 -548.84412 27228
622.52209 3065.8916 -548.71979 27228
607.20355 3066.6672 -548.77698 27228
610.38483 3067.623 -548.71326 27228
613.0152 3067.2134 -548.62738 27228
615.39954 3066.7766 -548.81879 27228
617.84326 3066.3335 -548.64386 27228
625.27936 3067.5542 -548.53851 27228
626.96234 3069.676 -548.82709 27228
627.68652 3084.1821 -548.81079 27228
614.82611 3087.4729 -548.84344 27228
617.33325 3087.6553 -548.80237 27228
620.10706 3087.9553 -548.81537 27228
605.45282 3063.9707 -547.42688 27228
612.78876 3067.3049 -547.04144 27228
615.36584 3066.8696 -547.07642 27228
617.01025 3066.5168 -547.61481 27228
626.88776 3069.5837 -547.4043 27228
622.5838 3088.022 -547.03333 27228
605.12268 3058.5906 -546.94 27228
621.23944 3065.939 -546.08972 27228
607.00897 3066.5637 -546.75543 27228
610.10425 3067.6538 -546.82813 27228
622.35718 3066.0474 -546.67224 27228
624.32697 3066.7385 -546.92236 27228
625.27612 3067.6543 -546.5611 27228
625.76575 3086.7695 -546.82031 27228
627.68951 3084.3508 -546.96289 27228
608.47357 3088.6213 -546.841 27228
610.0932 3087.7288 -546.66583 27228
612.01447 3087.3301 -546.88971 27228
624.28442 3087.5923 -546.96533 27228
605.14673 3058.3867 -545.62463 27228
604.95032 3062.0225 -545.40576 27228
605.8092 3065.1108 -545.10052 27228
614.52966 3067.052 -545.73602 27228
627.68604 3083.915 -545.45667 27228
608.30988 3089.0574 -545.11707 27228
614.93646 3087.5952 -545.15387 27228
605.4353 3064.1204 -544.49298 27228
620.63501 3065.8965 -544.73071 27228
606.85211 3066.4346 -544.74603 27228
608.42529 3067.2227 -544.84082 27228
610.32281 3067.543 -544.97229 27228
612.6889 3067.438 -544.91638 27228
618.42682 3066.3232 -544.01282 27228
623.61493 3066.5544 -544.78229 27228
626.59119 3069.2524 -544.83142 27228
625.94226 3086.739 -544.79419 27228
612.08557 3087.4419 -544.76978 27228
624.38879 3087.6621 -544.69794 27228
607.49408 3090.3582 -544.74371 27228
605.12891 3062.0183 -543.13342 27228
605.83337 3065.1345 -543.13818 27228
627.20459 3071.9016 -543.28937 27228
608.25531 3089.262 -543.03033 27228
619.84778 3088.1614 -543.2063 27228
607.08887 3066.647 -542.79346 27228
608.49725 3067.2981 -542.66681 27228
615.64795 3066.9465 -542.30798 27228
617.78723 3066.4951 -542.89478 27228
622.37427 3066.2761 -542.63489 27228
625.78821 3068.4377 -542.92358 27228
627.81757 3082.3608 -542.93164 27228
625.90344 3086.8838 -542.89276 27228
627.09106 3085.2107 -542.86005 27228
610.16907 3088.1299 -542.66119 27228
612.14252 3087.5852 -542.64777 27228
624.48193 3087.7146 -542.81329 27228
607.10803 3091.3403 -542.76971 27228
605.18164 3058.8625 -541.0661 27228
617.55634 3066.6514 -541.06995 27228
620.39246 3066.2009 -541.03406 27228
622.19745 3066.3037 -541.20496 27228
625.45428 3068.0789 -541.01129 27228
626.02698 3086.8535 -541.07336 27228
