# .PCD v0.7 - Point Cloud Data file format
VERSION 0.7
FIELDS x y z rgba
SIZE 4 4 4 4
TYPE F F F U
COUNT 1 1 1 1
WIDTH 1303
HEIGHT 1
VIEWPOINT 0 0 0 1 0 0 0
POINTS 1303
DATA ascii
664.57928 3595.0889 -556.13458 32424
664.83325 3601.2393 -556.52209 32424
648.21405 3608.854 -556.79852 32424
660.00867 3608.6145 -556.35181 32424
663.8595 3606.0415 -556.62457 32424
646.36523 3609.5046 -556.95471 32424
657.97357 3609.0513 -556.96643 32424
643.72217 3612.958 -556.97772 32424
643.9906 3616.0137 -556.60376 32424
642.18207 3583.4456 -555.28156 32424
645.94983 3586.123 -555.62775 32424
663.20935 3587.4946 -555.63855 32424
663.72668 3588.9946 -555.08356 32424
664.71698 3598.4438 -555.30969 32424
664.46399 3604.4248 -555.60303 32424
644.83789 3610.5337 -555.02344 32424
646.59863 3609.5129 -555.00781 32424
655.98859 3584.613 -554.49341 32424
659.10236 3584.7334 -554.64923 32424
643.31793 3585.1213 -554.86127 32424
648.37659 3586.2239 -554.64764 32424
653.49835 3585.1182 -554.50378 32424
661.98651 3586.0398 -554.84863 32424
663.14569 3587.4009 -554.22998 32424
664.10864 3590.949 -554.91821 32424
664.34204 3592.8948 -554.71472 32424
664.54358 3595.9502 -554.33923 32424
664.76587 3601.3855 -554.72394 32424
664.37811 3604.8354 -554.54736 32424
653.29987 3608.7827 -554.86688 32424
655.60406 3608.9375 -554.86267 32424
661.8443 3607.9622 -554.74426 32424
663.50049 3606.4749 -554.62708 32424
658.17419 3609.1094 -554.70313 32424
643.90845 3612.093 -554.71875 32424
643.98572 3616.1709 -554.88251 32424
641.55579 3580.6711 -553.4021 32424
643.00482 3584.8962 -553.09589 32424
644.49982 3585.9265 -553.27039 32424
651.27734 3585.8337 -553.06531 32424
663.69067 3588.6948 -553.15717 32424
664.1156 3590.8242 -553.65613 32424
664.65387 3598.5713 -553.22015 32424
664.67572 3603.4214 -553.79395 32424
642.21173 3583.4846 -552.79492 32424
648.58917 3586.2935 -552.55499 32424
662.85388 3586.8906 -552.74188 32424
664.29449 3592.3291 -552.59302 32424
664.45905 3595.0215 -552.46002 32424
664.77869 3601.7073 -552.22577 32424
664.50653 3604.4629 -552.7713 32424
650.72858 3608.7366 -552.97083 32424
660.52496 3608.9163 -552.80212 32424
662.34302 3607.9053 -552.55377 32424
663.76263 3606.543 -552.40723 32424
645.06671 3610.6099 -552.74335 32424
648.20288 3609.0686 -552.81122 32424
655.59607 3609.0237 -552.93518 32424
643.77417 3613.5898 -552.729 32424
644.14569 3612.0745 -552.95258 32424
642.28888 3583.8455 -551.47412 32424
655.43738 3584.8088 -551.39807 32424
646.0686 3586.3796 -551.18927 32424
653.50769 3585.2407 -551.01678 32424
661.54321 3585.5928 -551.75439 32424
662.76025 3586.675 -551.26733 32424
663.49969 3588.137 -551.4613 32424
664.08221 3590.4185 -551.68347 32424
664.77814 3603.6238 -551.09082 32424
660.36115 3609.1201 -551.25073 32424
641.61017 3580.6895 -550.68567 32424
659.25842 3584.0947 -550.67603 32424
643.7973 3585.6758 -550.039 32424
644.53534 3586.0188 -550.81909 32424
648.41052 3586.4019 -550.82904 32424
651.19177 3585.9719 -550.46399 32424
664.32654 3592.4451 -550.32306 32424
664.6123 3598.4297 -550.54199 32424
664.48785 3605.4802 -550.8891 32424
650.59863 3608.8125 -550.9574 32424
653.33612 3608.9641 -550.89716 32424
662.4361 3608.4192 -550.87457 32424
663.85559 3607.459 -550.92004 32424
646.44336 3609.7744 -550.9104 32424
648.35754 3609.0164 -550.7674 32424
655.52197 3609.0923 -550.82013 32424
658.10095 3609.2788 -550.77679 32424
644.10791 3612.1699 -550.72736 32424
643.74609 3615.6021 -550.86316 32424
641.45532 3579.5325 -549.1189 32424
641.69159 3582.0186 -549.2561 32424
655.9729 3584.856 -549.0647 32424
661.58655 3584.8508 -549.12616 32424
662.7124 3586.5095 -549.47498 32424
663.95538 3589.4431 -549.05908 32424
664.44666 3594.8171 -549.31854 32424
664.94946 3601.5833 -549.00403 32424
664.84692 3605.8306 -549.09833 32424
663.63647 3607.8538 -549.11023 32424
657.5423 3609.3103 -549.07025 32424
642.18329 3583.6545 -548.86633 32424
658.66638 3584.2283 -548.79816 32424
643.2641 3585.342 -548.58948 32424
644.32678 3586.0293 -548.96796 32424
648.14758 3586.4978 -548.94458 32424
653.50262 3585.3367 -548.84924 32424
665.06622 3604.1711 -548.92615 32424
650.66919 3608.8755 -548.81366 32424
662.45117 3608.626 -548.96478 32424
645.31873 3610.6526 -548.81378 32424
655.68195 3609.2085 -548.66888 32424
643.79218 3613.5125 -548.7793 32424
643.81189 3615.8069 -548.97961 32424
641.41858 3579.7937 -547.35406 32424
641.66327 3582.0671 -547.23621 32424
656.03058 3584.8994 -547.38776 32424
661.74774 3584.9399 -547.21844 32424
644.49261 3586.1753 -547.21564 32424
653.6322 3585.4092 -547.17804 32424
646.44739 3609.9541 -547.04126 32424
655.33533 3609.2566 -547.12689 32424
642.20618 3583.9902 -546.92578 32424
658.96057 3584.4731 -546.72906 32424
648.73676 3586.4675 -546.39709 32424
663.35852 3586.3162 -546.84344 32424
664.65887 3589.6965 -546.98889 32424
664.87335 3601.2029 -546.7666 32424
662.4704 3608.8276 -546.76996 32424
664.63812 3606.696 -546.78595 32424
648.43549 3609.2673 -546.80902 32424
653.72467 3609.2 -546.61713 32424
658.24677 3609.5161 -546.77405 32424
660.76489 3609.2869 -546.76031 32424
643.76416 3613.7532 -546.77966 32424
644.15491 3612.4536 -546.81458 32424
642.97119 3585.2971 -545.01453 32424
644.47162 3586.2322 -545.33521 32424
643.84674 3613.7014 -545.02869 32424
641.42188 3579.5559 -544.44269 32424
641.51691 3582.4661 -544.6889 32424
655.85126 3584.9766 -544.49109 32424
660.78345 3584.6392 -544.61102 32424
661.76251 3585.0115 -544.90558 32424
663.40106 3586.2842 -544.70129 32424
664.70258 3589.8748 -544.72192 32424
665.1391 3604.0803 -544.73004 32424
663.74323 3608.2268 -544.79767 32424
645.22186 3611.0823 -544.79663 32424
646.80414 3610.0469 -544.91052 32424
648.36707 3609.312 -544.63397 32424
651.04993 3609.0769 -544.4588 32424
660.75311 3609.4463 -544.89911 32424
643.7962 3615.699 -544.79291 32424
661.83264 3585.0605 -543.00336 32424
646.90906 3610.2 -543.0351 32424
658.00256 3609.6453 -543.3266 32424
642.07764 3583.9722 -542.95197 32424
642.85797 3585.5891 -542.81061 32424
644.70233 3586.4248 -542.46283 32424
645.63123 3586.7808 -542.76843 32424
664.16785 3587.6809 -542.8418 32424
664.74438 3589.4448 -542.862 32424
665.12671 3604.1497 -542.79565 32424
645.27924 3611.2854 -542.95679 32424
655.47839 3609.4753 -542.88141 32424
662.73676 3609.0232 -542.6839 32424
643.86334 3613.9287 -542.82611 32424
643.8064 3615.5193 -542.67108 32424
660.32056 3584.5847 -541.64081 32424
663.39734 3586.2053 -541.02466 32424
664.66528 3592.2712 -541.23798 32424
650.45581 3609.1409 -541.03992 32424
642.11462 3584.0876 -540.84802 32424
646.16156 3586.8997 -540.67413 32424
648.70325 3586.6514 -540.72522 32424
662.12598 3585.2151 -540.02728 32424
664.18945 3587.689 -540.84723 32424
664.80042 3589.5269 -540.9903 32424
664.61255 3607.2476 -540.60803 32424
645.37311 3611.3647 -540.80255 32424
648.45221 3609.5486 -540.95697 32424
653.15271 3609.3113 -540.99567 32424
643.80457 3614.428 -540.45599 32424
658.3949 3584.4209 -539.56262 32424
653.3172 3585.6836 -539.25995 32424
655.68555 3585.0769 -539.31189 32424
642.05249 3583.9973 -538.75757 32424
660.59479 3584.7217 -538.81958 32424
642.94891 3585.8267 -538.76343 32424
645.42218 3586.8889 -538.9812 32424
648.75305 3586.7058 -538.87085 32424
663.49799 3586.499 -538.77734 32424
664.1601 3587.6855 -538.91284 32424
664.84064 3589.5142 -538.91022 32424
664.70392 3592.4282 -538.88654 32424
665.12494 3603.9377 -538.71442 32424
664.94305 3606.2104 -538.70172 32424
644.92841 3611.9963 -538.84583 32424
646.99042 3610.4438 -538.87781 32424
650.71185 3609.2314 -538.98914 32424
653.08923 3609.3691 -538.70081 32424
655.42786 3609.5774 -538.81799 32424
658.35162 3609.8455 -538.93585 32424
660.74634 3609.7268 -538.86169 32424
662.60535 3609.3962 -538.84503 32424
645.65729 3586.8298 -537.00677 32424
661.58716 3585.1396 -537.30426 32424
663.43933 3586.6047 -537.05945 32424
664.9624 3606.1396 -537.16309 32424
648.34375 3609.7444 -537.06293 32424
650.75244 3609.2842 -537.01093 32424
658.22083 3609.9001 -537.01276 32424
641.64465 3583.0581 -536.61377 32424
642.09473 3584.1643 -536.69965 32424
659.13806 3584.6489 -536.32813 32424
643.19153 3585.8372 -536.87006 32424
644.5871 3586.5811 -536.96979 32424
648.61505 3586.8179 -536.97186 32424
651.15381 3586.415 -536.41968 32424
656.25592 3585.199 -536.24432 32424
664.11017 3587.8245 -536.86633 32424
664.79004 3592.0469 -536.63983 32424
664.84845 3601.1741 -536.59314 32424
665.14691 3603.9851 -536.82251 32424
663.65649 3608.6973 -536.70465 32424
664.62164 3607.2649 -536.95721 32424
653.1319 3609.4448 -536.7348 32424
662.70795 3609.415 -536.68909 32424
643.18829 3585.8359 -535.36218 32424
645.46454 3586.8213 -535.25244 32424
651.30371 3586.5261 -535.02112 32424
653.25439 3586.0894 -535.15454 32424
664.83655 3600.9573 -535.03735 32424
660.88422 3609.8538 -535.10266 32424
642.06848 3584.137 -534.66522 32424
658.38953 3584.9148 -534.83099 32424
644.51501 3586.6382 -534.94037 32424
648.07416 3587.02 -534.79181 32424
656.26776 3585.3726 -534.75787 32424
661.96021 3585.6848 -534.67908 32424
663.59546 3587.2917 -534.63586 32424
664.80316 3592.113 -534.93701 32424
665.15149 3603.8362 -534.96405 32424
665.008 3606.1162 -534.95825 32424
646.96014 3610.4192 -534.93695 32424
648.24457 3609.7803 -534.88788 32424
650.44812 3609.3606 -534.8963 32424
653.09393 3609.5251 -534.98236 32424
655.5235 3609.7322 -534.83514 32424
658.51404 3610.0093 -534.92218 32424
662.49835 3609.407 -534.97284 32424
641.52277 3582.3623 -533.55249 32424
642.38226 3584.9133 -533.16663 32424
644.42285 3586.6633 -533.25433 32424
646.25958 3587.2117 -533.19788 32424
651.46307 3586.6157 -533.45172 32424
663.69202 3608.7476 -533.08539 32424
646.98114 3610.4702 -533.02667 32424
660.61823 3609.96 -533.1676 32424
643.21899 3586.0339 -532.82666 32424
653.64777 3585.9963 -532.75671 32424
655.78528 3585.6736 -532.85559 32424
660.80743 3585.384 -532.99567 32424
663.54749 3587.4624 -532.82666 32424
664.4682 3589.8235 -532.79224 32424
664.6153 3594.769 -532.6701 32424
664.86792 3600.9683 -532.84222 32424
665.15912 3604.8159 -532.67664 32424
650.51257 3609.4722 -532.69312 32424
653.19574 3609.5605 -532.94281 32424
658.48901 3610.0967 -532.8371 32424
644.77423 3612.2209 -532.83527 32424
642.58777 3585.4094 -531.091 32424
648.60565 3587.1577 -531.0929 32424
651.50946 3586.6541 -531.06989 32424
665.21582 3603.8662 -531.07605 32424
646.93756 3610.5664 -531.06567 32424
648.24725 3609.9988 -531.01343 32424
657.84302 3610.1187 -531.0802 32424
662.52954 3609.5325 -531.10474 32424
641.48792 3581.2788 -530.22095 32424
642.04352 3584.2749 -530.30853 32424
644.50623 3586.8667 -530.67041 32424
653.31299 3586.2966 -530.95941 32424
658.95953 3585.1277 -530.55743 32424
662.83917 3586.7947 -530.81323 32424
663.81873 3588.2922 -530.91528 32424
664.37122 3589.7871 -530.60638 32424
664.78308 3592.1545 -530.82172 32424
664.60602 3596.844 -530.76068 32424
664.89874 3601.0442 -530.70282 32424
665.07959 3605.9897 -530.93494 32424
664.7254 3607.2036 -530.91199 32424
650.49323 3609.5693 -530.84009 32424
653.36145 3609.6389 -530.81689 32424
655.59552 3609.9307 -530.8642 32424
660.72711 3610.041 -530.94336 32424
651.21509 3586.8223 -529.31354 32424
664.88562 3600.9143 -529.11761 32424
646.90015 3610.6519 -529.24896 32424
645.15179 3612.0215 -529.01782 32424
641.90039 3584.0237 -528.93683 32424
642.33026 3585.1167 -528.69269 32424
644.57281 3587.0142 -528.45715 32424
648.81866 3587.2495 -528.7699 32424
653.87067 3586.1951 -528.51031 32424
656.5661 3585.7371 -528.74176 32424
660.53204 3585.5967 -528.86774 32424
662.44843 3586.5879 -528.94904 32424
663.73505 3588.2087 -528.93872 32424
664.78748 3592.061 -528.78198 32424
665.36322 3603.8948 -528.84045 32424
664.69635 3607.3704 -528.74701 32424
665.07898 3606.146 -528.86829 32424
648.43665 3610.0359 -528.80334 32424
653.22064 3609.832 -528.80383 32424
658.32263 3610.2744 -528.48425 32424
662.5011 3609.6375 -528.75659 32424
643.19568 3586.2917 -527.99921 32424
655.72864 3586.0166 -527.0509 32424
661.44128 3586.0596 -527.24658 32424
664.79797 3592.1292 -527.14203 32424
664.61285 3596.7361 -527.06787 32424
665.12341 3605.9934 -527.14539 32424
657.99896 3610.3147 -527.20038 32424
660.66095 3610.3577 -527.27899 32424
641.86261 3584.2227 -526.61981 32424
642.21405 3585.0037 -526.20215 32424
644.31873 3587.0481 -526.65326 32424
646.22766 3587.4617 -526.55261 32424
648.51874 3587.3884 -526.87927 32424
651.29333 3586.9656 -526.77966 32424
653.55243 3586.3857 -526.97717 32424
658.79626 3585.3071 -526.78217 32424
662.94513 3587.1729 -526.948 32424
664.37445 3589.9233 -526.95563 32424
664.6427 3594.6396 -526.74628 32424
663.76501 3608.8862 -526.8349 32424
646.95514 3610.7263 -526.76294 32424
655.51929 3610.1365 -526.93542 32424
662.58197 3609.6611 -526.79462 32424
644.9126 3612.4158 -526.83081 32424
643.24481 3586.5442 -525.00775 32424
646.14227 3587.4707 -525.06232 32424
663.73254 3588.415 -525.0249 32424
664.89862 3600.949 -525.05878 32424
665.3324 3603.699 -525.07715 32424
646.96698 3610.7839 -525.02997 32424
658.20129 3610.4102 -525.10699 32424
648.33881 3587.4973 -524.92206 32424
651.349 3587.0652 -524.85498 32424
664.32813 3589.7114 -524.94501 32424
664.8443 3591.8662 -524.71936 32424
664.64093 3595.6382 -524.69293 32424
663.85425 3608.8582 -524.96167 32424
664.76379 3607.259 -524.71008 32424
665.086 3606.0554 -524.66333 32424
650.52454 3609.8669 -524.92505 32424
655.46094 3610.1821 -524.90326 32424
660.85559 3610.4504 -524.85364 32424
645.27802 3612.1514 -524.87848 32424
641.41034 3582.4287 -523.00702 32424
642.31396 3585.427 -523.242 32424
656.03851 3586.0842 -523.01172 32424
658.42212 3585.5129 -523.53406 32424
660.34808 3585.6108 -523.64252 32424
663.72894 3588.4294 -523.06049 32424
665.15295 3605.8914 -523.18439 32424
643.14044 3586.5159 -522.90839 32424
645.38477 3587.49 -522.96368 32424
648.68073 3587.5276 -522.729 32424
664.48242 3589.7356 -522.90125 32424
664.81921 3591.9546 -522.85437 32424
664.66473 3594.708 -522.77643 32424
664.71021 3598.6748 -522.88849 32424
664.89514 3600.9023 -522.49628 32424
665.37006 3603.8918 -522.98694 32424
663.9032 3608.9221 -522.57544 32424
664.79517 3607.231 -522.74475 32424
647.03162 3610.8081 -522.96057 32424
648.34753 3610.3027 -522.96442 32424
653.25323 3610.1277 -522.64453 32424
658.05896 3610.4834 -522.87537 32424
662.42487 3609.8804 -522.7052 32424
645.0639 3612.3184 -522.93274 32424
661.3512 3586.2666 -521.51166 32424
664.68512 3594.6448 -521.07434 32424
648.24939 3610.408 -521.01929 32424
650.64709 3610.0605 -521.12433 32424
660.71759 3610.6013 -521.11249 32424
662.49792 3609.9087 -521.03552 32424
645.17584 3612.2119 -521.09009 32424
641.89417 3584.333 -520.4328 32424
643.12378 3586.4817 -520.91937 32424
644.49261 3587.2668 -520.66406 32424
646.45471 3587.6394 -520.89185 32424
655.4823 3586.3296 -520.76086 32424
664.04962 3588.8564 -520.7525 32424
664.82397 3591.8542 -520.99554 32424
664.6814 3596.7024 -520.92157 32424
665.33142 3603.6782 -520.96283 32424
664.80865 3607.3528 -520.745 32424
665.15985 3606.0886 -520.61865 32424
655.52985 3610.3755 -520.82025 32424
657.90302 3610.5222 -520.92822 32424
643.72296 3615.4878 -520.77814 32424
642.88257 3586.1313 -519.37354 32424
645.69427 3587.5947 -519.2207 32424
664.77509 3598.9658 -519.12952 32424
665.21979 3606.0129 -519.06262 32424
650.62903 3610.1411 -519.09723 32424
661.0127 3610.6235 -519.10046 32424
641.82172 3583.9431 -518.69501 32424
650.13086 3587.4863 -518.01947 32424
651.27258 3587.2747 -518.95483 32424
653.66754 3586.813 -518.22461 32424
656.14075 3586.3506 -518.17786 32424
660.24805 3585.9338 -518.68073 32424
661.66083 3586.4114 -518.64343 32424
664.91925 3591.4978 -518.80548 32424
664.73853 3595.7725 -518.6969 32424
664.93372 3600.8613 -518.7738 32424
665.34607 3603.6978 -518.99945 32424
664.85736 3607.6475 -518.88751 32424
646.91461 3611.0457 -518.88763 32424
648.39008 3610.4785 -518.79877 32424
653.30774 3610.2971 -518.96344 32424
655.6012 3610.4248 -518.86316 32424
658.34119 3610.5996 -518.89508 32424
663.83429 3609.2441 -518.88635 32424
644.30402 3613.8713 -518.64227 32424
645.03882 3612.4478 -518.76849 32424
643.72662 3615.6782 -518.81622 32424
658.15759 3586.0181 -517.40198 32424
662.9325 3587.4102 -517.3548 32424
664.8045 3598.8738 -517.01599 32424
665.34528 3603.604 -517.15814 32424
665.02087 3607.9111 -517.0498 32424
661.31342 3610.4883 -517.07587 32424
662.49231 3610.1768 -517.29163 32424
641.45325 3581.7441 -516.85333 32424
642.4292 3585.4084 -516.83325 32424
643.70416 3586.8838 -516.53894 32424
644.82147 3587.3567 -516.96564 32424
646.45483 3587.9609 -516.56287 32424
653.58954 3586.936 -516.73413 32424
656.10455 3586.4468 -516.896 32424
660.67303 3586.3079 -516.69122 32424
661.70795 3586.6841 -516.54199 32424
664.47485 3589.4319 -516.97101 32424
664.97815 3591.7158 -516.80243 32424
664.77155 3596.718 -516.73383 32424
664.97748 3600.9951 -516.79919 32424
665.2879 3606.2544 -516.87378 32424
648.37036 3610.625 -516.44226 32424
657.56445 3610.6099 -516.95917 32424
664.33038 3609.1809 -516.78058 32424
645.04022 3612.511 -516.83606 32424
643.6897 3615.7668 -516.95776 32424
641.92169 3584.1558 -515.07086 32424
642.97882 3586.2659 -515.16022 32424
649.01324 3587.8503 -515.2312 32424
655.33405 3586.6721 -515.67206 32424
658.54816 3586.2393 -515.78455 32424
646.10535 3588.0002 -515.06671 32424
664.98962 3600.8594 -515.01959 32424
665.30042 3606.8081 -515.01465 32424
657.82397 3610.6987 -515.00885 32424
663.83197 3609.874 -515.16455 32424
653.71814 3586.999 -514.86237 32424
660.45056 3586.3596 -514.82776 32424
663.38751 3587.8713 -514.94598 32424
664.52069 3589.9888 -514.7392 32424
665.37885 3603.6741 -514.62836 32424
646.77393 3611.438 -514.98169 32424
648.46088 3610.6885 -514.80389 32424
653.23047 3610.4524 -514.87109 32424
655.45392 3610.5701 -514.93292 32424
661.92712 3610.4634 -514.74054 32424
662.84534 3610.2354 -514.73401 32424
645.18597 3612.6042 -514.84076 32424
643.9624 3615.5867 -514.84747 32424
644.00677 3617.8933 -514.97473 32424
660.79053 3586.4744 -513.15674 32424
664.85431 3598.9019 -513.19348 32424
665.39478 3606.7427 -513.05878 32424
664.17938 3609.8833 -513.10193 32424
644.17242 3614.0989 -513.09076 32424
641.86115 3583.9028 -512.85699 32424
642.32776 3585.2427 -512.81531 32424
643.39685 3586.8169 -512.7901 32424
651.33258 3587.5955 -512.57867 32424
655.83466 3586.7419 -512.64502 32424
658.51367 3586.3064 -512.9953 32424
648.41132 3588.144 -512.35895 32424
663.5965 3588.1299 -512.82172 32424
664.5 3589.7651 -512.69421 32424
665.02399 3600.9668 -512.9527 32424
665.40082 3603.7878 -512.88666 32424
646.6795 3611.574 -512.66339 32424
650.69739 3610.4495 -512.83838 32424
655.3446 3610.658 -512.92816 32424
658.17896 3610.8242 -512.95544 32424
661.64624 3610.6611 -512.9505 32424
645.1004 3612.7715 -512.87659 32424
644.03113 3617.96 -512.7171 32424
660.56433 3586.4917 -511.16516 32424
663.74615 3588.3264 -511.0845 32424
665.28705 3608.2061 -511.33771 32424
653.10223 3610.6157 -511.21008 32424
644.00006 3617.8215 -511.30734 32424
641.68872 3583.8325 -510.93573 32424
642.2384 3585.3452 -510.9736 32424
644.45947 3587.8831 -510.93417 32424
655.63123 3586.8523 -510.64288 32424
658.38379 3586.3052 -510.83041 32424
648.32574 3588.2344 -510.96448 32424
665.37433 3603.5576 -510.92413 32424
647.01215 3611.521 -510.76239 32424
648.41785 3610.9724 -510.95993 32424
650.98364 3610.5466 -510.83014 32424
655.43933 3610.7495 -510.82474 32424
658.2666 3610.9304 -510.51608 32424
662.89972 3610.6069 -510.67667 32424
644.29926 3614.251 -510.95599 32424
645.33899 3612.6106 -510.86993 32424
641.54211 3582.158 -509.76297 32424
651.11945 3587.769 -509.32562 32424
653.15997 3587.3472 -509.2905 32424
648.2099 3588.3157 -509.27142 32424
665.22119 3608.0657 -509.03687 32424
650.50159 3610.6018 -509.11954 32424
653.32971 3610.7256 -509.09329 32424
655.56415 3610.8516 -509.08084 32424
660.66797 3611.0066 -509.0477 32424
644.35193 3614.1919 -509.1506 32424
644.0166 3615.6479 -509.13528 32424
642.36346 3585.7029 -508.95154 32424
643.07874 3586.8735 -508.69147 32424
658.4101 3586.3928 -508.79077 32424
660.7431 3586.6335 -508.54037 32424
662.05176 3586.8447 -508.77383 32424
664.62299 3589.6365 -508.71692 32424
665.43756 3604.7622 -508.64789 32424
648.45917 3610.8977 -508.66388 32424
663.86902 3610.2004 -508.97229 32424
645.53577 3612.5122 -508.68756 32424
643.96161 3617.8203 -508.82397 32424
641.78375 3583.7656 -507.56821 32424
643.375 3587.2317 -507.29675 32424
658.2746 3586.4507 -507.59381 32424
645.66162 3588.5203 -507.03293 32424
664.9939 3591.6375 -507.24017 32424
665.47797 3606.0217 -507.20383 32424
648.00201 3611.1992 -507.35922 32424
645.21979 3612.8259 -507.08923 32424
653.67749 3587.342 -506.74222 32424
648.88617 3588.2781 -506.77826 32424
663.44501 3588.052 -506.62772 32424
664.49603 3589.7278 -506.75955 32424
665.40375 3603.6104 -506.78735 32424
664.98773 3608.9741 -506.84662 32424
665.22186 3608.0535 -506.91022 32424
646.62341 3611.7559 -506.74365 32424
650.96582 3610.7329 -506.21054 32424
653.44946 3610.8022 -506.59378 32424
657.63885 3611.0459 -506.95148 32424
662.63879 3610.6687 -506.98444 32424
644.31317 3614.5242 -506.81467 32424
643.93384 3617.9131 -506.41257 32424
661.84326 3586.9866 -505.21155 32424
663.76703 3588.5034 -505.0759 32424
665.55499 3605.9507 -505.0311 32424
648.39258 3611.1477 -505.12085 32424
650.836 3610.7722 -505.14291 32424
641.75739 3584.0156 -504.85251 32424
642.17462 3585.5308 -504.26324 32424
643.35138 3587.3208 -504.58997 32424
651.33923 3587.9224 -504.7243 32424
655.81995 3587.095 -504.39966 32424
658.68481 3586.5198 -504.56577 32424
644.38861 3588.1741 -504.8392 32424
646.37115 3588.4197 -504.76401 32424
648.51489 3588.4351 -504.82108 32424
665.23163 3591.5313 -504.70898 32424
665.39569 3603.8083 -504.39429 32424
665.23615 3608.134 -504.68311 32424
653.46106 3610.8479 -504.72867 32424
658.02423 3611.1731 -504.56696 32424
660.48114 3611.1453 -504.65494 32424
662.73407 3610.6689 -504.61145 32424
664.8219 3609.0767 -504.68423 32424
644.36127 3614.5081 -504.73843 32424
645.80194 3612.4041 -504.96805 32424
644.01978 3615.7253 -504.59848 32424
642.60052 3586.7893 -503.13205 32424
660.36151 3586.843 -503.07379 32424
661.64941 3587.2017 -503.06891 32424
644.64417 3588.0955 -503.07007 32424
646.15698 3588.4487 -503.00064 32424
665.13928 3607.3069 -503.29065 32424
653.26892 3610.897 -503.00253 32424
655.54803 3611.0703 -503.08801 32424
644.06531 3615.6997 -503.06021 32424
641.55829 3583.6306 -502.43066 32424
655.6001 3587.2134 -502.71545 32424
648.20447 3588.5586 -502.86584 32424
663.83356 3588.7119 -502.68375 32424
664.50696 3590.8142 -502.79642 32424
646.63379 3611.9089 -502.66772 32424
648.41119 3611.2158 -502.70874 32424
650.85419 3610.8125 -502.79825 32424
658.03625 3611.241 -502.92456 32424
660.47388 3611.1965 -502.98865 32424
662.67017 3610.7515 -502.7876 32424
663.85974 3609.7603 -502.86606 32424
644.46533 3614.3276 -502.8049 32424
645.22168 3613.0527 -502.84875 32424
644.01965 3617.9473 -502.8273 32424
642.21362 3585.8066 -501.12238 32424
651.3147 3588.063 -501.47354 32424
664.08081 3590.2441 -501.36014 32424
665.38593 3604.5464 -501.53323 32424
664.6261 3607.8018 -501.37704 32424
645.44434 3612.9429 -501.12085 32424
644.04156 3615.8232 -501.00214 32424
641.59698 3581.7327 -500.82056 32424
643.27673 3587.3706 -500.54553 32424
655.48126 3587.3474 -500.78372 32424
658.14795 3586.804 -500.87399 32424
660.65692 3587.0317 -500.93121 32424
644.53479 3588.0996 -500.80603 32424
646.13898 3588.5286 -500.953 32424
662.91467 3589.1147 -500.21167 32424
665.58142 3602.5466 -500.08377 32424
646.69916 3611.9353 -500.85773 32424
650.45532 3610.8369 -500.89648 32424
655.4505 3611.1736 -500.85022 32424
657.73041 3611.3174 -500.69882 32424
660.74042 3611.2839 -500.76477 32424
662.73254 3610.6279 -500.77933 32424
644.46204 3614.3792 -500.89539 32424
644.01013 3617.8542 -500.57739 32424
641.78491 3584.0066 -499.2948 32424
643.11926 3587.2461 -499.047 32424
665.52319 3600.1277 -499.34631 32424
665.61243 3604.2402 -499.28271 32424
665.25452 3606.1995 -499.32266 32424
648.44061 3611.3416 -499.02969 32424
655.24695 3611.1702 -499.21149 32424
658.16968 3611.4155 -499.1261 32424
660.18567 3611.4922 -499.08334 32424
644.51965 3614.554 -499.3381 32424
642.22791 3585.8032 -498.59579 32424
655.52777 3587.4597 -498.77652 32424
658.21826 3586.9146 -498.55981 32424
645.97473 3588.708 -498.84348 32424
648.50861 3588.7319 -498.4574 32424
664.29761 3608.7659 -498.57571 32424
647.00934 3611.9209 -498.87735 32424
653.15277 3611.0393 -498.97433 32424
662.90759 3610.8677 -498.74121 32424
645.59045 3612.9355 -498.89624 32424
643.90747 3617.998 -498.93729 32424
644.11884 3615.8704 -498.87521 32424
643.25427 3587.4348 -497.10361 32424
653.29773 3587.9497 -497.32986 32424
644.68506 3588.2131 -497.44754 32424
661.17371 3588.0796 -497.70029 32424
665.70111 3602.9038 -497.48303 32424
665.61316 3605.0261 -497.95972 32424
665.258 3606.6729 -497.15231 32424
641.64172 3581.7949 -496.89478 32424
641.77405 3584.2976 -496.7099 32424
642.1842 3585.7864 -496.79926 32424
651.46478 3588.3091 -496.98834 32424
663.66418 3590.6091 -496.33063 32424
665.58832 3600.0208 -496.25668 32424
665.63538 3604.9976 -496.53555 32424
650.6123 3610.9912 -496.81845 32424
655.55554 3611.3093 -496.53204 32424
658.20563 3611.5313 -496.72833 32424
660.85236 3611.4482 -496.63943 32424
662.57428 3611.043 -496.87695 32424
664.06006 3610.4111 -496.81631 32424
644.61407 3614.4944 -496.78769 32424
645.68713 3612.9644 -496.95297 32424
646.99957 3612.0073 -496.92783 32424
643.90503 3618.0339 -496.7807 32424
641.56165 3584.0579 -495.02744 32424
655.70856 3587.6353 -495.01059 32424
658.43219 3587.0615 -495.00003 32424
659.21021 3586.9697 -495.90903 32424
646.02014 3588.854 -495.25131 32424
665.68408 3602.2583 -495.07196 32424
665.6839 3604.0442 -495.34134 32424
664.69421 3608.5732 -495.78525 32424
642.22119 3585.9004 -494.82718 32424
643.10657 3587.3391 -494.89743 32424
648.38318 3588.9543 -494.84753 32424
651.24573 3588.4543 -494.70499 32424
653.59357 3588.0215 -494.66385 32424
661.88495 3588.4097 -494.64154 32424
663.43213 3589.8176 -494.09637 32424
664.82056 3593.1575 -494.63953 32424
665.34436 3596.595 -494.36652 32424
665.37854 3606.2197 -494.73477 32424
648.51581 3611.3352 -494.76093 32424
658.04895 3611.6006 -494.7211 32424
660.27893 3611.6982 -494.91254 32424
664.05365 3610.3572 -494.54663 32424
645.68024 3613.1296 -494.66257 32424
646.86346 3612.2188 -494.84695 32424
643.98206 3616.0405 -494.70636 32424
643.91248 3618.0332 -494.98596 32424
660.45642 3587.2974 -493.03662 32424
661.53741 3587.5918 -493.17706 32424
646.22333 3589.0134 -493.01138 32424
648.47046 3589.0154 -493.10498 32424
664.35834 3591.4644 -493.07861 32424
665.55267 3600.5444 -493.41727 32424
643.18604 3587.4675 -492.69485 32424
655.62 3587.7576 -492.89337 32424
658.55432 3587.2622 -492.94031 32424
644.49158 3588.5654 -492.86389 32424
651.31177 3588.4783 -492.55917 32424
653.46442 3588.146 -492.38501 32424
663.21228 3589.2559 -492.22217 32424
665.07599 3593.9509 -492.86353 32424
665.57678 3603.8027 -492.86386 32424
664.74146 3608.7607 -492.9585 32424
665.38177 3606.4866 -492.46188 32424
660.8075 3611.8013 -492.86063 32424
663.89856 3610.5166 -492.9986 32424
644.98895 3613.9333 -492.8381 32424
647.17944 3612.2166 -492.43503 32424
643.95215 3617.9604 -492.79297 32424
641.62634 3583.5793 -491.64795 32424
642.10803 3586.0837 -491.21567 32424
658.33801 3587.3904 -491.00369 32424
660.2063 3587.3423 -491.16635 32424
648.43335 3589.0557 -491.51062 32424
665.26569 3595.3516 -491.5629 32424
665.42078 3598.9895 -491.52335 32424
663.91492 3610.5654 -491.07053 32424
664.94501 3609.1667 -491.0542 32424
655.77472 3587.8057 -490.52042 32424
662.14056 3587.9546 -490.07254 32424
644.54028 3588.605 -490.99124 32424
651.62299 3588.5371 -490.88605 32424
663.31903 3588.7629 -490.84528 32424
664.15979 3590.2393 -490.75232 32424
664.92316 3593.2405 -490.67667 32424
665.34692 3597.1641 -490.96716 32424
665.45135 3601.5933 -490.48563 32424
665.50842 3604.6509 -490.66949 32424
665.38098 3608.0122 -490.98932 32424
650.61279 3611.1934 -490.97202 32424
655.30865 3611.564 -490.82059 32424
657.8786 3611.7542 -490.75949 32424
660.71594 3611.873 -490.88937 32424
645.15833 3614.0171 -490.65979 32424
646.86926 3612.3652 -490.77164 32424
643.90845 3617.8042 -490.83298 32424
644.1109 3615.9783 -490.96829 32424
641.96216 3585.6787 -489.03448 32424
643.19293 3587.6328 -489.18701 32424
658.32159 3587.3723 -489.36118 32424
651.16583 3588.6301 -489.24316 32424
663.27417 3588.9229 -489.01956 32424
665.17487 3595.5051 -489.01672 32424
665.45612 3603.6392 -489.18378 32424
645.62067 3613.5452 -489.02505 32424
641.69147 3584.6233 -488.16074 32424
661.77271 3587.8867 -488.84979 32424
649.20398 3588.946 -488.48428 32424
653.47333 3588.2339 -488.92966 32424
664.05127 3590.01 -488.84003 32424
664.78394 3592.7463 -488.82587 32424
665.61139 3605.9495 -488.86026 32424
665.38916 3607.9307 -488.89944 32424
648.5451 3611.6563 -488.81458 32424
653.17358 3611.4299 -488.78226 32424
655.40814 3611.5991 -488.98431 32424
660.50244 3611.8284 -488.90546 32424
662.54797 3611.365 -488.74182 32424
664.93457 3609.2292 -488.59314 32424
644.07043 3616.0029 -488.80688 32424
642.45038 3586.7261 -487.24402 32424
655.31525 3588.0366 -487.07449 32424
665.35504 3603.3872 -487.23758 32424
659.16565 3587.3359 -486.55603 32424
660.39099 3587.655 -486.89636 32424
646.28986 3589.1362 -486.60275 32424
648.70166 3589.1367 -486.89676 32424
651.21027 3588.7593 -486.9006 32424
664.12598 3590.3735 -486.96786 32424
664.87048 3593.397 -486.99557 32424
665.3548 3608.1543 -486.94989 32424
650.45331 3611.3652 -486.67749 32424
653.23865 3611.5127 -486.69943 32424
657.83411 3611.9893 -486.83731 32424
664.11151 3610.5449 -486.83609 32424
645.05133 3614.2776 -486.7309 32424
647.11554 3612.4714 -486.55255 32424
660.6908 3612.0571 -486.94098 32424
643.80969 3617.72 -486.84381 32424
641.54089 3584.0017 -485.22125 32424
648.01031 3589.3425 -485.41556 32424
665.12482 3596.3914 -485.99176 32424
653.13025 3611.5608 -485.3226 32424
664.92743 3609.3237 -485.37729 32424
646.45233 3612.95 -485.09128 32424
641.84869 3585.9817 -484.59088 32424
642.40643 3587.0847 -484.3783 32424
660.35956 3587.7729 -484.89752 32424
644.62854 3588.8533 -484.94983 32424
651.58514 3588.8811 -484.07999 32424
653.37079 3588.5327 -484.39731 32424
655.87823 3588.1145 -484.21936 32424
661.70483 3588.2219 -484.82864 32424
663.08362 3589.0935 -484.89334 32424
664.0545 3590.5098 -484.63718 32424
664.66156 3591.7878 -484.81125 32424
665.10608 3593.8796 -484.91495 32424
665.42944 3604.4907 -484.66522 32424
648.53131 3611.8818 -484.95209 32424
650.86548 3611.4653 -484.36737 32424
655.38098 3611.7842 -484.9288 32424
657.56641 3611.998 -484.76099 32424
662.58173 3611.5249 -484.90625 32424
660.71796 3612.1482 -484.79688 32424
644.12677 3616.1633 -484.83646 32424
658.26501 3587.6328 -483.18753 32424
643.1842 3588.0554 -483.03506 32424
644.45868 3589.0024 -483.07703 32424
646.38318 3589.5251 -483.50024 32424
648.61267 3589.4751 -483.23996 32424
651.03656 3589.0298 -483.26746 32424
661.15485 3588.1047 -483.6918 32424
662.65997 3611.5872 -483.07849 32424
664.11151 3610.6958 -483.00821 32424
646.95074 3612.6802 -483.21976 32424
660.70044 3612.2212 -483.10953 32424
644.28394 3620.4731 -483.03122 32424
660.46521 3587.927 -482.74084 32424
653.6778 3588.5513 -482.74039 32424
655.60223 3588.2422 -482.84555 32424
663.36774 3589.4333 -482.81842 32424
664.77032 3591.8247 -482.92291 32424
665.08905 3593.7021 -482.80823 32424
665.60669 3605.8901 -482.94751 32424
665.42957 3608.1013 -482.74426 32424
653.39124 3611.6724 -482.85678 32424
645.35645 3614.0095 -482.80658 32424
658.04993 3612.0999 -482.83228 32424
644.1405 3616.2349 -482.89999 32424
643.88916 3618.0977 -482.66852 32424
641.92529 3586.1018 -481.01529 32424
646.49451 3589.5667 -481.05978 32424
647.96399 3589.5925 -481.51721 32424
665.60413 3608.1897 -481.17157 32424
650.78064 3611.6067 -481.01175 32424
641.43372 3584.3301 -480.8497 32424
658.26746 3587.7837 -480.74133 32424
643.13263 3588.1614 -480.71027 32424
644.76605 3589.1633 -480.79965 32424
651.5376 3589.1536 -480.27307 32424
653.38153 3588.8452 -480.62418 32424
655.72949 3588.3542 -480.59906 32424
661.6333 3588.3958 -480.83243 32424
663.28558 3589.366 -480.85046 32424
664.17035 3590.4521 -480.72266 32424
664.79608 3591.7627 -480.83115 32424
665.19568 3593.9033 -480.8175 32424
665.74878 3606.0317 -480.70462 32424
653.27332 3611.7471 -480.98468 32424
655.63593 3611.9556 -480.94699 32424
662.70245 3611.6599 -480.89532 32424
645.19025 3614.2542 -480.88828 32424
647.03961 3612.655 -480.84787 32424
660.87335 3612.1482 -480.65823 32424
643.86865 3617.8059 -480.99704 32424
644.18927 3620.0867 -480.95447 32424
641.42889 3584.1592 -479.02844 32424
643.36316 3588.4321 -479.00174 32424
648.74426 3589.7854 -479.01367 32424
655.41815 3588.498 -479.12222 32424
660.20612 3588.0476 -479.25186 32424
664.8559 3591.7029 -479.01669 32424
665.44653 3608.1809 -479.0296 32424
665.09277 3609.271 -479.01559 32424
655.52362 3612.0261 -479.24496 32424
644.1731 3616.1331 -479.14352 32424
641.67303 3586.2046 -478.62695 32424
644.87262 3589.3962 -478.9606 32424
651.2207 3589.2915 -478.94095 32424
661.84833 3588.4702 -478.69235 32424
663.36786 3589.3452 -478.9697 32424
664.27539 3590.4897 -478.88651 32424
665.28931 3593.7314 -478.79788 32424
650.64209 3611.6821 -478.8992 32424
664.10852 3610.855 -478.87457 32424
645.20343 3614.2183 -478.61261 32424
646.98132 3612.7302 -478.63675 32424
648.67633 3612.0166 -478.49664 32424
657.86755 3612.2251 -478.8335 32424
660.8634 3612.3823 -478.75339 32424
643.87567 3617.8628 -478.47031 32424
644.1853 3620.0525 -478.77371 32424
641.44928 3584.0854 -477.22958 32424
664.86908 3591.5149 -477.38895 32424
644.19293 3615.9844 -477.06461 32424
644.22168 3620.2183 -477.13727 32424
642.37305 3587.1848 -476.88953 32424
643.47516 3588.5518 -476.56802 32424
644.81281 3589.3145 -476.99493 32424
646.49994 3589.7578 -476.74881 32424
651.15594 3589.3774 -476.83585 32424
655.58466 3588.552 -476.72586 32424
658.35614 3588.0527 -476.63361 32424
660.58154 3588.0945 -476.71494 32424
663.48322 3589.2778 -476.61533 32424
664.26892 3590.3213 -476.89606 32424
665.30957 3593.8369 -476.75131 32424
665.50134 3604.4077 -476.841 32424
665.45258 3608.1013 -476.71051 32424
664.19281 3610.8462 -476.98615 32424
665.15002 3609.1895 -476.77454 32424
647.01721 3612.7644 -476.6951 32424
655.49866 3612.1008 -476.90775 32424
657.92151 3612.3118 -476.83847 32424
660.85999 3612.4705 -476.90903 32424
643.88947 3617.7473 -476.84027 32424
642.48016 3587.3813 -475.74573 32424
643.32507 3588.3972 -475.23627 32424
665.48248 3607.9373 -475.0217 32424
664.40125 3610.7463 -475.03592 32424
658.32867 3587.9812 -474.88837 32424
660.46307 3587.8728 -474.9581 32424
644.86249 3589.4829 -474.91727 32424
648.55811 3589.8369 -474.60635 32424
651.37018 3589.4314 -474.70135 32424
653.58392 3588.9761 -474.87604 32424
661.96082 3588.3716 -474.76196 32424
663.34265 3589.0735 -474.96118 32424
665.28839 3592.5557 -474.81799 32424
665.6839 3605.6121 -474.84039 32424
645.32001 3614.2822 -474.81207 32424
646.78113 3612.9487 -474.88208 32424
648.41119 3612.2522 -474.53619 32424
660.83038 3612.5427 -474.83734 32424
643.89258 3617.5393 -474.87219 32424
644.2262 3620.1497 -474.85681 32424
642.44513 3587.166 -473.19366 32424
646.31219 3589.9443 -473.20157 32424
648.51758 3589.9514 -473.38043 32424
651.3504 3589.5071 -473.06168 32424
661.87781 3588.356 -473.00754 32424
665.40717 3593.429 -473.00171 32424
665.67554 3605.6555 -473.03839 32424
665.63464 3608.2605 -473.08994 32424
644.27142 3620.3484 -473.06543 32424
641.82306 3586.134 -472.70807 32424
644.24365 3589.0405 -472.66977 32424
655.62671 3588.6309 -472.65662 32424
658.40601 3588.042 -472.8125 32424
664.17041 3589.6985 -472.98251 32424
664.99091 3591.5535 -472.62085 32424
665.26996 3596.3694 -472.53558 32424
665.29303 3602.9487 -472.91418 32424
664.21899 3611.043 -472.97672 32424
645.28577 3614.4038 -472.99072 32424
646.97662 3612.939 -472.96466 32424
660.80396 3612.6453 -472.71182 32424
643.90369 3617.6475 -472.94611 32424
643.59943 3588.5879 -471.00076 32424
650.60693 3589.646 -471.42328 32424
648.85284 3589.9377 -470.26932 32424
653.61371 3589.0942 -470.88614 32424
655.84052 3588.7048 -470.77362 32424
660.59436 3588.1414 -470.91544 32424
662.25134 3588.4915 -470.80774 32424
664.15131 3589.5042 -470.74725 32424
664.93707 3591.3191 -470.39941 32424
665.41681 3593.8281 -470.80728 32424
665.13837 3598.6399 -470.80612 32424
665.71857 3605.9099 -470.76102 32424
665.55609 3608.2063 -470.89093 32424
664.27844 3611.1936 -470.88721 32424
647.01746 3613.0452 -470.74634 32424
644.23389 3616.165 -470.66129 32424
644.30267 3620.4502 -470.62854 32424
660.56287 3588.2507 -469.0705 32424
662.19897 3588.5022 -469.61484 32424
665.13336 3598.9729 -469.06235 32424
661.56506 3612.7358 -469.07413 32424
648.13367 3590.1948 -468.62131 32424
651.19446 3589.6924 -468.72116 32424
653.49976 3589.2803 -468.74164 32424
655.55566 3588.8088 -468.69644 32424
658.03503 3588.3347 -468.99902 32424
663.72064 3589.2922 -468.8985 32424
664.97937 3591.3606 -468.97052 32424
665.47192 3593.4736 -468.69781 32424
665.29541 3596.2244 -468.62341 32424
665.2276 3609.8635 -468.90216 32424
647.12152 3613.2122 -468.97595 32424
648.30792 3612.678 -468.80438 32424
662.67529 3612.3008 -468.95361 32424
643.94385 3617.8867 -468.92175 32424
644.50464 3615.9199 -468.26578 32424
644.26343 3620.259 -468.78632 32424
644.02087 3589.0828 -467.23105 32424
659.9361 3588.3828 -467.02289 32424
665.29517 3602.9856 -467.01303 32424
664.33441 3611.4211 -467.06805 32424
660.89178 3612.7527 -467.06369 32424
662.6485 3612.3977 -467.12378 32424
644.19409 3619.9812 -467.06671 32424
646.27808 3590.2659 -466.27609 32424
653.38855 3589.4307 -466.73938 32424
658.33954 3588.3796 -466.96027 32424
664.26996 3590.0505 -466.97351 32424
665.47229 3593.6414 -466.61359 32424
665.28479 3596.6372 -466.93646 32424
665.15875 3598.8384 -466.83893 32424
665.63208 3605.6672 -466.64645 32424
665.52631 3608.8892 -466.85178 32424
665.29517 3609.8711 -466.9938 32424
645.44476 3614.5034 -466.88318 32424
647.0141 3613.3296 -466.82578 32424
648.53119 3612.7095 -466.6991 32424
650.64459 3612.2712 -466.66861 32424
643.92548 3617.6934 -466.81436 32424
643.71259 3588.7646 -465.64639 32424
655.42303 3589.0786 -465.35422 32424
663.3764 3589.2612 -465.16 32424
665.65131 3607.9985 -465.17462 32424
660.67908 3612.9707 -465.04391 32424
644.19446 3620.2361 -465.00986 32424
641.9856 3585.886 -464.63272 32424
642.30737 3586.8169 -464.14224 32424
644.92493 3589.7473 -464.67456 32424
648.96185 3590.2603 -464.80713 32424
651.22815 3589.8428 -464.82089 32424
660.61444 3588.3147 -464.72076 32424
665.26422 3591.7354 -464.745 32424
665.36957 3596.0894 -464.84973 32424
665.16003 3600.8772 -464.62952 32424
665.45557 3604.3618 -464.76404 32424
664.89966 3610.9084 -464.74374 32424
645.28833 3614.7007 -464.9339 32424
648.36932 3612.8145 -464.96677 32424
653.2489 3612.4988 -464.78183 32424
662.7135 3612.4763 -464.86545 32424
644.27509 3616.1235 -464.92438 32424
643.48853 3588.6804 -463.15323 32424
655.48846 3589.1355 -463.02829 32424
657.84296 3588.7222 -463.10724 32424
662.23199 3588.7153 -463.03085 32424
664.8092 3611.135 -463.17111 32424
665.33289 3610.0027 -463.08228 32424
646.91992 3613.4941 -463.13034 32424
648.22363 3612.8069 -463.08926 32424
650.59406 3612.4421 -463.15393 32424
661.22076 3612.885 -463.10818 32424
644.07745 3617.7651 -463.11746 32424
644.10431 3620.0554 -463.06067 32424
645.37909 3590.0432 -462.82819 32424
648.41528 3590.3594 -462.93848 32424
664.22772 3590.2283 -462.74661 32424
665.51129 3593.6484 -462.88007 32424
665.38885 3596.3545 -462.89502 32424
665.2124 3599.0476 -462.85254 32424
665.27606 3602.8882 -462.99466 32424
665.54755 3605.5239 -462.74677 32424
665.54352 3608.7175 -462.6785 32424
653.24829 3612.5872 -462.88928 32424
662.93799 3612.488 -462.48846 32424
644.41956 3616.3206 -462.99844 32424
650.78851 3590.0095 -461.26022 32424
660.46594 3588.5579 -461.03409 32424
665.62506 3608.3845 -461.19949 32424
645.41113 3614.6929 -461.06702 32424
650.52496 3612.5334 -461.05573 32424
657.56049 3612.9529 -461.18533 32424
641.69415 3583.3945 -460.50137 32424
642.43066 3587.3696 -460.76724 32424
643.5011 3588.8704 -460.66171 32424
645.03076 3590.0605 -460.36032 32424
646.14307 3590.1885 -460.94183 32424
658.91516 3588.6555 -460.65662 32424
664.08783 3590.0786 -460.65521 32424
665.20068 3592.4014 -460.6636 32424
665.2818 3598.7007 -460.97821 32424
665.22424 3600.8694 -460.61029 32424
665.56512 3605.6157 -460.9989 32424
664.97729 3611.1829 -460.78397 32424
646.97998 3613.5081 -460.93799 32424
648.31201 3612.9712 -460.88321 32424
653.49988 3612.6946 -460.90302 32424
660.74072 3612.9995 -460.68524 32424
662.53827 3612.6726 -460.92532 32424
644.2655 3617.0281 -460.77618 32424
644.00696 3619.9077 -460.36887 32424
641.69672 3583.5979 -459.31247 32424
662.47308 3588.9043 -459.16763 32424
665.01282 3591.6758 -459.06509 32424
665.32806 3602.8386 -459.18771 32424
646.51752 3613.8479 -459.4903 32424
644.37726 3616.4377 -459.02765 32424
642.26807 3586.8093 -458.72345 32424
643.88647 3589.4968 -458.86127 32424
648.35364 3590.5413 -458.87015 32424
650.86981 3590.1079 -458.99637 32424
653.46399 3589.7505 -458.65192 32424
655.80603 3589.2319 -458.55035 32424
664.15845 3590.1831 -458.8877 32424
665.51941 3596.1169 -458.57343 32424
665.27478 3600.7537 -458.76324 32424
665.60199 3605.572 -458.27393 32424
665.67078 3608.1455 -458.72586 32424
664.94891 3611.261 -458.75964 32424
645.29163 3614.8813 -458.78265 32424
648.89679 3612.8518 -458.28931 32424
651.01544 3612.6599 -458.53665 32424
653.24304 3612.7598 -458.83026 32424
655.31653 3612.8784 -458.99411 32424
658.24438 3613.1101 -458.87106 32424
662.6947 3612.7239 -458.77548 32424
643.94635 3619.8323 -458.62039 32424
643.34869 3588.9543 -457.04205 32424
644.74768 3589.9033 -457.27994 32424
646.15393 3590.3506 -457.09827 32424
664.37311 3590.2073 -457.02057 32424
665.5683 3593.4827 -457.07584 32424
665.68048 3608.2515 -457.035 32424
653.12067 3612.8398 -457.03235 32424
657.46808 3613.1055 -457.20178 32424
660.79767 3613.1838 -457.10751 32424
662.74011 3612.74 -457.2457 32424
643.86981 3619.7129 -457.04944 32424
641.65387 3584.0229 -456.12341 32424
642.39984 3587.4775 -456.4884 32424
651.05341 3590.217 -456.96466 32424
658.47028 3588.9355 -456.83264 32424
660.69647 3588.9224 -456.97617 32424
662.60828 3589.2458 -456.50525 32424
665.36554 3602.8669 -456.68704 32424
665.59973 3605.3066 -456.75247 32424
664.91113 3611.1421 -456.95627 32424
665.40381 3610.0569 -456.80212 32424
646.71405 3613.8325 -456.81027 32424
655.48822 3612.9946 -456.93671 32424
663.92224 3612.3337 -456.84525 32424
643.99542 3617.7725 -456.98816 32424
645.15601 3615.0728 -456.91724 32424
643.24463 3588.9504 -455.05154 32424
644.92529 3590.051 -455.15704 32424
648.37366 3590.7498 -455.00381 32424
665.37415 3593.7188 -455.07541 32424
665.69977 3607.9546 -455.06009 32424
645.49133 3614.7249 -455.22827 32424
646.82605 3613.8574 -455.07953 32424
648.49951 3613.2305 -455.01962 32424
650.45001 3612.7905 -455.22073 32424
641.7005 3583.5581 -454.84583 32424
641.94482 3586.0393 -454.64969 32424
646.19019 3590.5022 -454.9325 32424
651.48193 3590.291 -454.76205 32424
655.74023 3589.6316 -454.11078 32424
658.26465 3589.1213 -454.57129 32424
661.30444 3589.1301 -454.51416 32424
664.00195 3589.9167 -454.73407 32424
665.62427 3605.6064 -454.85507 32424
653.9754 3613.0281 -454.23795 32424
658.26532 3613.2886 -454.57031 32424
660.71136 3613.2742 -454.59256 32424
662.53815 3612.8833 -454.88278 32424
664.01556 3612.1714 -454.93765 32424
643.73718 3617.6011 -454.78363 32424
643.78223 3619.5398 -454.86829 32424
642.29285 3587.656 -453.17517 32424
651.04517 3590.4438 -453.27731 32424
660.38104 3613.3279 -453.06461 32424
643.13922 3588.9634 -452.92584 32424
645.01086 3590.1343 -452.76874 32424
646.51385 3590.6338 -452.82162 32424
649.08136 3590.7681 -452.6579 32424
653.63287 3590.0581 -452.87665 32424
658.5697 3589.1694 -452.79221 32424
661.10815 3589.1846 -452.76105 32424
664.7627 3591.7397 -452.80566 32424
665.25446 3592.8054 -452.90591 32424
665.68982 3607.9243 -452.81595 32424
664.96313 3611.0608 -452.96344 32424
646.69171 3614.0098 -452.73328 32424
648.30298 3613.2231 -452.94275 32424
651.02783 3612.9612 -452.3179 32424
653.25 3613.0393 -452.78061 32424
657.66675 3613.3154 -452.85532 32424
662.66132 3612.8713 -452.88049 32424
645.20526 3615.1106 -452.43814 32424
641.83728 3586.2502 -451.56393 32424
642.43011 3587.5469 -451.11835 32424
658.07147 3589.3379 -451.32236 32424
661.91602 3589.3643 -451.64291 32424
657.46423 3613.3494 -451.19238 32424
660.65588 3613.5291 -451.01447 32424
643.39075 3589.2493 -450.82904 32424
645.06366 3590.3931 -450.74304 32424
646.80725 3590.8889 -450.54318 32424
661.27197 3589.3086 -450.84821 32424
665.17145 3592.9365 -450.81598 32424
665.22144 3596.3657 -450.51102 32424
665.552 3605.5471 -450.72095 32424
665.67242 3607.9609 -450.87473 32424
664.96393 3611.1323 -450.89282 32424
647.09686 3613.9712 -450.79587 32424
648.70691 3613.3572 -450.67447 32424
653.36572 3613.1089 -450.73056 32424
655.54291 3613.2471 -450.9949 32424
662.60553 3612.9846 -450.95502 32424
644.29242 3616.0588 -450.96948 32424
643.98267 3589.8276 -449.16141 32424
655.51538 3589.8892 -449.16086 32424
665.24091 3596.0693 -449.05914 32424
655.09906 3613.2415 -449.34631 32424
662.67334 3613.0767 -449.03091 32424
649.10437 3590.9583 -448.43289 32424
651.32373 3590.6316 -448.77139 32424
658.44067 3589.354 -448.86026 32424
661.0368 3589.426 -448.2963 32424
662.44214 3589.7019 -448.47055 32424
663.76923 3590.5205 -448.57434 32424
664.60913 3591.8677 -448.61194 32424
665.14081 3593.0029 -448.91412 32424
665.74658 3607.9507 -448.94025 32424
665.47925 3610.0439 -448.84698 32424
647.18372 3614.0063 -448.72385 32424
648.66571 3613.447 -448.90021 32424
651.06946 3613.0869 -448.69574 32424
653.21588 3613.1702 -448.85025 32424
658.47858 3613.5698 -448.88196 32424
660.49396 3613.5215 -448.81824 32424
663.91632 3612.4536 -448.80249 32424
644.43744 3615.9919 -448.93341 32424
641.85181 3586.1328 -447.03766 32424
658.31329 3589.418 -447.0455 32424
646.74768 3614.292 -447.31723 32424
642.41614 3588.0764 -446.3371 32424
643.66919 3589.7805 -446.50772 32424
646.77637 3590.9165 -446.41083 32424
653.25464 3590.3687 -446.9671 32424
655.63373 3589.9158 -446.91559 32424
660.91162 3589.2388 -446.69318 32424
662.27191 3589.6746 -446.83447 32424
664.12054 3591.0725 -446.83823 32424
665.06396 3593.5281 -446.59515 32424
665.32666 3596.0874 -446.69684 32424
665.60004 3605.4158 -446.88873 32424
665.80768 3607.8396 -446.70682 32424
665.56696 3610.0198 -446.64261 32424
649.07739 3613.4685 -446.59186 32424
653.31299 3613.2878 -446.59747 32424
655.52179 3613.4504 -446.75513 32424
662.51715 3613.2483 -446.88858 32424
642.23077 3587.804 -445.13232 32424
644.99963 3590.6821 -445.09341 32424
655.37476 3589.9255 -445.00406 32424
665.35529 3595.9036 -445.00766 32424
665.60303 3610.0273 -445.04449 32424
650.97491 3613.2732 -445.23886 32424
660.54681 3613.7349 -445.1203 32424
663.45239 3612.9021 -445.2099 32424
641.77252 3586.0188 -444.74039 32424
643.06097 3589.252 -444.84216 32424
651.28741 3590.8411 -444.85663 32424
660.75085 3589.436 -444.76334 32424
663.78577 3590.5627 -444.79227 32424
648.3429 3591.1143 -444.83136 32424
664.64569 3591.9512 -444.87234 32424
665.16431 3593.5527 -444.80859 32424
665.57275 3604.9146 -444.98148 32424
647.26935 3614.2073 -444.91425 32424
653.33331 3613.395 -444.95959 32424
657.53821 3613.7021 -444.91229 32424
664.67664 3612.0691 -444.3317 32424
651.26349 3590.8389 -443.23724 32424
653.00012 3590.5361 -443.62393 32424
655.61395 3589.9988 -443.56735 32424
662.34784 3589.7856 -443.00394 32424
646.34058 3591.0691 -443.03473 32424
648.66827 3591.2444 -443.00516 32424
665.19342 3593.5811 -443.07407 32424
665.84894 3607.7949 -443.11594 32424
641.79675 3586.5718 -442.73886 32424
642.33167 3588.0159 -442.14474 32424
643.2439 3589.6982 -442.81381 32424
658.12451 3589.5872 -442.71036 32424
663.86847 3590.7349 -442.85333 32424
664.6687 3591.9238 -442.92389 32424
