# .PCD v0.7 - Point Cloud Data file format
VERSION 0.7
FIELDS x y z rgba
SIZE 4 4 4 4
TYPE F F F U
COUNT 1 1 1 1
WIDTH 1304
HEIGHT 1
VIEWPOINT 0 0 0 1 0 0 0
POINTS 1304
DATA ascii
261.33606 2351.2639 -131.82571 22222
263.60513 2351.1628 -131.75853 22222
264.8269 2351.2031 -131.66418 22222
267.10773 2351.0847 -131.65265 22222
270.81927 2350.2424 -131.92191 22222
273.33008 2350.9424 -131.54556 22222
275.60657 2350.7324 -131.52921 22222
279.31137 2350.021 -131.84056 22222
280.67694 2349.9841 -131.79913 22222
283.42404 2349.9629 -131.70612 22222
286.98474 2349.8882 -131.51489 22222
289.93585 2349.3064 -131.64757 22222
291.67142 2349.2605 -131.46599 22222
295.41708 2349.134 -131.3457 22222
301.40298 2349.0806 -131.31744 22222
231.30138 2354.9026 -131.5065 22222
235.37572 2354.7415 -131.29771 22222
237.39934 2354.5474 -131.46262 22222
239.51468 2354.6421 -131.20049 22222
241.38786 2354.5325 -131.07936 22222
243.13155 2354.302 -131.05235 22222
245.70494 2353.2449 -131.6723 22222
247.19638 2353.6592 -131.11623 22222
249.2245 2353.4792 -131.09067 22222
251.53943 2353.2476 -131.20143 22222
531.12689 2352.2356 -131.79567 22222
195.0708 2357.6333 -131.47804 22222
197.40239 2357.0476 -131.83411 22222
199.20979 2356.7864 -131.85562 22222
204.19911 2356.8796 -131.25777 22222
205.58386 2356.877 -131.16518 22222
207.52022 2356.7112 -131.43657 22222
209.23511 2356.6138 -131.51605 22222
211.40166 2356.4807 -131.40862 22222
213.94829 2356.2864 -131.28256 22222
219.90414 2356.1145 -131.0764 22222
223.88365 2355.9802 -131.07959 22222
529.38763 2357.0305 -131.24164 22222
459.42053 2363.0405 -131.10689 22222
462.51547 2362.7205 -131.51822 22222
473.01331 2361.9668 -131.84851 22222
481.09262 2361.425 -131.90251 22222
483.28012 2361.2583 -131.91621 22222
423.12354 2366.2937 -131.97205 22222
431.55084 2365.5605 -131.89317 22222
434.60995 2365.2817 -131.86682 22222
440.42694 2364.4414 -131.4343 22222
448.92172 2364.1396 -131.84836 22222
451.53583 2364.0315 -131.99136 22222
377.17218 2369.9597 -131.25937 22222
382.00006 2369.6978 -131.39461 22222
383.26334 2369.5459 -131.27017 22222
385.47836 2369.3992 -131.44182 22222
387.58789 2369.2195 -131.37538 22222
389.73441 2369.1086 -131.40073 22222
392.32266 2368.7268 -131.37154 22222
397.04556 2368.1995 -131.54716 22222
403.81961 2367.8469 -131.70525 22222
407.51044 2367.4148 -131.87718 22222
409.95197 2367.4338 -131.82985 22222
411.35672 2367.2866 -131.84537 22222
341.6618 2372.9734 -131.54465 22222
343.49759 2372.5708 -131.26199 22222
347.04449 2372.4763 -131.33133 22222
349.79593 2372.522 -131.79703 22222
373.0983 2370.3208 -131.23164 22222
298.61151 2375.8425 -131.14612 22222
301.61646 2375.759 -131.44936 22222
307.51953 2375.3667 -131.62782 22222
309.27185 2374.9351 -131.03754 22222
313.61105 2374.7556 -131.26723 22222
321.36658 2374.4924 -131.50824 22222
253.22675 2378.9045 -131.30202 22222
255.39972 2378.7598 -131.1716 22222
257.85724 2378.6287 -131.20624 22222
258.50607 2378.5823 -131.26662 22222
261.24689 2378.5007 -131.39684 22222
265.23358 2378.1262 -131.1653 22222
269.66174 2377.7427 -131.21939 22222
271.33557 2377.6787 -131.33185 22222
273.13058 2377.3477 -131.33363 22222
275.70917 2377.3818 -131.40121 22222
278.91644 2377.0911 -131.4749 22222
295.17532 2376.009 -131.07675 22222
207.42465 2381.9553 -131.04819 22222
213.33276 2381.6504 -131.88219 22222
217.02472 2381.3557 -131.78511 22222
219.59354 2381.1506 -131.98615 22222
231.37233 2380.1006 -131.22362 22222
237.00172 2379.9387 -131.67062 22222
245.93916 2379.2173 -131.13997 22222
250.14374 2379.158 -131.35797 22222
251.14944 2379.0813 -131.34727 22222
176.62288 2384.0417 -131.04109 22222
179.15942 2384.1394 -131.71306 22222
181.17615 2383.8311 -131.73523 22222
183.41656 2383.6272 -131.76125 22222
132.88063 2386.8254 -131.72966 22222
137.36687 2386.5054 -131.99736 22222
497.36533 2336.9592 -130.95778 22222
499.37363 2336.7065 -130.62387 22222
501.18808 2336.4985 -130.59465 22222
503.72491 2336.2839 -130.83607 22222
516.80103 2334.6794 -130.95714 22222
523.82086 2334.6462 -130.37556 22222
455.22302 2339.3081 -130.95831 22222
465.40762 2338.6816 -130.2317 22222
470.95816 2338.2559 -130.56931 22222
472.94864 2338.1829 -130.95956 22222
475.72992 2338.1675 -130.91428 22222
477.35538 2338.3845 -130.15584 22222
481.7027 2338.1799 -130.30353 22222
399.99237 2342.99 -130.88585 22222
411.17529 2342.4543 -130.47459 22222
413.71332 2342.21 -130.25294 22222
415.12509 2342.179 -130.01669 22222
417.69934 2342.0515 -130.40446 22222
421.4173 2341.7749 -130.05872 22222
427.66205 2341.2969 -130.80003 22222
429.33835 2341.1816 -130.27054 22222
431.63959 2341.0024 -130.19717 22222
435.57666 2340.7544 -130.11913 22222
437.20889 2340.6289 -130.22243 22222
441.54156 2340.384 -130.02603 22222
447.70157 2340.0488 -130.10014 22222
529.51581 2341.4021 -130.87299 22222
355.16705 2345.9236 -130.91505 22222
357.47916 2345.9255 -130.77925 22222
363.41006 2345.46 -130.76547 22222
369.42181 2345.0623 -130.75761 22222
371.51321 2344.7742 -130.89319 22222
375.4393 2344.6526 -130.79266 22222
379.87781 2344.2725 -130.85608 22222
382.91599 2344.2444 -130.65869 22222
395.453 2343.6448 -130.00645 22222
529.66425 2344.7185 -130.97757 22222
315.46155 2348.9336 -130.68939 22222
319.3027 2348.4871 -130.66118 22222
325.47495 2347.7021 -130.92438 22222
327.2674 2348.3152 -130.30429 22222
329.30289 2347.6287 -130.87427 22222
331.52908 2347.6731 -130.8369 22222
335.54813 2347.4207 -130.88403 22222
337.29092 2347.238 -130.92902 22222
339.28488 2347.3064 -130.70811 22222
341.58853 2347.043 -130.73759 22222
343.23325 2346.9656 -130.68753 22222
345.46851 2346.7175 -130.73087 22222
347.43112 2346.717 -130.59274 22222
349.59982 2346.3032 -130.87321 22222
351.07184 2346.5908 -130.4545 22222
268.91693 2351.8447 -130.99942 22222
279.09308 2351.6802 -130.81392 22222
281.66177 2351.5703 -130.75092 22222
284.03125 2351.1257 -130.96645 22222
285.11218 2351.2324 -130.80498 22222
287.48773 2350.8906 -130.80244 22222
289.25925 2351.2249 -130.16547 22222
293.62305 2350.842 -130.00742 22222
295.41287 2350.3457 -130.44458 22222
297.61508 2349.6487 -130.92526 22222
299.37946 2349.9644 -130.60732 22222
303.15848 2349.6006 -130.76132 22222
305.49213 2349.3711 -130.89011 22222
309.50568 2349.2405 -130.84352 22222
311.58859 2349.1348 -130.84482 22222
313.08786 2349.1321 -130.7543 22222
252.89597 2353.8018 -130.29791 22222
256.96579 2353.1218 -130.78217 22222
259.65173 2352.8225 -130.80522 22222
261.43246 2352.7136 -130.73402 22222
265.68839 2352.4231 -130.64661 22222
267.44971 2352.3728 -130.54132 22222
273.16592 2352.2036 -130.51083 22222
195.75146 2357.8591 -130.43661 22222
198.05292 2357.4749 -130.69496 22222
201.1552 2357.1638 -130.84499 22222
203.05672 2357.4307 -130.00209 22222
207.44714 2357.2002 -130.25243 22222
209.35672 2356.8301 -130.37244 22222
221.36261 2356.5525 -130.13255 22222
224.33719 2356.3184 -130.07573 22222
227.24226 2355.8198 -130.89246 22222
229.23083 2355.7788 -130.37173 22222
239.89029 2355.2112 -130.02963 22222
185.77986 2359.1648 -130.20056 22222
497.08566 2360.8472 -130.93274 22222
500.98587 2360.9229 -130.93094 22222
502.61838 2360.9185 -130.88243 22222
505.87985 2360.7241 -130.81248 22222
508.38464 2360.7773 -130.27179 22222
509.17493 2360.8225 -130.18758 22222
445.52658 2363.8809 -130.24597 22222
449.01056 2363.7358 -130.05652 22222
455.83578 2363.2737 -130.16446 22222
466.0448 2362.2766 -130.45039 22222
413.40524 2366.8545 -130.63289 22222
415.42282 2366.6768 -130.73711 22222
417.38873 2366.4507 -130.0668 22222
419.22604 2366.3318 -130.34688 22222
427.00436 2365.4492 -130.1514 22222
429.64941 2365.2617 -130.14555 22222
431.95578 2365.1272 -130.00777 22222
435.5553 2365.0146 -130.1501 22222
437.67676 2364.6548 -130.30328 22222
440.81628 2364.3005 -130.2975 22222
385.35641 2369.0383 -130.18156 22222
387.57013 2368.8557 -130.03296 22222
389.7229 2368.769 -130.09238 22222
392.44855 2368.4004 -130.21126 22222
395.24283 2368.0793 -130.26263 22222
401.03189 2367.5222 -130.37561 22222
403.77856 2367.5205 -130.00218 22222
405.56204 2367.3191 -130.53632 22222
411.59244 2367.0518 -130.84964 22222
331.3891 2372.6907 -130.12344 22222
335.81854 2372.6553 -130.13554 22222
337.50229 2372.5178 -130.05731 22222
338.95532 2372.6699 -130.65102 22222
368.7854 2370.7878 -130.98399 22222
303.3884 2374.9998 -130.00829 22222
305.9516 2374.7815 -130.07629 22222
315.67429 2374.1658 -130.03291 22222
321.45584 2373.646 -130.05971 22222
326.13574 2373.4875 -130.54309 22222
247.37904 2378.8206 -130.14186 22222
250.27728 2378.6997 -130.03644 22222
253.66222 2378.4839 -130.16237 22222
262.89587 2377.876 -130.07709 22222
265.40268 2377.7061 -130.1306 22222
269.71042 2377.3157 -130.02823 22222
273.01495 2376.9578 -130.06891 22222
276.89661 2376.8105 -130.44115 22222
281.62909 2376.4143 -130.02948 22222
209.89876 2381.6213 -130.56735 22222
211.6214 2381.5437 -130.88593 22222
217.08107 2381.0715 -130.26405 22222
220.87682 2380.7654 -130.14166 22222
224.07495 2380.7515 -130.98936 22222
225.75862 2380.634 -130.50925 22222
227.47224 2380.4065 -130.84479 22222
233.52794 2379.7671 -130.08453 22222
239.25697 2379.2766 -130.01166 22222
240.91505 2379.1833 -130.04744 22222
243.89079 2379.0591 -130.08847 22222
497.79819 2336.8652 -129.08333 22222
519.1853 2334.7295 -129.66321 22222
451.44055 2339.8953 -129.89388 22222
455.41608 2339.6631 -129.63992 22222
459.54535 2339.2974 -129.82692 22222
463.12213 2338.9514 -129.89212 22222
469.13855 2338.4761 -129.88887 22222
483.30609 2338.0718 -129.19077 22222
485.71008 2337.9319 -129.75131 22222
489.39401 2337.6892 -129.62819 22222
414.67688 2342.1487 -129.59096 22222
420.08377 2342.2722 -129.27959 22222
439.59488 2340.5525 -129.88309 22222
367.396 2345.8936 -129.25253 22222
369.65356 2345.7546 -129.38394 22222
373.33279 2345.4231 -129.34326 22222
375.68225 2345.2786 -129.36252 22222
380.00797 2344.8862 -129.42897 22222
387.57144 2344.2834 -129.61568 22222
391.20718 2344.1426 -129.78052 22222
393.01938 2343.8369 -129.99886 22222
397.34723 2343.4946 -129.96565 22222
399.53583 2343.3398 -129.90999 22222
321.07916 2348.9377 -129.86191 22222
323.29062 2348.7651 -129.89996 22222
329.20313 2348.7688 -129.24728 22222
332.94385 2348.8052 -129.00743 22222
335.35956 2348.4114 -129.16493 22222
337.57495 2348.1907 -129.43703 22222
339.48807 2348.0908 -129.29362 22222
342.76547 2347.9053 -129.14253 22222
345.45831 2347.6067 -129.29199 22222
347.46005 2347.5574 -129.25279 22222
349.26425 2347.3596 -129.17352 22222
353.12689 2347.1013 -129.07166 22222
354.9935 2346.887 -129.29662 22222
359.18124 2346.573 -129.21873 22222
361.60349 2346.3733 -129.30106 22222
363.56177 2346.2126 -129.64638 22222
287.46814 2351.8252 -129.36977 22222
295.27036 2351.2095 -129.10753 22222
297.39383 2351.1975 -129.17284 22222
299.81805 2350.8091 -129.36229 22222
301.4328 2350.9309 -129.08052 22222
305.2226 2350.4795 -129.05684 22222
307.84329 2350.1963 -129.54404 22222
311.43091 2350.1333 -129.50073 22222
313.29892 2349.9617 -129.21538 22222
315.36871 2349.8784 -129.3671 22222
317.75827 2349.3896 -129.77211 22222
325.59384 2349.0354 -129.16769 22222
245.31706 2354.804 -129.39644 22222
249.59625 2354.3899 -129.4175 22222
251.43658 2354.3687 -129.21297 22222
253.57814 2354.1331 -129.4796 22222
257.16806 2353.9187 -129.2827 22222
259.6828 2353.7566 -129.20178 22222
263.34402 2353.5679 -129.04732 22222
265.80533 2353.3005 -129.20821 22222
267.42902 2353.2212 -129.09442 22222
269.4783 2353.0242 -129.15639 22222
271.56653 2352.8853 -129.18884 22222
275.39099 2352.6753 -129.28288 22222
277.28314 2352.5442 -129.2829 22222
279.57983 2352.3496 -129.53134 22222
284.93707 2352.0464 -129.39845 22222
216.98328 2356.7419 -129.7749 22222
225.21555 2356.3108 -129.93579 22222
231.28131 2355.915 -129.96819 22222
233.2894 2355.6133 -129.7534 22222
237.29796 2355.3569 -129.92538 22222
525.29187 2357.7368 -129.10548 22222
527.72192 2355.9438 -129.35809 22222
446.96973 2363.8491 -129.95509 22222
451.14304 2363.6213 -129.81409 22222
453.34082 2363.4771 -129.8616 22222
457.09839 2363.176 -129.78757 22222
459.34003 2362.9771 -129.65445 22222
461.91199 2362.7041 -129.73444 22222
462.8298 2362.6052 -129.88429 22222
467.09662 2362.2314 -129.72884 22222
477.04575 2361.7844 -129.46161 22222
479.72427 2361.6431 -129.87631 22222
481.29065 2361.6929 -129.17804 22222
421.17758 2365.9993 -129.99139 22222
424.73654 2365.7378 -129.45563 22222
374.94431 2369.6011 -129.88568 22222
377.31674 2369.4377 -129.91727 22222
407.13547 2367.1929 -129.92769 22222
408.90231 2367.1348 -129.84477 22222
329.39725 2372.7549 -129.36305 22222
340.50101 2372.2056 -129.22957 22222
343.70563 2371.947 -129.96292 22222
347.1254 2371.7212 -129.96796 22222
349.37354 2371.4695 -129.80875 22222
370.72549 2370.1218 -129.38937 22222
293.43005 2375.3999 -129.89197 22222
297.371 2375.1338 -129.60985 22222
299.09415 2375.3069 -129.91022 22222
311.20837 2374.3293 -129.75002 22222
318.77734 2373.7246 -129.66248 22222
323.17215 2373.3589 -129.73718 22222
327.95984 2373.0654 -129.71906 22222
251.10951 2378.6011 -129.86566 22222
255.3063 2378.2739 -129.85088 22222
258.88232 2377.9253 -129.84685 22222
261.56744 2377.6936 -129.88457 22222
213.28026 2381.3037 -129.95848 22222
214.75536 2381.113 -129.99829 22222
219.22485 2380.7117 -129.99397 22222
175.07091 2384.1213 -129.73605 22222
178.57059 2383.7939 -129.65047 22222
181.0864 2383.6118 -129.20891 22222
186.16554 2383.104 -129.91219 22222
188.44945 2382.9521 -129.65977 22222
191.62198 2382.908 -129.94026 22222
141.69327 2386.7329 -129.33963 22222
499.52292 2336.6548 -128.58351 22222
501.35699 2336.3904 -128.19806 22222
512.79315 2335.6572 -128.00291 22222
521.44983 2335.6016 -128.47606 22222
523.71057 2335.917 -128.83508 22222
487.07877 2337.8523 -128.83232 22222
493.50732 2337.3179 -128.95378 22222
411.64612 2342.501 -128.8838 22222
417.50937 2342.1787 -128.77422 22222
421.42639 2342.1531 -128.03268 22222
426.27975 2341.8066 -128.11258 22222
431.49963 2341.4246 -128.16794 22222
433.43109 2341.2729 -128.11453 22222
451.42923 2340.1904 -128.04521 22222
455.58362 2340.0588 -128.12016 22222
371.49301 2345.9187 -128.10216 22222
373.4075 2345.7466 -128.00021 22222
377.12683 2345.3655 -128.31657 22222
380.94159 2345.0486 -128.04257 22222
385.68286 2344.8179 -128.34773 22222
389.25726 2344.3442 -128.75934 22222
393.1561 2344.0427 -128.59167 22222
395.69202 2343.9768 -128.16481 22222
397.38074 2343.8303 -128.2845 22222
399.32611 2343.699 -128.22772 22222
339.53445 2348.3589 -128.15686 22222
341.25958 2348.2625 -128.06482 22222
351.54184 2347.7021 -128.11113 22222
357.41495 2346.949 -128.21643 22222
363.49158 2346.4229 -128.33687 22222
365.27463 2346.3428 -128.19902 22222
291.74353 2351.937 -128.39514 22222
295.26508 2351.5645 -128.10733 22222
305.62268 2350.6748 -128.20215 22222
309.98212 2350.3682 -128.47878 22222
318.69501 2349.699 -128.57266 22222
319.741 2349.6919 -128.01476 22222
323.63208 2349.4485 -128.06073 22222
255.57814 2354.4573 -128.05933 22222
273.69232 2353.011 -128.24214 22222
276.00754 2352.8591 -128.38997 22222
279.17688 2352.636 -128.12575 22222
281.92926 2352.427 -128.46449 22222
285.40488 2352.29 -128.03758 22222
289.37646 2352.0129 -128.0269 22222
205.25177 2357.8467 -128.04329 22222
209.7623 2357.3887 -128.5352 22222
212.88281 2356.9541 -128.93002 22222
215.90376 2356.894 -128.43181 22222
220.62193 2357.0535 -128.084 22222
222.74493 2356.7695 -128.88551 22222
225.68842 2356.5596 -128.90775 22222
227.25839 2356.4353 -128.7957 22222
229.89035 2356.4045 -128.60448 22222
235.6021 2356.0859 -128.18958 22222
237.30171 2355.8557 -128.10013 22222
239.64256 2355.8313 -128.41008 22222
241.22914 2355.7227 -128.43307 22222
243.60104 2355.4106 -128.56317 22222
183.51886 2359.5642 -128.0869 22222
199.44876 2358.1506 -128.38637 22222
201.33824 2358.0469 -128.07487 22222
521.77344 2359.1921 -128.72441 22222
499.50409 2361.1611 -128.5213 22222
503.18088 2361.1731 -128.27643 22222
385.63464 2368.8125 -128.15178 22222
399.29926 2367.7197 -128.10982 22222
331.32492 2372.5737 -128.05785 22222
346.85471 2371.3945 -128.18423 22222
351.03925 2371.0889 -128.08958 22222
283.78815 2375.9912 -128.25766 22222
309.18512 2374.0884 -128.00856 22222
323.79156 2373.1094 -128.34486 22222
324.67862 2373.0715 -128.00322 22222
277.6156 2376.4702 -128.07315 22222
278.99969 2376.3608 -128.05092 22222
228.82805 2380.4199 -128.0481 22222
234.00627 2379.833 -128.00081 22222
142.97157 2386.7075 -128.9045 22222
503.95178 2336.147 -127.96501 22222
506.95129 2335.9485 -127.80424 22222
515.98181 2335.3132 -127.80859 22222
521.05743 2336.7339 -127.17315 22222
457.39505 2339.9492 -127.71375 22222
460.10095 2339.6021 -127.80655 22222
463.29971 2339.2881 -127.74131 22222
465.30954 2339.0181 -127.47041 22222
467.18066 2338.8069 -127.68008 22222
469.50122 2338.5762 -127.86075 22222
471.39792 2338.4517 -127.20065 22222
475.48599 2338.5342 -127.00896 22222
479.19321 2338.2571 -127.53594 22222
483.81586 2338.0669 -127.36637 22222
488.05499 2337.8818 -127.26736 22222
523.89496 2338.5066 -127.37946 22222
413.17581 2342.5449 -127.73524 22222
435.57385 2341.1511 -127.82815 22222
437.16956 2341.0178 -127.82842 22222
439.50665 2340.7993 -127.9867 22222
441.43231 2340.7644 -127.72487 22222
443.02414 2340.6797 -127.81365 22222
447.31296 2340.4126 -127.49001 22222
449.33798 2340.3948 -127.58038 22222
375.59467 2345.561 -127.96159 22222
382.87622 2345.1323 -127.44071 22222
331.01797 2348.9973 -127.89563 22222
336.78952 2348.6165 -127.76854 22222
345.22369 2348.0244 -127.96436 22222
347.60803 2347.8345 -127.98771 22222
361.54047 2346.6848 -127.92688 22222
369.55173 2346.0339 -127.87121 22222
303.26407 2350.9575 -127.98579 22222
306.98358 2350.7063 -127.84681 22222
313.06201 2350.2241 -127.97719 22222
315.69458 2350.0193 -127.97536 22222
321.26953 2349.572 -127.96462 22222
327.32147 2349.2341 -127.9015 22222
249.75137 2354.8784 -127.96205 22222
257.09491 2354.4446 -127.66595 22222
259.73737 2354.1685 -127.95587 22222
265.28854 2353.7842 -127.71898 22222
266.94235 2353.6926 -127.67091 22222
217.49562 2356.9443 -127.93093 22222
247.65096 2355.1304 -127.90343 22222
193.74834 2358.8281 -127.61053 22222
194.96805 2358.6321 -127.88586 22222
513.96002 2360.5896 -127.36745 22222
521.01959 2358.304 -127.26698 22222
451.14102 2363.9568 -127.16349 22222
453.09805 2363.8206 -127.46583 22222
455.00406 2363.7402 -127.18233 22222
459.1358 2363.3804 -127.16701 22222
508.39902 2361.0503 -127.58784 22222
413.4696 2366.8059 -127.65517 22222
417.5022 2366.5015 -127.67365 22222
419.18768 2366.4185 -127.38288 22222
421.4512 2366.1802 -127.88982 22222
423.09705 2366.1262 -127.32406 22222
427.43152 2365.7073 -127.66427 22222
439.87952 2364.6714 -127.65163 22222
441.1481 2364.5945 -127.56055 22222
445.87564 2364.2451 -127.48216 22222
449.18826 2364.0154 -127.62625 22222
369.49268 2369.936 -127.66759 22222
375.02722 2369.3979 -127.64673 22222
377.5672 2369.2568 -127.728 22222
381.89423 2369.02 -127.84441 22222
383.2037 2368.9004 -127.80824 22222
387.28436 2368.6604 -127.51643 22222
389.40671 2368.5212 -127.46174 22222
392.41525 2368.2542 -127.9923 22222
403.52402 2367.5276 -127.63631 22222
405.01605 2367.4146 -127.78065 22222
407.75061 2367.1958 -127.9304 22222
409.16696 2367.168 -127.22517 22222
335.71982 2372.3452 -127.99627 22222
338.85944 2371.9824 -127.71754 22222
343.60431 2371.6626 -127.88933 22222
349.25912 2371.2329 -127.89807 22222
365.92682 2370.3008 -127.73807 22222
294.15033 2375.1211 -127.99171 22222
297.90524 2375.0984 -127.71779 22222
301.43771 2374.7356 -127.9883 22222
303.38321 2374.7029 -127.96094 22222
305.87552 2374.3564 -127.92128 22222
321.09616 2373.4978 -127.84618 22222
245.96385 2378.7498 -127.72438 22222
249.97708 2378.5784 -127.93718 22222
250.93063 2378.4819 -127.61859 22222
253.38187 2378.1248 -127.97655 22222
255.27464 2378.1335 -127.69476 22222
257.95493 2377.7825 -127.83315 22222
259.02768 2377.7163 -127.75912 22222
261.53635 2377.5481 -127.77082 22222
262.87338 2377.4565 -127.9174 22222
265.27618 2377.4844 -127.97579 22222
267.16782 2377.187 -127.84263 22222
271.44809 2376.8723 -127.75583 22222
273.08212 2376.7776 -127.90882 22222
274.87839 2376.72 -127.59533 22222
281.62015 2376.1545 -127.89233 22222
209.65775 2381.793 -127.7921 22222
211.61273 2381.696 -127.15034 22222
214.80391 2381.3433 -127.32301 22222
216.84341 2381.1218 -127.44009 22222
219.5069 2380.8235 -127.80652 22222
220.93236 2380.761 -127.56354 22222
224.21643 2380.6812 -127.50098 22222
225.86012 2380.594 -127.65521 22222
230.95648 2380.2297 -127.77161 22222
235.62466 2379.6733 -127.70447 22222
176.69014 2384.3442 -127.66468 22222
178.92786 2384.2268 -127.04228 22222
183.48068 2383.6826 -127.14327 22222
186.33315 2383.3562 -127.40311 22222
499.58984 2336.5891 -126.12894 22222
517.67706 2336.3486 -126.62277 22222
519.26422 2336.3528 -126.67638 22222
495.55865 2337.0535 -126.14938 22222
520.90326 2337.804 -126.27593 22222
389.45508 2344.5979 -126.29191 22222
341.33789 2348.4795 -126.06367 22222
348.0871 2348.0256 -126.10418 22222
349.78464 2348.0405 -126.243 22222
355.65872 2347.4033 -126.12158 22222
359.93823 2347.0989 -126.05257 22222
365.68066 2346.5864 -126.03141 22222
521.80151 2347.6631 -126.71516 22222
297.91165 2351.855 -126.31738 22222
301.30835 2351.5818 -126.12132 22222
303.79218 2351.2034 -126.14359 22222
307.69797 2350.8567 -126.0736 22222
311.72754 2350.6716 -126.47093 22222
321.75092 2349.999 -126.12798 22222
323.41562 2349.8816 -126.26648 22222
325.58774 2349.675 -126.41101 22222
331.74554 2349.2417 -126.07056 22222
333.25113 2349.0869 -126.03367 22222
335.8252 2349.0212 -126.21593 22222
263.8158 2354.3586 -126.22282 22222
271.69315 2353.6594 -126.06551 22222
273.39847 2353.5115 -126.02383 22222
275.81418 2353.3137 -126.05396 22222
277.50674 2353.1792 -126.21667 22222
289.93893 2352.3875 -126.07993 22222
293.49408 2352.1858 -126.26977 22222
295.25079 2352.0798 -126.22421 22222
522.13452 2353.626 -126.2323 22222
523.70093 2353.8469 -126.93594 22222
206.75803 2357.7041 -126.94017 22222
231.9254 2356.29 -126.17882 22222
244.43097 2355.499 -126.82428 22222
519.43134 2357.7012 -126.12389 22222
521.91431 2355.4666 -126.46477 22222
177.94981 2359.6392 -126.80693 22222
513.86786 2360.0457 -126.05125 22222
464.64386 2363.0547 -126.10782 22222
481.35001 2362.0691 -126.88937 22222
497.89706 2361.4934 -126.08259 22222
500.22385 2361.4636 -126.07776 22222
333.43051 2372.5898 -126.04236 22222
294.40167 2375.2747 -126.44037 22222
228.37541 2380.5073 -126.79462 22222
141.6132 2387.1323 -126.80015 22222
497.02673 2336.8857 -125.9453 22222
501.5036 2336.5444 -125.87042 22222
504.22226 2336.2073 -125.944 22222
515.1499 2336.7854 -125.59128 22222
457.40051 2339.8027 -125.18737 22222
459.43326 2339.6804 -125.50358 22222
461.48117 2339.5881 -125.26262 22222
463.54739 2339.3623 -125.30505 22222
465.45233 2339.1328 -125.17514 22222
467.55676 2338.8638 -125.83865 22222
469.79022 2338.6465 -125.39854 22222
471.08951 2338.5698 -125.10373 22222
517.60229 2338.2708 -125.13534 22222
519.94128 2339.6501 -125.44779 22222
411.11667 2342.532 -125.21863 22222
413.20972 2342.4421 -125.50191 22222
415.25214 2342.3813 -125.50002 22222
419.92865 2342.1462 -125.17059 22222
423.32825 2341.762 -125.07619 22222
425.76233 2341.7004 -125.16003 22222
429.298 2341.4055 -125.24144 22222
433.40015 2341.2942 -125.16919 22222
452.32681 2340.1775 -125.77257 22222
375.9252 2345.7754 -125.79607 22222
380.08466 2345.3564 -125.55959 22222
381.25925 2345.229 -125.2979 22222
383.54373 2345.0464 -125.58545 22222
387.53561 2344.6592 -125.30531 22222
393.46655 2344.2437 -125.61873 22222
397.50732 2343.9724 -125.66389 22222
399.58783 2343.8315 -125.80122 22222
337.55371 2348.8401 -125.67957 22222
339.14761 2348.7217 -125.8918 22222
343.14117 2348.5061 -125.8562 22222
353.49466 2347.656 -125.90468 22222
367.6937 2346.4741 -125.97298 22222
369.65573 2346.3276 -125.77901 22222
373.56216 2346.0278 -125.63969 22222
519.69489 2348.7617 -125.75153 22222
299.15646 2351.7512 -125.80473 22222
305.19357 2351.1125 -125.85919 22222
309.1149 2350.7888 -125.5351 22222
313.58261 2350.4265 -125.92058 22222
315.08817 2350.3157 -125.54041 22222
317.8331 2350.269 -125.91638 22222
327.69901 2349.5337 -125.93741 22222
329.42584 2349.2578 -125.85955 22222
255.34689 2354.9028 -125.26694 22222
257.47995 2354.752 -125.78834 22222
260.9325 2354.5466 -125.86904 22222
269.33386 2353.8757 -125.76005 22222
279.43286 2353.0059 -125.972 22222
281.87146 2352.8379 -125.9353 22222
285.68784 2352.5515 -125.95158 22222
291.52756 2352.2869 -125.89362 22222
519.82257 2353.406 -125.30085 22222
205.47621 2357.8811 -125.33962 22222
214.00038 2356.7209 -125.10793 22222
215.52344 2356.8091 -125.09323 22222
217.57095 2357.0073 -125.06118 22222
219.62738 2357.1255 -125.12616 22222
221.347 2357.103 -125.06213 22222
225.68887 2356.9006 -125.37618 22222
237.45213 2356.0149 -125.60352 22222
239.40959 2355.9063 -125.50858 22222
241.01573 2355.7952 -125.76794 22222
245.70297 2355.5447 -125.67125 22222
247.66756 2355.415 -125.30675 22222
249.52026 2355.2957 -125.13274 22222
517.14703 2357.2725 -125.16789 22222
519.20642 2355.7642 -125.38866 22222
172.89967 2360.104 -125.03735 22222
195.73328 2358.6919 -125.11044 22222
201.7706 2358.1616 -125.80574 22222
505.82718 2360.8757 -125.47045 22222
509.4364 2360.6738 -125.88978 22222
515.51288 2358.7432 -125.22481 22222
503.76315 2361.2627 -125.6727 22222
415.54935 2366.8899 -125.07189 22222
419.27301 2366.676 -125.03447 22222
423.27606 2366.3633 -125.05785 22222
425.54282 2366.1963 -125.06657 22222
445.90817 2364.6082 -125.03819 22222
375.41602 2369.6028 -125.67306 22222
383.13843 2369.2417 -125.03477 22222
389.52438 2368.7642 -125.04897 22222
404.05026 2367.6746 -125.42986 22222
410.12094 2367.3159 -125.19911 22222
413.82709 2367.0151 -125.21848 22222
337.87323 2372.3914 -125.13521 22222
343.49591 2371.9971 -125.1259 22222
345.13007 2371.8171 -125.42798 22222
346.97427 2371.7214 -125.02436 22222
349.23911 2371.5107 -125.39542 22222
350.79413 2371.3962 -125.41284 22222
365.98715 2370.5269 -125.02985 22222
367.75391 2370.3491 -125.33795 22222
371.14481 2370.0154 -125.07404 22222
290.65915 2375.7085 -125.49043 22222
297.85352 2375.2183 -125.43871 22222
302.72595 2375.0151 -125.0834 22222
305.65051 2374.7366 -125.17645 22222
319.36972 2373.6792 -125.83224 22222
250.21574 2378.8291 -125.2216 22222
255.35039 2378.4497 -125.05695 22222
259.16882 2378.0811 -125.38023 22222
261.76303 2377.876 -125.58051 22222
265.37146 2377.6943 -125.43849 22222
267.44833 2377.5713 -125.30238 22222
270.73566 2377.2961 -125.22466 22222
273.07471 2377.1455 -125.00181 22222
276.06003 2376.8823 -125.30653 22222
278.8634 2376.71 -125.01096 22222
281.58978 2376.574 -125.13146 22222
285.88434 2376.2493 -125.15601 22222
221.19737 2381.0566 -125.12807 22222
225.79628 2380.8416 -125.05232 22222
234.0957 2380.155 -125.00939 22222
238.95789 2379.592 -125.03151 22222
241.05278 2379.4551 -125.19083 22222
183.51572 2384.0457 -125.10071 22222
502.02545 2336.9761 -124.12809 22222
506.03357 2336.6838 -124.78777 22222
483.78885 2338.0601 -124.75749 22222
503.31967 2337.0027 -124.1355 22222
517.13776 2339.707 -124.79955 22222
427.51501 2341.5061 -124.86385 22222
435.45291 2340.9939 -124.80327 22222
437.06641 2340.8601 -124.92825 22222
439.22968 2340.718 -124.89562 22222
441.66162 2340.5466 -124.97306 22222
443.00632 2340.5723 -124.52969 22222
453.61649 2340.1431 -124.8051 22222
362.82886 2346.7307 -124.90233 22222
517.43481 2351.1111 -124.77313 22222
286.79355 2352.4065 -124.94976 22222
517.55792 2353.54 -124.51711 22222
235.11429 2356.144 -124.56178 22222
251.51321 2355.1763 -124.68306 22222
515.71808 2355.9136 -124.05679 22222
508.11322 2360.366 -124.39157 22222
509.55145 2359.9736 -124.55401 22222
459.00281 2363.7681 -124.85827 22222
463.33862 2363.3276 -124.86678 22222
465.17636 2363.2725 -124.42441 22222
481.7309 2362.5305 -124.12732 22222
417.29736 2366.8599 -124.8118 22222
421.20975 2366.6062 -124.87737 22222
453.12601 2364.1104 -124.71122 22222
386.00522 2369.0305 -124.69999 22222
340.74295 2372.2781 -124.49464 22222
294.96848 2375.4614 -124.83485 22222
301.49353 2375.1304 -124.70957 22222
253.44131 2378.6404 -124.81348 22222
257.74875 2378.2686 -124.95615 22222
263.12006 2377.9092 -124.96955 22222
269.52811 2377.4417 -124.98943 22222
209.99599 2381.937 -124.96383 22222
213.5645 2381.6455 -124.84267 22222
217.2067 2381.4021 -124.93476 22222
230.91629 2380.3513 -124.98955 22222
234.93973 2380.0557 -124.94704 22222
179.28032 2384.6968 -124.77835 22222
181.15674 2384.4353 -124.8692 22222
141.558 2387.6409 -124.17605 22222
143.41534 2387.4329 -124.38957 22222
145.35422 2387.2756 -124.43093 22222
491.90308 2337.5444 -123.48028 22222
493.8288 2337.6077 -123.67241 22222
497.52283 2337.2119 -123.81583 22222
498.94324 2337.3015 -123.64779 22222
503.65179 2337.3438 -123.43079 22222
423.97998 2341.7212 -123.28032 22222
431.66083 2341.4731 -123.18747 22222
433.64365 2341.3442 -123.69841 22222
435.46689 2341.1841 -123.10041 22222
436.94254 2341.0879 -123.4329 22222
441.29312 2340.7559 -123.70588 22222
513.24963 2341.3572 -123.56403 22222
386.14127 2344.8154 -123.83773 22222
395.81155 2344.157 -123.15823 22222
337.65567 2348.5737 -123.02688 22222
343.51096 2348.1626 -123.02969 22222
357.63168 2347.0554 -123.21485 22222
367.4664 2346.3389 -123.06514 22222
369.98779 2346.1667 -123.29838 22222
371.37115 2346.0176 -123.11588 22222
295.37784 2351.8762 -123.0715 22222
299.23755 2351.6819 -123.03054 22222
303.90973 2351.0862 -123.03942 22222
305.75806 2350.9309 -123.29636 22222
313.65875 2350.3162 -123.01526 22222
315.74579 2350.1472 -123.43061 22222
319.85196 2349.8723 -123.64889 22222
321.87152 2349.6658 -123.16677 22222
323.78589 2349.4739 -123.24125 22222
257.36758 2354.7798 -123.08178 22222
260.91803 2354.4753 -123.06456 22222
263.62598 2354.311 -123.16296 22222
265.54276 2354.1919 -123.80273 22222
275.66 2353.2634 -123.09846 22222
281.58005 2352.7952 -123.06113 22222
285.95959 2352.4548 -123.04648 22222
287.40997 2352.384 -123.0149 22222
291.47781 2352.1489 -123.07236 22222
513.88232 2353.6125 -123.40139 22222
515.80969 2353.6431 -123.97321 22222
211.675 2357.0293 -123.09008 22222
215.20734 2356.8965 -123.1617 22222
235.4895 2356.1201 -123.06482 22222
247.81731 2355.4214 -123.14262 22222
511.69592 2357.5896 -123.32402 22222
513.41382 2357.7947 -123.80851 22222
499.7034 2360.9197 -123.15897 22222
501.17184 2360.9927 -123.98863 22222
505.5361 2360.4253 -123.87753 22222
479.2276 2362.6467 -123.8314 22222
495.84991 2361.52 -123.82111 22222
341.84885 2372.374 -123.08282 22222
295.01779 2375.7393 -123.14063 22222
302.34387 2375.1873 -123.69436 22222
261.80539 2378.3057 -123.05 22222
267.51666 2377.9426 -123.09753 22222
277.83194 2377.0881 -123.03946 22222
286.16318 2376.5349 -123.08855 22222
287.14258 2376.4346 -123.11292 22222
289.97113 2376.2097 -123.02742 22222
139.2065 2387.9768 -123.68444 22222
457.27509 2339.887 -122.74768 22222
458.56836 2339.8555 -122.15088 22222
463.38113 2339.5566 -122.03957 22222
465.82266 2339.3591 -122.50175 22222
467.32156 2339.218 -122.2896 22222
469.7312 2339.0391 -122.17944 22222
471.55191 2338.8105 -122.55714 22222
494.92648 2337.9475 -122.47129 22222
499.51443 2337.7278 -122.72896 22222
500.62152 2337.948 -122.2952 22222
505.52463 2338.7053 -122.45285 22222
507.5762 2338.4775 -122.98714 22222
411.47174 2342.6003 -122.73898 22222
427.30295 2341.6709 -122.77486 22222
509.41116 2340.2817 -122.66776 22222
383.30594 2344.9795 -122.64932 22222
397.42514 2344.0818 -122.76257 22222
399.31113 2343.949 -122.78665 22222
401.77963 2343.606 -122.99305 22222
407.40042 2343.0273 -122.7252 22222
507.43103 2344.6763 -122.10771 22222
510.78769 2343.1116 -122.86181 22222
331.8566 2348.9622 -122.90176 22222
333.62662 2348.8516 -122.88939 22222
335.53784 2348.7212 -122.82215 22222
339.54507 2348.5071 -122.91656 22222
341.1666 2348.4058 -122.75227 22222
345.53851 2348.1289 -122.85964 22222
365.65549 2346.458 -122.73374 22222
301.22684 2351.3831 -122.85811 22222
310.8609 2350.7207 -122.81926 22222
327.86905 2349.1931 -122.90523 22222
259.76535 2354.5774 -122.89198 22222
277.38425 2353.1362 -122.86676 22222
283.01355 2352.7668 -122.69631 22222
289.7012 2352.2466 -122.8323 22222
219.5889 2357.2371 -122.73118 22222
221.62962 2357.2183 -122.20638 22222
223.9892 2357.0701 -122.55311 22222
227.13618 2356.8601 -122.18837 22222
239.52199 2355.8804 -122.96175 22222
241.13165 2355.8208 -122.81805 22222
245.34465 2355.5854 -122.77876 22222
253.29852 2355.1436 -122.94088 22222
509.3486 2356.1741 -122.09502 22222
167.55782 2360.8105 -122.21583 22222
169.54156 2360.6624 -122.02393 22222
172.9597 2360.2175 -122.26089 22222
174.87943 2359.9614 -122.14442 22222
195.62122 2358.7732 -122.74152 22222
200.75296 2358.428 -122.31512 22222
501.32123 2360.5952 -122.93859 22222
504.23334 2359.9106 -122.50818 22222
507.42023 2359.1091 -122.83422 22222
463.58435 2363.9329 -122.03429 22222
465.84763 2363.7476 -122.01998 22222
421.52405 2366.8252 -122.72839 22222
430.65842 2366.1492 -122.77793 22222
438.94604 2365.6003 -122.26442 22222
443.22012 2365.0828 -122.70498 22222
455.69626 2364.355 -122.36982 22222
457.82922 2364.1404 -122.77784 22222
459.6145 2364.1143 -122.36513 22222
385.94986 2369.2903 -122.77476 22222
415.54169 2367.2258 -122.78555 22222
419.33011 2367.0173 -122.80688 22222
335.61526 2372.8806 -122.91357 22222
343.4617 2372.2866 -122.87573 22222
344.94934 2372.1772 -122.7299 22222
347.34372 2371.9734 -122.93967 22222
349.36954 2371.8704 -122.89299 22222
366.15994 2370.7209 -122.99948 22222
371.29547 2370.3025 -122.94836 22222
375.24698 2370.0439 -122.88467 22222
305.53033 2375.0803 -122.95728 22222
253.88011 2378.926 -122.92503 22222
257.7674 2378.5928 -122.98579 22222
271.45767 2377.6731 -122.58435 22222
274.87671 2377.3755 -122.6009 22222
281.56894 2376.8425 -122.9622 22222
283.1373 2376.8108 -122.62843 22222
290.8493 2376.2019 -122.59161 22222
215.23419 2381.8621 -122.77727 22222
217.51912 2381.7019 -122.73391 22222
219.35796 2381.5627 -122.63116 22222
221.00696 2381.4761 -122.75424 22222
229.08864 2380.9927 -122.67349 22222
231.20923 2380.7791 -122.79955 22222
233.83582 2380.5798 -122.74542 22222
235.07588 2380.4082 -122.59956 22222
237.40871 2380.1172 -122.84208 22222
241.0433 2379.8938 -122.92884 22222
183.2771 2384.5779 -122.37202 22222
184.93095 2384.2803 -122.86995 22222
187.33931 2384.1094 -122.60115 22222
188.87962 2383.9417 -122.56937 22222
141.67322 2387.4932 -122.10111 22222
175.62552 2385.7725 -122.45354 22222
176.58669 2385.6118 -122.56386 22222
179.69678 2385.1489 -122.53728 22222
125.04379 2388.7688 -122.96619 22222
127.46935 2388.4634 -122.81309 22222
132.26419 2388.282 -122.11638 22222
137.80428 2388.053 -122.92758 22222
473.31027 2338.8225 -121.76485 22222
496.16403 2338.8621 -121.10814 22222
497.31061 2338.9912 -121.02454 22222
498.75882 2338.9731 -121.19294 22222
501.64117 2339.29 -121.36038 22222
503.38016 2339.4702 -121.56192 22222
505.38455 2339.5603 -121.91185 22222
440.19513 2341.0659 -121.52192 22222
503.52768 2341.5242 -121.04059 22222
505.22632 2342.084 -121.28004 22222
507.69785 2341.8308 -121.93587 22222
377.30927 2345.6255 -121.20544 22222
503.92682 2343.9971 -121.17773 22222
505.59308 2344.613 -121.65433 22222
353.61673 2347.4395 -121.1143 22222
359.80731 2347.0059 -121.10799 22222
364.13736 2346.6306 -121.79182 22222
373.20819 2346.0103 -121.09895 22222
503.97134 2346.7095 -121.48972 22222
299.16779 2351.5767 -121.01561 22222
304.11374 2351.2874 -121.19861 22222
307.66 2351.0293 -121.76282 22222
321.41873 2349.9727 -121.16915 22222
327.73169 2349.2991 -121.24227 22222
283.26678 2352.8066 -121.21763 22222
289.68176 2352.387 -121.06286 22222
505.88815 2353.7917 -121.46785 22222
507.54184 2353.7166 -121.84583 22222
217.19194 2357.4214 -121.08923 22222
505.85999 2357.3386 -121.38898 22222
497.8551 2360.7129 -121.97661 22222
501.44296 2359.1089 -121.09645 22222
503.48062 2358.9141 -121.47802 22222
466.71738 2363.5906 -121.02384 22222
476.63962 2363.0735 -121.12302 22222
479.67715 2362.7595 -121.41622 22222
483.64758 2362.3872 -121.70746 22222
447.34949 2364.9287 -121.94236 22222
460.76199 2364.2576 -121.04196 22222
120.8423 2387.5415 -121.19516 22222
143.51865 2387.3718 -121.95663 22222
146.69781 2387.1392 -121.18224 22222
490.17368 2338.9387 -120.5228 22222
491.72604 2339.1082 -120.39843 22222
492.96295 2339.1563 -120.61875 22222
411.82495 2342.8589 -120.82066 22222
423.4184 2341.907 -120.85989 22222
425.54837 2341.77 -120.85803 22222
426.88464 2341.7754 -120.71602 22222
436.02228 2341.4478 -120.48947 22222
443.36133 2340.9626 -120.13522 22222
498.6203 2340.1143 -120.39942 22222
499.33444 2341.9065 -120.14169 22222
501.42197 2341.5593 -120.59071 22222
375.54126 2345.7961 -120.87994 22222
380.98431 2345.3342 -120.94494 22222
384.99576 2345.0425 -120.63638 22222
395.26575 2344.3616 -120.54836 22222
407.18063 2343.3835 -120.13077 22222
499.43857 2343.9561 -120.15479 22222
501.38147 2344.2214 -120.58756 22222
333.35074 2348.9185 -120.97826 22222
337.23068 2348.782 -120.59692 22222
343.05402 2348.3167 -120.65384 22222
347.55786 2347.9373 -120.70953 22222
355.35306 2347.3103 -120.92622 22222
357.2327 2347.1785 -120.85979 22222
361.08698 2346.9377 -120.62296 22222
365.85077 2346.6174 -120.69764 22222
366.93631 2346.5537 -120.327 22222
369.35501 2346.3613 -120.63873 22222
371.65869 2346.1833 -120.9974 22222
497.47183 2348.5627 -120.189 22222
499.48438 2347.8828 -120.59926 22222
501.62375 2346.6807 -120.96377 22222
297.49466 2351.803 -120.76041 22222
301.51996 2351.4753 -120.86749 22222
312.63934 2350.6396 -120.85402 22222
314.87195 2350.4629 -120.74899 22222
317.82224 2350.2788 -120.87489 22222
324.82413 2349.688 -120.88319 22222
329.16193 2349.1543 -120.93535 22222
331.79993 2349.1101 -120.93965 22222
497.93237 2350.7166 -120.27109 22222
259.69797 2354.741 -120.79079 22222
261.31784 2354.5491 -120.80549 22222
265.50989 2354.2617 -120.86609 22222
269.53381 2353.9224 -120.8863 22222
273.15283 2353.6167 -120.78186 22222
275.4086 2353.3796 -120.82362 22222
277.13974 2353.2844 -120.62998 22222
279.35385 2353.1135 -120.77902 22222
281.59546 2352.9504 -120.70109 22222
285.53754 2352.676 -120.61286 22222
291.11581 2352.3247 -120.08723 22222
293.2803 2352.1008 -120.88458 22222
498.14023 2353.249 -120.02091 22222
499.80649 2352.8567 -120.39098 22222
501.67111 2353.5806 -120.61186 22222
503.51727 2353.8135 -120.94929 22222
207.55444 2357.8616 -120.47045 22222
211.52095 2357.1396 -120.43728 22222
213.39346 2357.4131 -120.48526 22222
215.21994 2357.4385 -120.56054 22222
219.00703 2357.4773 -120.51608 22222
220.62126 2357.5188 -120.00808 22222
222.90054 2357.3242 -120.24985 22222
230.07182 2356.7446 -120.80332 22222
233.51978 2356.3938 -120.27331 22222
237.41289 2355.9983 -120.88654 22222
239.23845 2355.9514 -120.28629 22222
243.47925 2355.7102 -120.57998 22222
247.52446 2355.3848 -120.89859 22222
249.47696 2355.3445 -120.65708 22222
251.47636 2355.3323 -120.5743 22222
253.4498 2355.1995 -120.8036 22222
255.35829 2355.0754 -120.5537 22222
499.83511 2357.8843 -120.23206 22222
501.63351 2357.156 -120.36375 22222
503.4017 2356.0923 -120.77065 22222
175.51395 2360.0049 -120.08159 22222
190.24031 2359.2029 -120.27219 22222
195.54756 2358.8105 -120.35511 22222
199.09816 2358.6255 -120.45961 22222
497.51306 2359.4407 -120.35251 22222
499.48871 2359.4973 -120.89904 22222
481.95343 2361.958 -120.21224 22222
433.73361 2366.241 -120.09054 22222
381.52985 2369.9946 -120.26447 22222
385.78 2369.668 -120.21024 22222
415.56458 2367.5481 -120.13768 22222
422.94333 2367.0142 -120.18608 22222
339.64642 2372.8413 -120.52139 22222
343.35529 2372.5461 -120.79426 22222
344.85873 2372.4998 -120.52425 22222
347.54309 2372.2607 -120.75343 22222
371.3222 2370.5381 -120.84438 22222
373.15356 2370.5725 -120.29488 22222
375.63373 2370.395 -120.26849 22222
377.38083 2370.3215 -120.03283 22222
305.66354 2375.4197 -120.81229 22222
309.40704 2375.1052 -120.7649 22222
261.93756 2378.6255 -120.87174 22222
263.69687 2378.6372 -120.87941 22222
265.37823 2378.6182 -120.11846 22222
267.67715 2378.3174 -120.85121 22222
271.21027 2377.9773 -120.46435 22222
273.2449 2377.7581 -120.72128 22222
279.06409 2377.3743 -120.70745 22222
283.25891 2377.1711 -120.48705 22222
287.02966 2376.824 -120.89675 22222
289.80347 2376.6443 -120.34772 22222
295.0192 2376.2456 -120.7674 22222
218.1431 2381.7354 -120.22379 22222
221.40546 2381.4348 -120.92769 22222
230.44206 2380.8362 -120.09427 22222
233.7791 2380.801 -120.36856 22222
237.6683 2380.5188 -120.34631 22222
241.04492 2380.3599 -120.33683 22222
250.63177 2379.5757 -120.64319 22222
254.18611 2379.3235 -120.41669 22222
210.33723 2382.502 -120.67308 22222
212.15598 2382.3525 -120.35211 22222
213.91586 2382.2549 -120.44342 22222
215.37448 2382.1973 -120.24913 22222
121.13437 2386.3264 -120.44452 22222
123.71666 2387.179 -120.61658 22222
125.24493 2387.6379 -120.86465 22222
128.46097 2387.7502 -120.81573 22222
130.15504 2387.6006 -120.35482 22222
132.92538 2387.1523 -120.02034 22222
138.35927 2387.4568 -120.68589 22222
141.78365 2387.0715 -120.41664 22222
143.90538 2387.0149 -120.62314 22222
176.18057 2386.0896 -120.08176 22222
179.87411 2385.5344 -120.20052 22222
463.69226 2339.8979 -119.59622 22222
467.63367 2339.6843 -119.78442 22222
470.96146 2339.4558 -119.85568 22222
478.1293 2339.0139 -119.87113 22222
482.0585 2339.3569 -119.26152 22222
438.58426 2341.5132 -119.18283 22222
459.62842 2340.0442 -119.64644 22222
489.70068 2340.5911 -119.03918 22222
493.61237 2340.5337 -119.71921 22222
495.45477 2341.6892 -119.31866 22222
494.33542 2343.6907 -119.14988 22222
497.52094 2343.905 -119.64297 22222
493.34793 2347.8682 -119.31584 22222
310.08087 2351.0935 -119.18903 22222
493.76276 2350.7998 -119.48241 22222
493.34924 2353.54 -119.11265 22222
495.33072 2353.4661 -119.47553 22222
225.36772 2357.1555 -119.93295 22222
227.52907 2356.9866 -119.85674 22222
495.56622 2355.7219 -119.21383 22222
497.48795 2356.1985 -119.45517 22222
499.31641 2356.8413 -119.97793 22222
169.21852 2360.8049 -119.46035 22222
171.30193 2360.5757 -119.9436 22222
173.17377 2360.3113 -119.9792 22222
177.16435 2359.9016 -119.46043 22222
191.49873 2359.1123 -119.94292 22222
196.5406 2358.7568 -119.7286 22222
483.3432 2360.9514 -119.03619 22222
465.88324 2363.5061 -119.75269 22222
471.47684 2363.1973 -119.40189 22222
476.4982 2362.8237 -119.53879 22222
479.45084 2362.2683 -119.80525 22222
428.9444 2366.5178 -119.72224 22222
431.05679 2366.52 -119.91619 22222
440.50214 2365.5488 -119.00063 22222
443.12009 2365.5166 -119.57925 22222
445.5423 2365.3394 -119.65327 22222
447.72433 2365.1926 -119.10179 22222
451.77933 2364.8442 -119.06787 22222
460.2067 2364.2822 -119.07126 22222
461.4978 2364.1838 -119.29556 22222
413.33328 2367.7043 -119.90894 22222
419.23123 2367.3066 -119.99842 22222
128.96964 2375.4573 -119.22448 22222
126.95589 2376.6731 -119.52074 22222
127.91422 2378.2312 -119.33347 22222
125.90847 2380.8154 -119.35175 22222
224.60289 2381.1003 -119.20945 22222
235.10056 2380.7351 -119.94059 22222
238.6832 2380.5032 -119.98846 22222
123.34757 2384.229 -119.63024 22222
127.17609 2384.4785 -119.28192 22222
128.99542 2384.3921 -119.02399 22222
184.80624 2384.792 -119.66659 22222
188.86 2384.4858 -119.57698 22222
123.83209 2386.0508 -119.94871 22222
125.56837 2386.1123 -119.82646 22222
127.83884 2385.8052 -119.52473 22222
129.78503 2385.8848 -119.36176 22222
131.16113 2385.5854 -119.15326 22222
136.00049 2386.2195 -119.13704 22222
139.01237 2386.4617 -119.3968 22222
141.88266 2386.3804 -119.1156 22222
148.58278 2386.7156 -119.53728 22222
151.69501 2386.7 -119.67334 22222
172.54765 2386.3523 -119.98577 22222
181.33804 2385.1216 -119.71189 22222
475.6568 2339.7798 -118.48709 22222
423.50507 2342.3728 -118.11569 22222
441.58588 2341.4666 -118.78598 22222
468.26752 2340.0884 -118.70181 22222
487.46335 2340.5562 -118.81827 22222
386.28616 2345.0667 -118.49377 22222
405.42758 2343.8206 -118.46174 22222
489.65204 2344.0088 -118.19381 22222
491.38867 2344.0469 -118.62866 22222
337.633 2348.8767 -118.21281 22222
357.61713 2347.2251 -118.01846 22222
488.29175 2346.3145 -118.14636 22222
297.66397 2351.886 -118.618 22222
301.43494 2351.509 -118.23199 22222
302.99225 2351.676 -118.51517 22222
306.26993 2351.6079 -118.29494 22222
313.16858 2350.8447 -118.58406 22222
315.87595 2350.7488 -118.30434 22222
319.07135 2350.6797 -118.1903 22222
322.58432 2350.4031 -118.27021 22222
325.42593 2350.0339 -118.49576 22222
329.16016 2349.3022 -118.18229 22222
488.02875 2349.259 -118.35381 22222
489.57492 2351.052 -118.68226 22222
257.42783 2354.9187 -118.04128 22222
259.54791 2354.8149 -118.17493 22222
263.55597 2354.5225 -118.45454 22222
267.52161 2354.208 -118.40321 22222
277.31155 2353.3423 -118.05583 22222
279.358 2353.1965 -118.05715 22222
281.68225 2353.0234 -118.57793 22222
285.80118 2352.7317 -118.79387 22222
290.16635 2352.4512 -118.20813 22222
295.00256 2352.0569 -118.20565 22222
487.14154 2352.8796 -118.17266 22222
489.77332 2353.1099 -118.59121 22222
209.54382 2357.7507 -118.27641 22222
211.74582 2357.9875 -118.03172 22222
222.132 2357.709 -118.4335 22222
223.9299 2357.6311 -118.13249 22222
226.65054 2357.2065 -118.5294 22222
231.07085 2357.0786 -118.12932 22222
245.92911 2355.4546 -118.13902 22222
247.54465 2355.3992 -118.19537 22222
251.64069 2355.2581 -118.19971 22222
253.55542 2355.1753 -118.61017 22222
255.43344 2355.0483 -118.09449 22222
487.35989 2355.8447 -118.0269 22222
171.32985 2360.9646 -118.00168 22222
218.40819 2358.0032 -118.40912 22222
481.77237 2360.9641 -118.64803 22222
484.04385 2359.5986 -118.25543 22222
163.53749 2361.5359 -118.03683 22222
167.23654 2361.0813 -118.95776 22222
465.22656 2363.2065 -118.46034 22222
469.37949 2362.9524 -118.46803 22222
479.05167 2361.5562 -118.43906 22222
433.41693 2366.0681 -118.03332 22222
453.49957 2364.6597 -118.87292 22222
455.98859 2364.1692 -118.15868 22222
457.97855 2364.3928 -118.85681 22222
133.63367 2372.9546 -118.35176 22222
357.89105 2371.9258 -118.36951 22222
313.43643 2375.1472 -118.02226 22222
317.14746 2374.5359 -118.2851 22222
131.49332 2377.7739 -118.79256 22222
133.05818 2376.7888 -118.58329 22222
137.05356 2376.9294 -118.02537 22222
281.7287 2377.7065 -118.01092 22222
286.85464 2377.2351 -118.21761 22222
129.64688 2381.2927 -118.8083 22222
131.61606 2381.6436 -118.49136 22222
242.83197 2380.4897 -118.52476 22222
128.1577 2382.2766 -118.91963 22222
133.32896 2383.8193 -118.43459 22222
135.09258 2384.3044 -118.35806 22222
133.25555 2385.5576 -118.70666 22222
137.1916 2385.467 -118.60239 22222
139.35425 2385.2319 -118.31637 22222
143.41774 2385.9053 -118.4962 22222
145.09875 2386.4668 -118.90803 22222
149.42303 2386.4429 -118.77227 22222
153.79082 2386.3105 -118.56899 22222
171.672 2386.2532 -118.38417 22222
177.79893 2385.6931 -118.77103 22222
426.82318 2342.4526 -117.73692 22222
463.23404 2340.3335 -117.9172 22222
469.36777 2340.5713 -117.67817 22222
473.92529 2340.481 -117.8283 22222
476.82675 2340.8223 -117.37592 22222
479.44321 2341.2698 -117.2823 22222
481.8063 2341.8396 -117.1231 22222
485.96216 2341.9893 -117.7939 22222
375.65192 2345.9199 -117.74084 22222
380.98721 2345.5901 -117.75513 22222
383.00076 2345.3779 -117.80662 22222
388.6972 2345.0149 -117.52553 22222
397.64792 2344.573 -117.49541 22222
399.58112 2344.3506 -117.72436 22222
401.72769 2344.2813 -117.67043 22222
408.63052 2343.7971 -117.2759 22222
411.99695 2343.3059 -117.6252 22222
485.68466 2344.1553 -117.40628 22222
339.38748 2348.8169 -117.75782 22222
341.53741 2348.655 -117.98021 22222
343.50607 2348.4363 -117.93423 22222
345.06818 2348.313 -117.59861 22222
347.99936 2348.0396 -117.75561 22222
348.9252 2348.0134 -117.44834 22222
352.08478 2347.9067 -117.00266 22222
353.75867 2347.6238 -117.76849 22222
355.41919 2347.459 -117.87285 22222
359.28366 2347.156 -117.41976 22222
361.24738 2346.9548 -117.57092 22222
363.48285 2346.8477 -117.53781 22222
365.58994 2346.7744 -117.716 22222
369.2872 2346.5247 -117.96515 22222
371.25278 2346.425 -117.4336 22222
372.77652 2346.2251 -117.62887 22222
481.78494 2348.5537 -117.13984 22222
483.82199 2346.2063 -117.29876 22222
485.09039 2347.6626 -117.64944 22222
