# .PCD v0.7 - Point Cloud Data file format
VERSION 0.7
FIELDS x y z rgba
SIZE 4 4 4 4
TYPE F F F U
COUNT 1 1 1 1
WIDTH 1304
HEIGHT 1
VIEWPOINT 0 0 0 1 0 0 0
POINTS 1304
DATA ascii
617.41467 3225.2793 -486.31512 28516
619.22784 3226.7478 -486.74316 28516
620.40741 3227.1211 -486.83185 28516
622.21533 3227.3254 -486.97159 28516
625.2926 3227.0608 -486.72079 28516
634.87885 3225.8208 -486.70947 28516
636.23871 3226.0525 -486.59293 28516
639.34943 3228.7722 -486.57419 28516
639.75745 3250.9976 -486.93671 28516
631.55774 3252.9795 -486.71927 28516
634.14844 3253.0483 -486.63864 28516
636.87866 3252.7107 -486.87589 28516
619.44739 3255.666 -486.80096 28516
616.78522 3223.8513 -485.44833 28516
620.22699 3227.2266 -485.1131 28516
627.13312 3226.9006 -485.04816 28516
629.36023 3226.4915 -485.35266 28516
632.09625 3226.0264 -485.59076 28516
634.47986 3225.7031 -485.18066 28516
636.38831 3226.1448 -485.09232 28516
641.26062 3248.292 -485.2847 28516
629.48303 3253.0537 -485.07584 28516
631.58344 3253.0544 -485.06982 28516
617.90985 3225.9785 -484.5593 28516
622.60034 3227.5947 -484.90408 28516
624.95068 3227.2095 -484.99338 28516
637.87769 3226.8557 -484.32681 28516
640.65277 3249.7363 -484.84793 28516
620.54926 3254.4573 -484.72607 28516
624.14471 3253.1077 -484.64871 28516
634.1911 3253.1335 -484.79669 28516
636.5036 3252.7732 -484.96857 28516
638.18524 3252.1572 -484.68375 28516
619.27191 3256.542 -484.98325 28516
617.60706 3225.5789 -483.17197 28516
618.99292 3226.7866 -483.31537 28516
622.35815 3227.5515 -483.03897 28516
625.24426 3227.2593 -483.13303 28516
634.47308 3225.7764 -483.31866 28516
636.53937 3226.2532 -483.26358 28516
640.64703 3249.7605 -483.00604 28516
620.85107 3254.3557 -483.3299 28516
619.48114 3256.0696 -483.22726 28516
616.31403 3222.3096 -482.82233 28516
620.40271 3227.3848 -482.8338 28516
627.22791 3227.0178 -482.0676 28516
632.20685 3226.1025 -482.80429 28516
639.04486 3228.3374 -482.90854 28516
641.14648 3247.9338 -482.67087 28516
634.16144 3253.2146 -482.79654 28516
638.26312 3252.1973 -482.92038 28516
616.31549 3222.2515 -481.08176 28516
617.4953 3225.4465 -481.09503 28516
622.19354 3227.6057 -481.20273 28516
625.03064 3227.3599 -481.11014 28516
631.78845 3226.2576 -481.05264 28516
634.5603 3226.0181 -481.21539 28516
636.38043 3226.2839 -481.51041 28516
616.80939 3224.0178 -480.81339 28516
620.25867 3227.4004 -480.82611 28516
627.27362 3227.0537 -480.73245 28516
629.7016 3226.6221 -480.55084 28516
637.98169 3227.0164 -480.77124 28516
639.07672 3228.4749 -480.80981 28516
640.21375 3231.4817 -480.97491 28516
641.19366 3248.4722 -480.659 28516
639.78613 3251.1331 -480.82864 28516
621.53033 3254.0237 -480.82376 28516
631.50269 3253.2319 -480.98529 28516
636.4989 3253 -480.77145 28516
638.13849 3252.2891 -480.92514 28516
619.35663 3256.6028 -480.69778 28516
616.3313 3221.7747 -479.55557 28516
624.79846 3227.4863 -479.25021 28516
639.01471 3228.3477 -479.0571 28516
640.17371 3232.0237 -479.047 28516
640.92993 3245.8403 -479.08258 28516
640.6001 3249.7756 -479.17993 28516
634.0882 3253.3674 -479.02643 28516
638.00836 3252.4373 -479.05164 28516
616.90125 3224.2322 -478.70309 28516
617.90265 3226.0229 -478.48495 28516
619.09851 3227.085 -478.90298 28516
622.56238 3227.8733 -478.84406 28516
629.13855 3226.7498 -478.8743 28516
632.29352 3226.2832 -478.32391 28516
635.29401 3226.0107 -478.4165 28516
637.96655 3227.0588 -478.96234 28516
639.66809 3229.7327 -478.2934 28516
620.97699 3254.3779 -478.98224 28516
619.40326 3256.3755 -478.54883 28516
617.67285 3225.751 -477.0679 28516
622.42273 3227.9504 -477.05344 28516
627.25757 3227.2546 -477.18216 28516
629.42511 3226.8022 -477.02386 28516
632.06799 3226.3577 -477.08771 28516
621.93475 3253.8066 -477.08963 28516
631.54095 3253.4038 -477.0603 28516
633.91467 3253.4561 -477.21176 28516
635.98657 3253.2341 -477.02753 28516
616.32288 3222.2866 -476.68445 28516
619.03894 3226.9844 -476.88733 28516
638.07495 3227.219 -476.9689 28516
639.57886 3229.5513 -476.42114 28516
640.8053 3245.6577 -476.67883 28516
641.18103 3247.9226 -476.83997 28516
640.13696 3250.8801 -476.79071 28516
620.51154 3254.8616 -476.90134 28516
624.06372 3253.3125 -476.83871 28516
638.05762 3252.4741 -476.51382 28516
617.20605 3225.22 -475.21048 28516
624.75616 3227.7104 -475.17291 28516
634.29431 3226.1494 -475.20224 28516
640.88824 3248.6736 -475.00583 28516
618.76917 3226.8171 -474.69287 28516
620.45697 3227.7864 -474.8493 28516
627.172 3227.3391 -474.98392 28516
636.51465 3226.5562 -474.82593 28516
639.00043 3228.3936 -474.78433 28516
639.94421 3231.7834 -474.90387 28516
639.9151 3234.6992 -474.63745 28516
639.98749 3241.0505 -474.41214 28516
640.53918 3244.4119 -474.99274 28516
627.20972 3253.4153 -474.74417 28516
631.63629 3253.5024 -474.87399 28516
634.2099 3253.5369 -474.93613 28516
636.52832 3253.1394 -474.83359 28516
638.28729 3252.4863 -474.62143 28516
617.16888 3225.2307 -473.06 28516
640.73944 3245.7905 -473.09402 28516
641.14221 3248.8967 -473.17389 28516
640.73914 3249.7378 -473.26849 28516
631.41223 3253.5601 -473.24783 28516
633.80609 3253.5959 -473.60062 28516
618.76593 3227.009 -472.80243 28516
624.94788 3227.8428 -472.52133 28516
632.34009 3226.5361 -472.77786 28516
634.98328 3226.2632 -472.07355 28516
637.78369 3227.1782 -472.7291 28516
622.10327 3228.1843 -472.69238 28516
639.48102 3229.4573 -472.93561 28516
639.90698 3231.7129 -472.67752 28516
640.24542 3243.1597 -472.41925 28516
639.49615 3251.8311 -472.77908 28516
621.25708 3254.2529 -472.67432 28516
624.01422 3253.394 -472.99622 28516
636.776 3253.1914 -472.88135 28516
639.89447 3231.7598 -471.06332 28516
636.29297 3253.4866 -471.17007 28516
638.30377 3252.679 -471.06 28516
620.44568 3227.9438 -470.56598 28516
627.30981 3227.5588 -470.87775 28516
637.73596 3227.2251 -470.84213 28516
622.61304 3228.2415 -470.56219 28516
638.89099 3228.3916 -470.8157 28516
639.48932 3229.6367 -470.66385 28516
639.8714 3234.6145 -470.9064 28516
639.79926 3239.1143 -470.87592 28516
640.67511 3245.7151 -470.81412 28516
640.91541 3248.4351 -470.8707 28516
639.82233 3251.6614 -470.83542 28516
640.65112 3250.2322 -470.97137 28516
624.31299 3253.6362 -470.91757 28516
631.37634 3253.6831 -470.87021 28516
618.69843 3226.9844 -469.24106 28516
634.43616 3226.4067 -469.16351 28516
620.46393 3228.0212 -469.17105 28516
624.76367 3228.0574 -469.15448 28516
640.42322 3244.425 -469.14053 28516
640.89063 3248.7085 -469.17038 28516
632.08582 3226.7629 -468.77393 28516
636.49652 3226.8018 -468.1629 28516
637.78027 3227.3049 -468.93271 28516
639.4129 3229.4817 -468.68277 28516
639.87817 3231.8459 -468.77209 28516
639.87482 3234.5803 -468.80142 28516
624.08728 3253.6858 -468.79309 28516
627.1355 3253.7034 -468.99719 28516
636.67041 3253.4966 -468.50034 28516
639.23218 3252.2336 -468.63315 28516
617.18481 3225.3147 -467.2511 28516
619.26874 3227.5532 -467.0477 28516
622.10901 3228.4133 -467.74377 28516
639.86383 3231.7954 -467.1152 28516
639.7782 3238.8555 -467.09686 28516
627.45599 3227.7097 -466.01187 28516
629.43872 3227.2876 -466.43729 28516
636.50781 3226.8704 -466.70346 28516
625.06677 3228.0762 -466.01288 28516
639.44666 3229.5725 -466.89645 28516
640.12384 3242.9033 -466.64612 28516
640.58026 3245.5405 -466.65741 28516
640.8869 3248.9248 -466.78262 28516
619.03979 3227.4766 -465.02701 28516
622.30884 3228.5137 -465.30783 28516
624.98608 3228.1042 -465.28806 28516
638.84534 3228.26 -465.09451 28516
639.85333 3234.6084 -465.12659 28516
640.16821 3243.1282 -465.16522 28516
634.71466 3226.7151 -464.76486 28516
637.59662 3227.3225 -464.90372 28516
640.00287 3231.5085 -464.75909 28516
640.61328 3245.7805 -464.95242 28516
640.88373 3248.6829 -464.82031 28516
640.29895 3251.1577 -464.96915 28516
624.38141 3254.009 -464.58536 28516
620.25647 3227.9695 -463.77377 28516
632.21289 3226.9543 -463.38162 28516
637.47229 3227.2913 -463.35883 28516
624.7702 3228.1997 -463.42859 28516
639.39105 3229.5522 -463.15359 28516
639.77295 3236.9509 -463.36325 28516
639.74786 3239.0288 -463.2113 28516
640.55048 3245.4985 -463.00897 28516
640.86255 3248.5847 -463.0231 28516
634.86737 3226.7793 -462.60239 28516
636.55902 3226.9878 -462.87585 28516
622.68353 3228.51 -462.54019 28516
639.883 3231.8135 -462.46347 28516
639.88165 3241.2815 -462.75507 28516
640.11884 3243.084 -462.99344 28516
640.12463 3251.5149 -462.6991 28516
634.91693 3254.1721 -462.5004 28516
638.11823 3253.1687 -462.92902 28516
640.53937 3245.5303 -461.1701 28516
640.81348 3250.1736 -461.08606 28516
636.67474 3227.1582 -460.50128 28516
625.21204 3228.2432 -460.20056 28516
638.87665 3228.4111 -460.71216 28516
639.40265 3229.6191 -460.95462 28516
639.85803 3231.5762 -460.88214 28516
624.10309 3254.2615 -460.88181 28516
634.17731 3254.2747 -460.82327 28516
638.13214 3253.2183 -460.8959 28516
639.72296 3231.0676 -459.02338 28516
629.02063 3254.2727 -459.45181 28516
635.34296 3227.085 -458.82782 28516
640.724 3250.2876 -458.81506 28516
624.47772 3254.3179 -458.76889 28516
631.70294 3254.3225 -458.58115 28516
634.12671 3254.3735 -458.65543 28516
636.41022 3253.9204 -458.53439 28516
637.95319 3253.4045 -458.81711 28516
639.39966 3252.4485 -458.88358 28516
620.34473 3228.4778 -457.16943 28516
624.9693 3228.4272 -457.09296 28516
639.38922 3230.0601 -457.14514 28516
637.89923 3253.4512 -457.19907 28516
632.25562 3227.3203 -456.46942 28516
635.40869 3227.1682 -456.65091 28516
637.59839 3227.7385 -456.78586 28516
622.53516 3228.7239 -456.92673 28516
627.64484 3228.0627 -456.50369 28516
639.78265 3231.5662 -456.79834 28516
640.88873 3250.2336 -456.95654 28516
627.36566 3254.3857 -456.81729 28516
636.48932 3254.0156 -456.96884 28516
638.74536 3228.9863 -455.12646 28516
640.39691 3251.2903 -455.26666 28516
622.01141 3254.9211 -455.37952 28516
624.60858 3254.4568 -455.55551 28516
629.62469 3227.8186 -454.82227 28516
632.13873 3227.4216 -454.97757 28516
635.3288 3227.2878 -454.79697 28516
622.46973 3228.8811 -454.81265 28516
625.32129 3228.5071 -454.72812 28516
640.86798 3250.5815 -454.63046 28516
627.58917 3254.4688 -454.74423 28516
631.79846 3254.4958 -454.52863 28516
634.25018 3254.5576 -454.87213 28516
638.01648 3253.4929 -454.95276 28516
639.5954 3252.478 -454.23834 28516
619.03223 3228.094 -453.41052 28516
624.87 3228.667 -453.0878 28516
627.18756 3228.3225 -453.04391 28516
640.37921 3245.1262 -453.06436 28516
633.98779 3254.605 -453.04379 28516
636.32855 3254.1819 -453.34695 28516
629.56763 3227.8647 -452.60291 28516
636.37274 3227.4919 -452.85092 28516
622.42181 3228.9021 -452.97278 28516
638.49469 3228.8313 -452.92606 28516
639.24292 3230.2896 -452.72177 28516
640.50696 3251.1614 -452.68378 28516
641.0365 3250.1543 -452.42072 28516
624.68585 3254.5537 -452.97821 28516
629.66437 3254.5759 -452.68665 28516
637.9198 3253.5977 -452.87933 28516
639.52191 3252.6392 -452.83032 28516
617.43524 3226.666 -451.30533 28516
631.83801 3227.5415 -451.32745 28516
634.30878 3227.2136 -451.52878 28516
620.37585 3228.7732 -451.24011 28516
622.53638 3228.9426 -451.08942 28516
624.95679 3228.75 -451.13812 28516
631.50378 3254.6484 -451.06082 28516
633.85358 3254.6636 -451.19952 28516
636.55121 3254.3892 -451.46927 28516
637.92664 3253.7188 -451.32343 28516
619.28717 3228.4001 -450.71667 28516
627.27167 3228.3801 -450.93564 28516
639.3446 3230.3179 -450.47284 28516
640.52039 3245.6104 -450.96567 28516
641.15063 3248.4177 -450.7774 28516
624.65948 3254.6345 -450.81412 28516
627.51459 3254.6543 -450.59076 28516
639.81689 3252.491 -450.73553 28516
631.4823 3227.7092 -449.46326 28516
636.66479 3227.5281 -449.95825 28516
618.74512 3228.187 -449.30621 28516
622.09851 3229.0667 -449.09656 28516
640.87622 3247.749 -449.07721 28516
624.69141 3254.7122 -449.06781 28516
638.18036 3253.7312 -449.28659 28516
639.64142 3252.7593 -449.1203 28516
620.95795 3255.5508 -449.07401 28516
616.35809 3224.0625 -448.98151 28516
617.65961 3227.4487 -448.42694 28516
624.8772 3228.8577 -448.93781 28516
627.42206 3228.4685 -448.79251 28516
639.65381 3231.9155 -448.79697 28516
639.94348 3234.2864 -448.92267 28516
640.0177 3242.8621 -448.64417 28516
640.41589 3245.1238 -448.58487 28516
640.43066 3251.7146 -448.38147 28516
627.35577 3254.7307 -448.80414 28516
631.49609 3254.7502 -448.71884 28516
634.82922 3254.7935 -448.43073 28516
636.52216 3254.4297 -448.89148 28516
637.94666 3228.4111 -447.23959 28516
639.76099 3236.7939 -447.09885 28516
640.36053 3245.1987 -447.12015 28516
627.0993 3254.8047 -447.11389 28516
629.05005 3254.8003 -447.16394 28516
639.61597 3252.885 -447.01151 28516
616.40283 3224.1462 -446.60477 28516
617.41382 3226.7632 -446.91934 28516
635.34692 3227.282 -446.81076 28516
619.28821 3228.5518 -446.78226 28516
620.24091 3228.9534 -446.75131 28516
624.94525 3228.928 -446.70804 28516
629.58936 3228.0999 -446.46091 28516
639.104 3230.4712 -446.83182 28516
639.56732 3231.7393 -446.68073 28516
639.92529 3234.0364 -446.74753 28516
641.0307 3248.1206 -446.72177 28516
640.78302 3250.7893 -446.98541 28516
624.55505 3254.8298 -446.78232 28516
631.48938 3254.8477 -446.8111 28516
634.16132 3254.8865 -446.91037 28516
636.23486 3254.6851 -446.73123 28516
637.91748 3253.9243 -446.65417 28516
622.46411 3255.3003 -446.69827 28516
639.73474 3236.6545 -445.13254 28516
640.31915 3245.2253 -445.03448 28516
633.89178 3254.9519 -445.05783 28516
616.6073 3224.0386 -444.94891 28516
616.99817 3225.8718 -444.74307 28516
617.6524 3227.1404 -444.83459 28516
618.75897 3228.3357 -444.74286 28516
622.1535 3229.4329 -444.83823 28516
625.31049 3228.9377 -444.81647 28516
638.14801 3228.9524 -444.65427 28516
639.00439 3230.2737 -444.99631 28516
639.54706 3231.7605 -444.75818 28516
639.88422 3234.2085 -444.74997 28516
639.84375 3241.77 -444.84167 28516
640.70032 3250.8015 -444.9126 28516
624.18787 3254.9109 -444.84335 28516
627.1275 3254.9148 -444.77924 28516
629.45905 3254.9119 -444.65897 28516
631.62396 3254.9131 -444.68405 28516
636.61694 3254.4658 -444.879 28516
639.81036 3252.7527 -444.78149 28516
616.69897 3223.9116 -443.07288 28516
633.75684 3227.5552 -443.61401 28516
638.93573 3230.1775 -443.31812 28516
639.71021 3236.7317 -443.00211 28516
639.72925 3240.8501 -443.18854 28516
627.04205 3254.9746 -443.04523 28516
629.31763 3254.967 -443.11911 28516
631.03168 3254.9658 -443.2059 28516
636.37457 3254.7244 -443.01462 28516
622.02527 3255.5872 -443.26199 28516
617.44299 3226.603 -442.79532 28516
618.85535 3228.4553 -442.69565 28516
620.35474 3229.1414 -442.64468 28516
622.13727 3229.417 -442.46088 28516
624.87122 3229.1492 -442.58972 28516
627.36273 3228.7205 -442.56415 28516
629.6676 3228.2185 -442.63684 28516
637.005 3228.2593 -442.32965 28516
638.00311 3228.8518 -442.98907 28516
639.61273 3231.6479 -442.80109 28516
639.68359 3238.8132 -442.9982 28516
640.22577 3245.1482 -442.79468 28516
640.74609 3247.9509 -442.70999 28516
640.68597 3250.9119 -442.93793 28516
634.71222 3255.0046 -442.05939 28516
639.67926 3236.6677 -441.1105 28516
640.91205 3248.7354 -441.13199 28516
623.74811 3255.0745 -441.08026 28516
633.81177 3255.0725 -441.03519 28516
616.771 3223.8213 -440.6409 28516
617.47986 3226.5188 -440.86044 28516
634.68243 3227.8147 -440.86899 28516
618.90588 3228.5132 -440.61697 28516
620.36176 3229.2063 -440.36252 28516
622.13348 3229.6443 -440.55637 28516
624.62274 3229.3118 -440.48758 28516
627.37823 3228.8132 -440.67288 28516
638.9024 3230.3713 -440.69733 28516
639.85309 3233.7544 -440.89703 28516
639.65222 3238.73 -440.59848 28516
639.86566 3242.9583 -440.91238 28516
640.74335 3251.6501 -440.94748 28516
636.77356 3254.7175 -440.47705 28516
639.62109 3253.1174 -440.79694 28516
627.07452 3255.02 -440.61749 28516
617.16815 3226.1045 -439.01672 28516
639.72656 3241.7637 -439.07245 28516
640.64648 3247.7351 -439.0571 28516
638.27429 3254.0801 -439.19656 28516
631.50055 3255.1355 -439.09805 28516
634.2981 3255.1768 -439.09015 28516
617.94659 3227.3967 -438.73541 28516
632.37598 3228.0286 -438.33771 28516
636.51996 3228.1094 -438.55878 28516
639.60901 3232.7344 -438.90543 28516
639.61499 3236.707 -438.85422 28516
636.51294 3254.751 -438.9075 28516
639.84399 3252.947 -438.81622 28516
621.31226 3256.1431 -438.46237 28516
626.69873 3255.0564 -438.99225 28516
629.34644 3255.0889 -438.71582 28516
617.85352 3227.1399 -437.60666 28516
619.8313 3228.9966 -437.16644 28516
622.23517 3229.519 -437.21262 28516
629.55579 3228.5176 -437.04257 28516
639.40039 3231.5557 -437.12997 28516
639.58588 3236.7048 -437.2153 28516
639.57947 3238.9617 -437.09964 28516
640.9126 3250.9219 -437.25958 28516
616.73877 3223.8535 -436.94855 28516
634.72681 3227.8633 -436.76126 28516
637.78156 3229.083 -436.7533 28516
639.77814 3242.9026 -436.65909 28516
640.06555 3244.875 -436.79523 28516
623.90454 3254.9946 -436.96957 28516
636.6347 3254.8982 -436.78732 28516
637.95154 3254.344 -436.77048 28516
639.63416 3253.2722 -436.96545 28516
620.25159 3257.0723 -436.82452 28516
627.41681 3255.1775 -436.39844 28516
629.34363 3255.1731 -436.52188 28516
631.71686 3255.251 -436.5076 28516
634.29047 3255.3015 -436.75909 28516
617.8504 3227.1702 -435.01654 28516
639.72302 3233.7791 -435.08868 28516
639.59149 3240.8962 -435.11908 28516
639.56293 3253.5732 -435.0712 28516
631.59448 3255.3191 -435.03506 28516
633.91742 3255.365 -435.21762 28516
616.72034 3223.5374 -434.82309 28516
619.2171 3228.9023 -434.52072 28516
620.36035 3229.3413 -434.85721 28516
624.78162 3229.4568 -434.81836 28516
627.44958 3228.9697 -434.92047 28516
632.15942 3228.187 -434.53925 28516
636.43701 3228.4658 -434.71271 28516
637.38776 3228.9185 -434.76895 28516
639.55261 3236.8027 -434.86911 28516
639.54034 3238.6069 -434.47604 28516
639.74969 3242.8945 -434.98547 28516
636.64954 3254.9768 -434.76981 28516
638.09039 3254.3904 -434.88568 28516
622.04926 3255.7913 -434.84509 28516
626.94672 3255.2297 -434.91809 28516
629.40228 3255.2498 -434.96204 28516
619.1131 3259.4319 -434.81927 28516
629.83142 3228.5586 -433.08292 28516
638.75452 3230.4272 -433.21692 28516
639.52924 3236.8071 -433.117 28516
622.22614 3255.8352 -433.06848 28516
623.9209 3255.1987 -433.33383 28516
616.80475 3223.8083 -432.80811 28516
617.08789 3225.929 -432.94803 28516
618.03632 3227.7217 -432.91428 28516
619.11731 3228.7886 -432.87582 28516
620.53058 3229.502 -432.76743 28516
622.61694 3229.9089 -432.78973 28516
627.27368 3229.1055 -432.70993 28516
632.21954 3228.2664 -432.77948 28516
634.7135 3228.0178 -432.99734 28516
637.74207 3229.1992 -432.71109 28516
639.70929 3233.6575 -432.81531 28516
639.60907 3241.7532 -432.7735 28516
638.21967 3254.4153 -432.88925 28516
627.6579 3255.2874 -432.48453 28516
629.50732 3255.3535 -432.83884 28516
631.64203 3255.4063 -432.9306 28516
634.42133 3255.5137 -432.80499 28516
636.65167 3255.0388 -432.78101 28516
619.28955 3258.9331 -432.88129 28516
629.35522 3228.832 -431.11105 28516
634.46411 3228.2908 -431.00299 28516
639.52557 3236.5303 -431.27148 28516
639.96832 3245.0117 -431.28552 28516
640.3667 3251.9304 -431.39005 28516
616.63525 3224.2285 -430.77499 28516
617.65948 3227.1326 -430.99844 28516
619.1344 3229.0647 -430.39371 28516
620.77228 3229.6914 -430.56165 28516
624.68408 3229.7109 -430.81854 28516
627.1626 3229.2837 -430.81277 28516
631.8988 3228.4417 -430.88351 28516
637.93549 3229.3479 -430.58435 28516
639.44318 3231.6765 -430.68658 28516
639.48126 3238.8645 -430.94476 28516
639.5105 3241.2603 -430.88147 28516
639.43634 3253.4829 -430.38605 28516
620.83612 3256.7375 -430.89456 28516
622.05475 3256.0293 -430.86243 28516
624.31781 3255.3083 -430.95129 28516
627.32465 3255.4258 -430.68152 28516
631.66467 3255.4949 -430.7197 28516
636.57019 3255.1091 -430.71695 28516
616.62854 3223.5222 -429.00357 28516
617.242 3226.4053 -429.5755 28516
622.17047 3229.9963 -429.25018 28516
627.1543 3229.3989 -429.12637 28516
629.61792 3228.8564 -429.16653 28516
631.66681 3228.5603 -429.5762 28516
635.1192 3228.4373 -429.25519 28516
638.74316 3230.4971 -429.05777 28516
639.49799 3236.6772 -429.12115 28516
639.54382 3241.9163 -429.13025 28516
637.74896 3254.7844 -429.16486 28516
627.00769 3255.4751 -429.1124 28516
634.01807 3255.6436 -429.0639 28516
636.39191 3255.2678 -429.11212 28516
619.10016 3259.7598 -429.11972 28516
618.93439 3229.0535 -428.93933 28516
624.93463 3229.7488 -428.63086 28516
637.82135 3229.3059 -428.75443 28516
639.57477 3233.8591 -428.58273 28516
639.44202 3238.9512 -428.41064 28516
640.57111 3248.2144 -428.6362 28516
620.63782 3256.9075 -428.92841 28516
622.37695 3255.9995 -428.88608 28516
624.34985 3255.4204 -428.81723 28516
629.46851 3255.5398 -428.78622 28516
631.81476 3255.5881 -428.82965 28516
616.6073 3224.0972 -427.254 28516
620.19421 3229.9326 -427.16379 28516
624.54913 3229.8347 -427.08408 28516
627.01471 3229.4282 -427.1351 28516
639.66486 3253.2334 -427.02167 28516
631.43359 3255.6465 -427.00681 28516
633.94012 3255.6912 -427.03391 28516
618.90948 3259.5532 -427.05649 28516
617.5556 3227.7927 -426.46503 28516
635.49902 3228.4126 -426.55829 28516
638.65796 3230.4229 -426.76102 28516
639.31818 3232.5471 -426.80768 28516
639.45837 3236.5674 -426.95868 28516
639.44873 3240.9998 -426.24426 28516
639.99487 3245.1587 -426.87918 28516
640.74048 3251.0366 -426.77234 28516
622.14178 3255.9927 -426.88541 28516
627.13287 3255.5764 -426.66827 28516
629.61993 3255.5991 -426.51129 28516
619.29761 3258.5364 -426.97482 28516
618.67755 3229.2173 -425.06638 28516
637.8645 3229.2629 -425.22375 28516
640.01727 3252.7278 -425.00037 28516
631.63977 3255.7202 -425.0704 28516
617.10352 3226.5952 -424.60025 28516
621.49207 3230.1582 -424.97977 28516
638.81696 3230.4668 -424.8931 28516
639.30988 3232.5796 -424.88446 28516
639.45374 3236.6099 -424.63251 28516
639.4411 3240.9207 -424.94778 28516
640.37921 3247.6138 -424.35559 28516
637.95685 3254.7122 -424.77518 28516
620.77936 3256.9111 -424.81766 28516
624.18701 3255.5081 -424.85321 28516
627.45825 3255.5557 -424.55814 28516
636.57782 3255.3413 -424.71768 28516
618.85858 3259.6467 -424.30725 28516
616.96289 3225.9854 -423.18732 28516
639.47223 3233.7134 -423.00772 28516
637.52423 3254.9707 -423.59189 28516
631.38586 3255.7715 -423.36526 28516
634.44458 3255.8989 -423.31464 28516
616.70697 3223.7231 -422.50369 28516
617.52313 3227.6799 -422.51794 28516
621.29034 3230.0837 -422.87372 28516
627.82996 3229.3203 -422.28717 28516
637.78656 3229.4929 -422.01703 28516
639.03717 3231.1182 -422.85205 28516
639.47021 3236.5459 -422.69662 28516
639.42004 3238.8716 -422.5838 28516
639.44952 3240.863 -422.98621 28516
639.7616 3243.9993 -422.8299 28516
640.35413 3247.512 -422.86154 28516
640.89246 3250.1819 -422.85507 28516
640.03827 3252.8047 -422.94458 28516
620.41797 3257.1082 -422.54803 28516
622.15472 3255.9878 -422.59262 28516
629.38031 3255.7151 -422.97073 28516
618.79498 3229.3125 -421.11359 28516
638.4375 3229.8821 -421.18066 28516
639.05988 3231.5437 -421.22845 28516
639.41791 3238.8396 -421.06412 28516
628.67017 3255.7058 -421.49106 28516
635.82556 3255.7197 -421.37692 28516
616.80469 3223.5376 -420.6525 28516
617.7276 3227.6855 -420.64661 28516
636.03027 3228.8501 -420.66833 28516
639.44 3233.6597 -420.49854 28516
639.4715 3236.1206 -420.9176 28516
639.44336 3240.7371 -420.71689 28516
639.85217 3244.926 -420.92389 28516
640.73816 3249.8845 -420.83936 28516
621.1333 3256.751 -420.65579 28516
624.06659 3255.6748 -420.71402 28516
616.87024 3223.6055 -419.07898 28516
639.43573 3236.9404 -419.14883 28516
640.25262 3247.4954 -419.10931 28516
632.30963 3255.9583 -419.94257 28516
634.0188 3255.999 -419.13922 28516
617.1405 3226.1875 -418.97897 28516
618.61212 3229.2493 -418.75223 28516
629.47314 3229.3462 -418.74686 28516
638.60742 3230.1182 -418.59323 28516
639.15546 3231.5637 -418.87372 28516
626.7074 3255.7085 -418.91431 28516
629.62408 3255.7705 -418.5968 28516
616.91962 3223.6777 -417.07291 28516
617.97052 3228.0706 -417.16248 28516
624.57098 3229.9878 -417.10284 28516
639.37158 3232.9509 -417.24164 28516
639.43091 3236.3171 -417.03012 28516
629.26959 3255.8896 -417.02554 28516
616.96979 3220.9133 -416.88284 28516
617.18439 3226.1274 -416.76358 28516
619.0838 3229.6328 -416.62891 28516
627.48364 3229.7107 -416.89178 28516
629.4342 3229.4172 -416.87234 28516
632.16858 3229.1685 -416.83884 28516
636.07642 3229.0125 -416.69965 28516
638.08014 3229.5896 -416.7193 28516
638.98834 3231.2825 -416.67493 28516
639.53845 3242.8687 -416.99976 28516
640.19849 3247.4277 -416.88214 28516
640.69794 3250.7417 -416.94229 28516
624.18164 3256.1758 -416.51312 28516
634.27911 3256.1721 -416.20389 28516
638.31818 3255.0864 -416.80539 28516
617.8028 3227.908 -415.0925 28516
620.39703 3230.0679 -415.02048 28516
629.36859 3229.51 -415.05777 28516
631.56097 3256.0762 -415.34259 28516
621.70374 3258.2712 -415.17639 28516
616.92877 3223.5186 -414.93384 28516
618.81262 3229.5393 -414.81329 28516
624.76495 3230.1001 -414.93045 28516
627.46765 3229.7727 -414.83286 28516
632.17596 3229.2534 -414.82568 28516
636.10229 3229.1279 -414.71616 28516
638.06433 3229.6511 -414.79129 28516
639.22522 3232.2034 -414.59027 28516
639.84631 3245.2849 -414.81528 28516
640.5578 3250.6248 -414.80301 28516
623.19714 3256.9004 -414.98352 28516
626.56183 3255.9146 -414.88049 28516
634.83722 3256.2551 -414.98526 28516
637.03339 3255.6616 -414.60715 28516
616.92535 3223.2744 -413.18198 28516
621.81116 3230.5168 -413.11462 28516
640.26385 3247.8115 -413.14151 28516
640.82837 3250.1865 -413.20309 28516
639.20569 3254.3823 -413.16364 28516
617.28558 3226.8311 -412.87735 28516
618.68939 3229.3728 -412.92645 28516
625.01764 3230.1609 -412.62292 28516
627.27881 3229.9221 -412.73816 28516
629.58124 3229.5586 -412.43118 28516
632.48279 3229.2671 -412.63437 28516
636.47058 3229.2603 -412.77777 28516
638.63495 3230.7415 -412.9585 28516
639.24384 3232.1885 -412.86362 28516
639.48932 3242.8135 -412.63992 28516
639.74652 3244.925 -412.5856 28516
640.47174 3251.9783 -412.89676 28516
623.39087 3257.5935 -412.6568 28516
626.51892 3256.1013 -412.78931 28516
631.80206 3256.1326 -412.62897 28516
634.48126 3256.3638 -412.78802 28516
636.3916 3255.9609 -412.9859 28516
621.69226 3259.76 -412.79819 28516
617.62506 3227.9055 -411.17728 28516
618.55969 3229.3608 -411.07809 28516
621.83264 3230.4348 -411.06055 28516
627.42499 3229.8806 -411.10864 28516
635.40729 3229.2915 -411.12839 28516
640.16998 3247.5452 -411.04794 28516
640.43701 3251.9385 -411.1716 28516
626.92621 3256.1614 -411.07925 28516
629.37909 3256.0979 -411.20193 28516
616.87384 3223.6985 -410.6915 28516
616.95129 3226.1951 -410.69586 28516
620.42944 3230.3159 -410.82199 28516
629.50018 3229.6375 -410.96725 28516
632.32825 3229.2979 -410.99536 28516
637.52478 3229.8406 -410.94519 28516
638.89093 3231.6375 -410.73196 28516
639.1983 3232.6917 -410.99884 28516
639.45941 3236.1904 -410.80133 28516
639.37372 3240.894 -410.88943 28516
640.75909 3250.2896 -410.63159 28516
639.39362 3254.1702 -410.80035 28516
625.02405 3256.7097 -410.8974 28516
631.76196 3256.2197 -410.88541 28516
636.41357 3255.8921 -410.96426 28516
637.82935 3255.3896 -410.95053 28516
622.14252 3259.6992 -410.97388 28516
621.5647 3261.877 -410.21753 28516
616.87103 3223.6536 -409.17163 28516
621.64386 3230.4661 -409.09039 28516
623.75562 3230.4238 -409.89337 28516
640.10522 3247.4519 -409.00363 28516
638.96997 3254.6465 -409.11252 28516
617.01239 3226.8694 -408.91031 28516
619.28961 3230.1118 -408.93484 28516
627.46179 3229.8467 -408.44733 28516
629.58191 3229.6091 -408.31918 28516
631.81232 3229.3523 -408.58746 28516
635.40833 3229.4009 -408.33307 28516
636.57208 3229.4714 -408.6694 28516
638.07825 3230.3276 -408.55844 28516
638.79541 3231.7026 -408.68719 28516
640.47681 3250.896 -408.88596 28516
640.04944 3253.0972 -408.48749 28516
629.40729 3256.2012 -408.41882 28516
631.64117 3256.2869 -408.70837 28516
634.00049 3256.4155 -408.73682 28516
636.37036 3255.9673 -408.80722 28516
622.6272 3258.6553 -408.95889 28516
621.52911 3261.5837 -408.7193 28516
616.90564 3223.5662 -407.14563 28516
619.07361 3230.0359 -407.10373 28516
620.40149 3230.4216 -407.36032 28516
621.42517 3230.5281 -407.26193 28516
624.20349 3230.439 -407.21249 28516
625.65698 3230.125 -407.98932 28516
634.29718 3229.3328 -407.13162 28516
639.69818 3245.0874 -407.17175 28516
640.14166 3247.7595 -407.10321 28516
623.25159 3257.6436 -407.69006 28516
624.99158 3256.8411 -407.41763 28516
625.36664 3256.7288 -407.97543 28516
626.71051 3256.3203 -407.06604 28516
637.79486 3255.4751 -407.16846 28516
617.14978 3226.6479 -406.85477 28516
627.63403 3229.9197 -406.35834 28516
632.39172 3229.2979 -406.50974 28516
636.35663 3229.6157 -406.87823 28516
638.05969 3230.6633 -406.97562 28516
638.84247 3231.9568 -406.68591 28516
639.46045 3236.1179 -406.89182 28516
640.43085 3250.0942 -406.65381 28516
639.56384 3254.0496 -406.99164 28516
640.09827 3253.1382 -406.92245 28516
629.41339 3256.2568 -406.75201 28516
636.45074 3255.9968 -406.80728 28516
621.73132 3259.2737 -406.99503 28516
617.49774 3228.0364 -405.32889 28516
634.8689 3229.2832 -405.01035 28516
635.96875 3229.6401 -405.18201 28516
624.31812 3256.7827 -405.18869 28516
629.33801 3256.3347 -405.28482 28516
636.12665 3256.1802 -405.08334 28516
620.78979 3258.9978 -405.0112 28516
616.94769 3222.8911 -404.89572 28516
616.9834 3225.8979 -404.83771 28516
617.90027 3229.0139 -404.61426 28516
620.71674 3230.5566 -404.84512 28516
622.60791 3230.6614 -404.20502 28516
624.76666 3230.3804 -404.79248 28516
629.54108 3229.678 -404.82635 28516
637.8728 3230.6182 -404.9501 28516
639.22778 3233.6372 -404.77094 28516
639.47491 3236.1948 -404.88214 28516
639.3916 3240.7859 -404.90033 28516
639.65344 3244.8513 -404.646 28516
640.44696 3250.1155 -404.93277 28516
639.64063 3254.2878 -404.46753 28516
640.09918 3253.2014 -404.94559 28516
621.64124 3257.8381 -404.63803 28516
622.74445 3257.2322 -404.90002 28516
634.13257 3256.5759 -404.91608 28516
638.04596 3255.5303 -404.06519 28516
620.75793 3261.145 -404.7135 28516
617.4726 3228.0493 -403.08908 28516
639.39899 3238.6438 -403.07565 28516
640.07959 3253.5051 -403.34277 28516
623.1239 3256.9602 -403.21481 28516
626.58826 3256.4087 -403.12479 28516
620.32141 3259.6924 -403.12622 28516
616.94501 3223.1223 -402.77304 28516
617.07349 3226.1531 -402.70004 28516
618.13177 3229.2761 -402.32382 28516
619.18134 3230.2686 -402.96732 28516
620.34955 3230.624 -402.95547 28516
625.14709 3230.3752 -402.63928 28516
627.28949 3230.0374 -402.84851 28516
629.39014 3229.7659 -402.86981 28516
632.05402 3229.4543 -402.98947 28516
634.67316 3229.5144 -402.94031 28516
635.95154 3229.7312 -402.74411 28516
637.83429 3230.7146 -402.85773 28516
638.65906 3231.9277 -402.99078 28516
639.20813 3233.5017 -402.8425 28516
639.51007 3235.9348 -402.80243 28516
639.6377 3244.8254 -402.87967 28516
640.09662 3247.614 -402.92307 28516
639.36261 3254.7034 -402.9288 28516
631.56158 3256.5081 -402.87082 28516
636.6142 3256.2261 -402.91693 28516
637.96692 3255.6775 -402.57486 28516
619.91144 3259.8196 -402.38025 28516
616.90936 3226.0635 -401.00067 28516
639.40283 3238.802 -401.27789 28516
640.64874 3250.4478 -401.30518 28516
640.47662 3252.0874 -401.01065 28516
621.51709 3257.155 -401.15594 28516
623.59937 3256.729 -401.54904 28516
627.01355 3256.4426 -401.22513 28516
633.34711 3256.6421 -401.65991 28516
637.74707 3255.8716 -401.38693 28516
616.94073 3223.4785 -400.85187 28516
617.90149 3228.9348 -400.94794 28516
619.16406 3230.3381 -400.77161 28516
622.20947 3230.7947 -400.87213 28516
624.75653 3230.522 -400.96985 28516
629.37146 3229.864 -400.98605 28516
632.10199 3229.582 -400.81534 28516
634.6214 3229.6128 -400.99066 28516
636.18231 3229.9448 -400.77219 28516
638.59265 3231.8914 -400.8844 28516
639.32898 3233.4502 -400.76373 28516
639.50861 3236.4407 -400.8728 28516
639.42981 3242.7952 -400.69894 28516
639.97559 3247.1401 -400.69019 28516
639.77271 3254.3921 -400.60007 28516
640.11688 3253.5996 -400.81866 28516
631.4613 3256.6001 -400.90787 28516
636.9823 3256.2454 -400.29691 28516
619.83765 3258.416 -400.80307 28516
619.4729 3261.0671 -400.75845 28516
617.03363 3226.1799 -399.15533 28516
625.16864 3230.5479 -399.09186 28516
627.16577 3230.2952 -399.00189 28516
637.73096 3230.8276 -399.21634 28516
639.58386 3244.7937 -399.00986 28516
640.32642 3252.7937 -399.01996 28516
636.18524 3256.5078 -399.39819 28516
619.35938 3259.5005 -399.10547 28516
616.94434 3223.0962 -398.70813 28516
617.54132 3228.3477 -398.92896 28516
618.75079 3230.0854 -398.74124 28516
620.44873 3230.938 -398.5968 28516
622.08386 3230.9092 -398.72919 28516
629.67218 3229.9326 -398.59991 28516
632.16992 3229.6875 -398.87744 28516
634.86786 3229.5593 -398.74417 28516
638.62628 3232.092 -398.52319 28516
639.17169 3233.614 -398.52731 28516
639.55396 3235.8203 -398.91376 28516
639.39484 3238.7117 -398.66458 28516
639.92523 3247.1055 -398.5878 28516
640.49701 3249.8384 -398.88647 28516
624.29315 3256.5579 -398.78436 28516
626.60858 3256.5208 -398.90778 28516
629.6026 3256.6113 -398.63519 28516
634.41608 3256.8569 -398.25854 28516
639.25854 3255.0718 -398.72043 28516
617.46448 3228.2769 -397.17255 28516
639.56934 3244.8921 -397.12869 28516
640.46985 3250.062 -397.04825 28516
620.34827 3257.7605 -397.35739 28516
637.9375 3255.9731 -397.46393 28516
616.9342 3223.6523 -396.9512 28516
617.02106 3226.0662 -396.7327 28516
617.94293 3229.5308 -396.58066 28516
619.10095 3230.449 -396.96359 28516
624.80023 3230.7117 -396.98471 28516
629.38434 3229.9614 -396.88815 28516
632.59937 3229.7327 -396.24203 28516
634.6731 3229.8176 -396.69528 28516
636.06628 3230.1082 -396.63669 28516
637.86102 3231.1328 -396.49402 28516
638.66284 3232.2629 -396.77258 28516
639.56689 3235.7283 -396.97604 28516
639.3949 3238.5469 -396.5206 28516
639.40155 3242.7756 -396.88644 28516
639.87488 3247.0422 -396.73932 28516
621.40778 3257.2959 -396.99442 28516
624.34576 3256.7041 -396.91577 28516
627.1745 3256.6482 -396.98663 28516
631.6637 3256.7717 -396.50558 28516
634.12427 3256.8765 -396.90723 28516
636.82092 3256.5854 -396.95435 28516
619.69177 3258.344 -396.8981 28516
617.87134 3229.2109 -395.05453 28516
618.88202 3230.4023 -395.0347 28516
631.35889 3256.8247 -395.01376 28516
619.01849 3259.7356 -395.01404 28516
616.98999 3225.9954 -394.73157 28516
624.89551 3230.7927 -394.95993 28516
629.9021 3230.0093 -394.35672 28516
620.47223 3231.0178 -394.93814 28516
637.73267 3231.0889 -394.33694 28516
639.46167 3235.8772 -394.70935 28516
639.37341 3238.6821 -394.94589 28516
639.37653 3242.6563 -394.58365 28516
639.51483 3244.6714 -394.95526 28516
640.41248 3250.0413 -394.81851 28516
640.26031 3253.8318 -394.94565 28516
620.66083 3257.6697 -394.80139 28516
624.21405 3256.7788 -394.88803 28516
626.60986 3256.7451 -394.73245 28516
634.6488 3256.8418 -394.26099 28516
636.72656 3256.4871 -394.79175 28516
639.24957 3255.1714 -394.98007 28516
634.82721 3229.6833 -393.04123 28516
639.35223 3240.6465 -393.17722 28516
639.8302 3246.9844 -393.18933 28516
636.67389 3256.5308 -393.03799 28516
638.26013 3256.0598 -393.06747 28516
616.95844 3226.0649 -392.98306 28516
617.8772 3229.2563 -392.96744 28516
619.06226 3230.6077 -392.58929 28516
632.08496 3229.8235 -392.93893 28516
636.414 3230.3379 -392.95288 28516
620.40729 3231.0801 -392.71854 28516
638.57458 3232.2229 -392.74875 28516
639.08893 3233.5657 -392.99283 28516
639.44586 3235.9285 -392.66711 28516
640.32489 3249.6282 -392.93448 28516
640.14081 3253.8032 -392.84897 28516
621.93616 3257.4502 -392.96796 28516
624.40643 3256.8577 -392.7804 28516
631.58252 3256.9045 -392.69916 28516
634.32367 3256.9727 -392.85556 28516
619.52924 3259.3787 -392.71527 28516
617.00378 3226.1169 -391.22391 28516
621.56519 3231.1914 -391.01697 28516
617.90955 3229.333 -390.82657 28516
618.93646 3230.5581 -390.9379 28516
629.64386 3230.0508 -390.78433 28516
632.16357 3229.7815 -390.89151 28516
634.65912 3229.9434 -390.61957 28516
637.55853 3231.0317 -390.84592 28516
638.59473 3232.4695 -390.53781 28516
639.10425 3233.8152 -390.71274 28516
639.45618 3235.7107 -390.99152 28516
639.37463 3238.7144 -390.8909 28516
640.15845 3253.9316 -390.77484 28516
622.17761 3257.5176 -390.74765 28516
629.38544 3256.9502 -390.81277 28516
631.60846 3256.9966 -390.77551 28516
634.31866 3257.0435 -390.76678 28516
636.6369 3256.6001 -390.71326 28516
639.52155 3255.1038 -390.6351 28516
620.14862 3258.771 -390.85101 28516
619.1521 3262.6646 -390.64441 28516
617.37463 3228.1965 -389.12686 28516
618.92688 3230.6086 -389.02643 28516
624.97656 3230.7517 -389.10962 28516
627.46771 3230.3623 -389.17059 28516
634.50116 3229.9282 -389.09747 28516
636.14056 3230.3677 -389.24957 28516
621.68427 3231.1841 -389.07156 28516
631.57214 3257.084 -389.03177 28516
634.19061 3257.1123 -389.12753 28516
636.49487 3256.6873 -389.24026 28516
637.98016 3256.1611 -389.35083 28516
619.30499 3261.4526 -389.1637 28516
632.30432 3229.7546 -388.96143 28516
620.4892 3231.1941 -388.62912 28516
637.72644 3231.2925 -388.65555 28516
639.05774 3233.5283 -388.99591 28516
622.28015 3257.6931 -388.63922 28516
624.17328 3257.2029 -388.64139 28516
627.26178 3256.9739 -388.84 28516
619.63727 3260.1284 -388.93958 28516
617.87152 3229.2822 -387.09076 28516
634.05365 3229.939 -387.27686 28516
637.41949 3231.1226 -387.5228 28516
638.52014 3232.4834 -387.23566 28516
616.93896 3225.9387 -386.91934 28516
617.5174 3228.6255 -386.60095 28516
625.36157 3230.5635 -386.39557 28516
627.31818 3230.2585 -386.83499 28516
629.57941 3229.9463 -386.97433 28516
636.46906 3230.6501 -386.54315 28516
639.05481 3233.8071 -386.54733 28516
639.49805 3235.8237 -386.61487 28516
640.44739 3254.2668 -386.7915 28516
622.37256 3257.8062 -386.43561 28516
624.55951 3257.1174 -386.53436 28516
627.23352 3257.1035 -386.85767 28516
631.29266 3257.1191 -386.89941 28516
634.27539 3257.2231 -386.54956 28516
636.63123 3256.78 -386.81097 28516
638.14508 3256.2124 -386.92511 28516
619.8548 3260.2109 -386.92404 28516
620.6781 3258.8174 -386.97537 28516
619.51996 3261.52 -386.57861 28516
618.55963 3230.4692 -385.09583 28516
632.2851 3257.2593 -385.03775 28516
620.73254 3258.8987 -385.21619 28516
625.37317 3230.6721 -384.42691 28516
627.2345 3230.3418 -384.68295 28516
629.75708 3229.9268 -384.81049 28516
631.82025 3229.8494 -384.64813 28516
634.54144 3230.1023 -384.62366 28516
636.37592 3230.5432 -384.74493 28516
620.40479 3231.2361 -384.99149 28516
639.11444 3233.4971 -384.93732 28516
622.43451 3257.8887 -384.59134 28516
624.17676 3257.3667 -384.90274 28516
626.87781 3257.2053 -384.68604 28516
629.22333 3257.2061 -384.95471 28516
634.18176 3257.325 -384.54211 28516
636.5061 3257.0037 -384.93097 28516
619.49597 3263.8359 -384.89703 28516
617.59521 3228.9766 -383.29498 28516
620.19751 3231.2712 -383.29111 28516
637.36646 3231.3745 -383.21173 28516
619.56549 3262.7026 -383.09796 28516
618.79657 3230.8003 -382.98447 28516
624.41418 3230.7991 -382.91684 28516
627.01715 3230.4155 -382.8479 28516
631.82379 3229.927 -382.79086 28516
634.38782 3230.073 -382.67285 28516
639.16125 3233.7554 -382.78787 28516
624.13013 3257.2964 -382.58838 28516
626.92004 3257.2944 -382.97345 28516
629.66669 3257.2981 -382.67776 28516
631.57117 3257.3508 -382.69269 28516
636.41028 3256.9504 -382.8486 28516
619.9361 3260.4934 -382.22321 28516
620.32196 3259.605 -382.0831 28516
621.49695 3258.4363 -382.72263 28516
625.36511 3230.689 -381.28662 28516
629.48047 3230.1025 -381.24457 28516
627.3623 3257.3838 -381.38684 28516
620.91016 3258.9106 -381.1506 28516
617.52551 3228.9338 -380.84668 28516
627.27698 3230.512 -380.9678 28516
636.28516 3230.7576 -380.77524 28516
621.03204 3231.3281 -380.78378 28516
638.18726 3232.4211 -380.48007 28516
639.42725 3235.5447 -380.75693 28516
624.05011 3257.5774 -380.95624 28516
631.63617 3257.4424 -380.7818 28516
619.9975 3260.3237 -380.45853 28516
622.3396 3258.074 -380.89145 28516
619.55469 3262.7 -380.90118 28516
624.23859 3257.5969 -379.19476 28516
629.45844 3257.5227 -379.04065 28516
622.27325 3258.1794 -379.05334 28516
618.58789 3231.1235 -378.82846 28516
621.68219 3231.5332 -378.25107 28516
625.37372 3231.0444 -378.62704 28516
638.84143 3233.8975 -378.79419 28516
627.00458 3257.4973 -378.73737 28516
631.44269 3257.5378 -378.99118 28516
634.38953 3257.6479 -378.42651 28516
619.59241 3262.6201 -378.67825 28516
619.25519 3231.4656 -377.38589 28516
621.3891 3231.8518 -377.34735 28516
629.21521 3257.5999 -377.20212 28516
636.38806 3257.2097 -377.0979 28516
638.91949 3233.7566 -376.70663 28516
624.08643 3257.5835 -376.9581 28516
626.72571 3257.5579 -376.90988 28516
631.72113 3257.6509 -376.87805 28516
619.99316 3260.3076 -376.9751 28516
622.27612 3258.2349 -376.86411 28516
619.59265 3261.7012 -376.95142 28516
620.39172 3231.9319 -375.04718 28516
639.32867 3235.8718 -375.12201 28516
634.04077 3257.7813 -375.0119 28516
618.83069 3231.7019 -374.81094 28516
621.98438 3231.9248 -374.69562 28516
625.00812 3231.5239 -374.42871 28516
639.33966 3238.3379 -374.94379 28516
640.02472 3254.6965 -374.98627 28516
626.74823 3257.6401 -374.75577 28516
629.48865 3257.7222 -374.63373 28516
631.58185 3257.7097 -374.94778 28516
636.25818 3257.3511 -374.8389 28516
620.78589 3259.1653 -374.86349 28516
622.43317 3258.262 -374.57843 28516
619.55914 3262.5449 -374.5816 28516
637.99072 3232.6575 -373.00311 28516
640.28247 3249.9622 -373.20749 28516
624.01947 3257.7039 -373.38971 28516
639.26868 3255.7517 -373.05539 28516
621.09973 3258.9773 -373.09964 28516
619.49249 3263.9109 -373.06247 28516
617.71594 3230.1152 -372.94748 28516
620.40503 3232.2432 -372.95334 28516
624.94763 3231.6655 -372.89117 28516
629.45227 3231.0378 -372.85742 28516
639.14618 3235.5076 -372.858 28516
639.27527 3237.9978 -372.69843 28516
640.32629 3253.4924 -372.72626 28516
627.06342 3257.7261 -372.80707 28516
631.31952 3257.7627 -372.92825 28516
636.50647 3257.335 -372.98413 28516
638.2312 3256.655 -372.71405 28516
621.51654 3232.3464 -371.07813 28516
635.87732 3231.4414 -371.12805 28516
637.75452 3232.4448 -371.08521 28516
626.716 3257.7739 -371.10535 28516
620.22852 3259.8892 -371.9791 28516
619.51276 3263.5688 -371.08331 28516
632.26056 3230.8462 -370.84985 28516
618.62311 3231.7576 -370.89542 28516
625.59027 3231.6633 -370.75806 28516
627.3244 3231.4294 -370.91406 28516
634.66223 3231.1626 -370.88477 28516
638.8324 3233.865 -370.9978 28516
639.30261 3235.7136 -370.53989 28516
639.22375 3238.0542 -370.69238 28516
639.1593 3241.6003 -370.8606 28516
639.29883 3244.9485 -370.80069 28516
640.00629 3249.718 -370.94742 28516
640.15533 3253.3386 -370.67517 28516
624.34271 3257.9229 -370.49463 28516
629.28247 3257.8406 -370.73425 28516
634.25397 3257.9224 -370.6799 28516
636.51862 3257.4202 -370.51981 28516
637.70746 3256.8889 -370.8486 28516
639.30859 3255.7617 -370.78867 28516
620.98798 3259.0913 -370.52875 28516
622.00873 3258.5242 -370.90475 28516
619.58765 3261.7642 -370.62497 28516
616.85162 3225.5112 -369.32285 28516
617.76965 3230.5176 -369.43173 28516
632.19489 3230.9497 -369.2038 28516
618.55426 3231.8401 -369.02188 28516
620.22699 3232.3269 -369.0022 28516
627.13562 3231.5803 -369.16934 28516
640.09076 3254.1995 -369.06952 28516
631.53497 3257.9165 -369.10385 28516
617.27051 3229.3069 -368.58115 28516
621.55121 3232.2727 -368.98981 28516
625.22522 3231.8406 -368.94742 28516
629.69165 3231.2607 -368.91202 28516
635.85663 3231.5413 -368.83337 28516
637.61133 3232.3689 -368.88718 28516
638.79962 3233.8403 -368.76517 28516
639.11847 3242.8701 -368.67108 28516
639.45294 3246.8838 -368.92786 28516
639.8949 3249.6782 -368.90439 28516
640.18365 3252.8887 -368.69061 28516
626.83563 3257.8472 -368.92194 28516
634.4494 3257.9763 -368.93433 28516
638.13184 3256.8481 -368.52002 28516
639.55511 3255.5627 -368.89163 28516
619.97021 3260.4871 -368.91287 28516
620.74432 3259.324 -368.82629 28516
622.28815 3258.4663 -368.8371 28516
624.04565 3258.0374 -368.80338 28516
619.47498 3262.5732 -368.69525 28516
616.83466 3225.8477 -367.02475 28516
617.50665 3230.24 -367.13443 28516
627.32172 3231.6521 -367.00641 28516
638.63666 3233.8376 -367.0354 28516
640.19342 3252.6096 -367.06931 28516
629.45599 3257.9673 -367.16336 28516
636.93042 3257.5305 -367.12674 28516
619.89398 3260.6687 -367.10822 28516
621.01099 3259.1692 -367.01395 28516
622.2262 3258.5703 -367.00281 28516
634.28766 3258.0422 -367.07764 28516
618.00159 3231.4094 -366.79871 28516
619.19202 3232.0212 -366.31696 28516
620.1651 3232.3608 -366.90775 28516
624.84589 3232.0066 -366.98807 28516
632.43079 3231.0588 -366.81708 28516
634.59412 3231.2903 -366.77356 28516
636.039 3231.6565 -366.38538 28516
637.88824 3232.7007 -366.81049 28516
639.18079 3238.0659 -366.75342 28516
639.17242 3244.4106 -366.84332 28516
639.46783 3247.2178 -366.98474 28516
639.84747 3249.655 -366.79935 28516
640.07983 3254.0085 -366.66989 28516
627.29242 3257.908 -366.95862 28516
639.42188 3255.7483 -366.87155 28516
619.48907 3263.8672 -366.61642 28516
616.83136 3225.665 -365.09534 28516
617.29657 3229.5652 -365.39682 28516
629.6084 3231.416 -365.14804 28516
632.33368 3231.1255 -365.39279 28516
639.21802 3237.6108 -365.21365 28516
639.08221 3240.6299 -365.04944 28516
636.59015 3257.5337 -365.03992 28516
637.75378 3257.054 -365.12195 28516
631.68353 3258.0593 -365.06589 28516
619.44873 3262.8176 -365.1524 28516
617.84033 3231.2573 -364.80487 28516
619.05603 3232.1511 -364.82114 28516
620.24738 3232.3149 -364.79645 28516
625.50415 3232.0422 -364.84537 28516
636.02325 3231.6855 -364.8688 28516
637.83905 3232.7192 -364.79379 28516
638.84644 3233.9756 -364.81931 28516
639.08197 3242.8342 -364.82297 28516
639.18707 3244.8647 -364.8252 28516
639.40808 3246.9021 -364.62189 28516
639.75891 3249.2476 -364.88861 28516
640.22644 3253.9729 -364.39957 28516
626.28772 3257.9729 -364.90735 28516
639.1311 3256.1328 -364.95007 28516
619.97772 3260.3962 -364.75955 28516
620.82941 3259.3252 -364.90277 28516
622.1792 3258.6152 -364.77835 28516
634.78851 3258.0984 -364.80051 28516
619.53754 3261.6824 -364.47067 28516
617.38336 3230.1694 -363.41132 28516
620.26733 3232.4028 -363.02597 28516
629.52954 3231.6187 -363.11002 28516
634.64429 3231.2595 -363.13654 28516
638.5141 3233.9082 -363.21964 28516
616.83954 3225.8196 -362.6608 28516
617.0448 3228.7654 -362.63507 28516
618.14563 3231.7129 -362.79688 28516
622.48785 3232.541 -362.89752 28516
625.17725 3232.2461 -362.82916 28516
632.45129 3231.1531 -362.99084 28516
635.91083 3231.7083 -362.97894 28516
637.65863 3232.7012 -362.94595 28516
639.22107 3237.8208 -362.9205 28516
639.08398 3240.6477 -362.70383 28516
639.15582 3244.7629 -362.93744 28516
639.69135 3249.0159 -362.8959 28516
640.30438 3251.873 -362.75891 28516
640.17609 3254.7732 -362.85455 28516
637.42426 3257.4795 -362.9664 28516
619.88245 3260.5969 -362.88361 28516
620.75494 3259.2842 -362.8511 28516
622.18738 3258.6904 -362.66705 28516
624.11279 3258.0945 -362.64087 28516
627.29102 3258.022 -362.60403 28516
632.01807 3258.1426 -362.87906 28516
634.33496 3258.1514 -362.80536 28516
619.43042 3263.2314 -362.60181 28516
616.84528 3225.001 -361.23669 28516
619.94586 3232.4172 -361.14505 28516
639.13275 3244.8665 -361.15247 28516
640.14471 3251.9329 -361.1839 28516
621.88263 3258.875 -361.37671 28516
619.43042 3263.0862 -361.17017 28516
617.04413 3228.9919 -360.66922 28516
618.034 3231.6978 -360.90045 28516
622.55029 3232.6511 -360.94626 28516
629.64728 3231.6924 -360.49628 28516
635.92047 3231.8784 -360.64151 28516
638.96307 3235.5679 -360.54382 28516
639.24237 3237.8372 -360.96118 28516
638.20038 3257.0464 -360.79745 28516
639.75476 3255.2302 -360.63037 28516
619.92371 3260.48 -360.80109 28516
624.4455 3258.2021 -360.47519 28516
629.34949 3258.2124 -360.58591 28516
631.79321 3258.334 -360.8681 28516
634.9566 3258.2395 -360.82199 28516
619.48688 3261.6765 -360.42468 28516
616.9447 3228.5247 -359.32294 28516
617.8866 3231.3125 -359.05814 28516
619.09235 3232.2529 -359.27011 28516
620.22211 3232.5618 -359.24722 28516
622.31757 3232.7124 -359.2532 28516
634.63306 3258.3921 -359.21738 28516
619.49133 3261.6006 -359.16998 28516
617.28583 3230.2083 -358.70242 28516
625.3811 3232.408 -358.95065 28516
629.59845 3231.7434 -358.70676 28516
632.51227 3231.3928 -358.729 28516
635.70331 3231.8774 -358.32828 28516
637.61591 3233.0498 -358.64926 28516
638.64514 3234.894 -358.79266 28516
640.10297 3254.1094 -358.8609 28516
638.78448 3256.8157 -358.92661 28516
622.02417 3258.8779 -358.66141 28516
