# .PCD v0.7 - Point Cloud Data file format
VERSION 0.7
FIELDS x y z rgba
SIZE 4 4 4 4
TYPE F F F U
COUNT 1 1 1 1
WIDTH 1148
HEIGHT 1
VIEWPOINT 0 0 0 1 0 0 0
POINTS 1148
DATA ascii
335.18478 564.50238 -48.258167 4294967248
337.4436 564.52673 -48.040722 4294967248
341.15137 564.07751 -48.011696 4294967248
277.29813 569.06464 -48.550819 4294967248
287.25064 568.0578 -48.64426 4294967248
289.20547 567.92255 -48.811066 4294967248
299.58176 567.29602 -48.832073 4294967248
301.51712 567.16321 -48.825993 4294967248
303.44141 567.008 -48.801216 4294967248
235.09735 572.31903 -48.708832 4294967248
245.29842 571.57446 -48.04652 4294967248
250.68863 571.42322 -48.838428 4294967248
257.13647 570.49011 -48.015366 4294967248
261.70798 570.18188 -48.051579 4294967248
201.35759 574.99963 -48.056805 4294967248
203.22208 574.82294 -48.124706 4294967248
205.99513 574.79608 -48.454098 4294967248
207.48175 574.58551 -48.344585 4294967248
209.30237 574.40387 -48.212029 4294967248
211.32956 574.23376 -48.178532 4294967248
213.53096 574.10626 -48.069283 4294967248
215.52245 574.3797 -48.97073 4294967248
227.65701 573.67224 -48.921856 4294967248
229.3526 573.13422 -48.049538 4294967248
395.06708 535.13556 -47.14497 4294967249
400.3031 535.5802 -47.205868 4294967249
373.60629 539.33789 -47.147881 4294967249
341.35071 542.89075 -47.841469 4294967249
349.26666 542.14331 -47.99929 4294967249
351.21347 542.12695 -47.822071 4294967249
355.19131 541.7785 -47.920376 4294967249
357.51074 541.48657 -47.799946 4294967249
359.70639 541.28619 -47.229229 4294967249
307.03372 545.46582 -47.484104 4294967249
311.23959 545.13116 -47.888195 4294967249
325.62189 544.14435 -47.725296 4294967249
331.54456 543.64655 -47.901127 4294967249
335.57748 543.41754 -47.772461 4294967249
337.43787 543.12701 -47.992882 4294967249
261.18448 548.90717 -47.212597 4294967249
265.7355 548.703 -47.205814 4294967249
213.66609 551.66309 -47.586201 4294967249
215.74147 551.43115 -47.700306 4294967249
217.58929 551.23657 -47.853039 4294967249
247.75856 549.91681 -47.563774 4294967249
257.41702 549.13965 -47.051342 4294967249
259.5665 549.23462 -47.023491 4294967249
404.07349 557.12311 -47.798843 4294967249
349.43353 563.59393 -47.8074 4294967249
351.74536 563.36383 -47.827202 4294967249
353.47198 563.28223 -47.99897 4294967249
354.89484 563.35437 -47.35305 4294967249
357.40805 563.29474 -47.451897 4294967249
359.50479 563.30017 -47.229595 4294967249
367.93005 563.06012 -47.035816 4294967249
374.74142 562.81055 -47.018719 4294967249
391.922 562.35541 -47.8004 4294967249
393.7269 562.04089 -47.849369 4294967249
396.23767 561.61127 -47.975662 4294967249
333.68073 564.75055 -47.972885 4294967249
339.26309 564.24176 -47.902328 4294967249
274.51059 569.16382 -47.669769 4294967249
231.42424 572.79932 -47.965202 4294967249
237.55162 571.92023 -47.343918 4294967249
239.59157 571.74036 -47.354046 4294967249
253.97162 570.8562 -47.849758 4294967249
197.33281 575.24371 -47.914074 4294967249
221.4294 573.48395 -47.670471 4294967249
225.31415 573.28778 -47.657032 4294967249
369.47617 539.74872 -46.875332 4294967250
377.59302 538.85675 -46.824997 4294967250
379.49658 538.57532 -46.653378 4294967250
381.69324 538.33057 -46.512566 4294967250
401.64642 539.14032 -46.186501 4294967250
363.02057 540.62872 -46.952431 4294967250
267.61307 548.53967 -46.95752 4294967250
271.68753 548.37787 -46.263874 4294967250
273.28168 548.28046 -46.390442 4294967250
275.49579 548.06183 -46.023891 4294967250
287.86948 547.13403 -46.187916 4294967250
293.56842 546.84387 -46.100899 4294967250
297.54901 546.45575 -46.311413 4294967250
221.46251 551.56329 -46.108658 4294967250
249.86588 549.87903 -46.947941 4294967250
251.34435 549.84863 -46.290951 4294967250
254.94531 549.55664 -46.668476 4294967250
397.24231 560.67609 -46.102497 4294967250
399.42383 559.94049 -46.381351 4294967250
363.26605 563.26306 -46.908276 4294967250
369.57324 563.02875 -46.879395 4294967250
373.30145 562.88947 -46.927597 4294967250
377.73349 562.81476 -46.979092 4294967250
379.16989 562.77588 -46.713619 4294967250
383.45227 562.70349 -46.299084 4294967250
393.65948 561.70819 -46.117702 4294967250
395.64932 561.32794 -46.482903 4294967250
259.4184 569.97632 -46.093555 4294967250
293.42239 567.79614 -46.056412 4294967250
233.57434 572.19232 -46.118637 4294967250
235.17928 572.08777 -46.065575 4294967250
205.63837 574.48657 -46.005341 4294967250
207.34366 574.29498 -46.104008 4294967250
211.37987 573.95251 -46.190216 4294967250
213.31712 573.68372 -46.194271 4294967250
215.56955 573.5459 -46.142326 4294967250
219.5536 573.3244 -46.067753 4294967250
397.48474 535.00641 -45.921146 4294967251
399.4144 537.78003 -45.354649 4294967251
343.116 542.83624 -45.418049 4294967251
345.59933 542.60675 -45.726513 4294967251
347.41147 542.3797 -45.563564 4294967251
349.53003 542.14996 -45.768566 4294967251
353.68103 541.59564 -45.271748 4294967251
355.48712 541.4115 -45.198578 4294967251
357.46317 541.21606 -45.020733 4294967251
363.87848 540.36188 -45.154106 4294967251
307.66568 545.67975 -45.855488 4294967251
309.46008 545.55212 -45.612114 4294967251
311.75528 545.34332 -45.699368 4294967251
315.04492 545.05713 -45.54327 4294967251
317.13721 544.97919 -45.968765 4294967251
327.19061 544.29315 -45.342514 4294967251
335.57376 543.5553 -45.057297 4294967251
337.64807 543.46399 -45.862179 4294967251
339.55493 543.27716 -45.694328 4294967251
341.1954 543.09528 -45.577606 4294967251
289.68442 546.98914 -45.813534 4294967251
295.12408 546.66498 -45.617069 4294967251
299.2944 546.40979 -45.962673 4294967251
303.42664 546.11041 -45.848808 4294967251
213.23283 552.35455 -45.672558 4294967251
218.75797 552.00543 -45.455658 4294967251
401.77777 556.21967 -45.915344 4294967251
400.00751 558.23676 -45.644363 4294967251
355.15625 563.82629 -45.047256 4294967251
385.89133 562.77545 -45.819492 4294967251
387.87494 562.7005 -45.939495 4294967251
390.23566 562.53925 -45.759182 4294967251
391.80719 562.09375 -45.710548 4294967251
309.74991 566.65179 -45.912041 4294967251
317.35654 566.14294 -45.305916 4294967251
319.61649 565.92932 -45.367504 4294967251
321.39935 565.90869 -45.364082 4294967251
323.56161 565.79224 -45.151051 4294967251
325.30289 565.60327 -45.429893 4294967251
329.11169 565.27417 -45.425465 4294967251
335.68805 564.96899 -45.09634 4294967251
339.43732 564.67725 -45.111641 4294967251
341.21854 564.62048 -45.17028 4294967251
345.13599 564.3349 -45.044979 4294967251
347.46942 564.10773 -45.332294 4294967251
263.34979 569.68945 -45.787312 4294967251
271.31989 569.09167 -45.775063 4294967251
275.02869 569.02673 -45.426495 4294967251
277.49747 568.87683 -45.802864 4294967251
279.3877 568.80127 -45.69067 4294967251
281.56088 568.67944 -45.903412 4294967251
283.32825 568.56262 -45.795845 4294967251
289.43289 568.06226 -45.995487 4294967251
295.39874 567.62793 -45.925022 4294967251
299.64377 567.39032 -45.591404 4294967251
301.71341 567.21643 -45.893661 4294967251
305.31998 567.01758 -45.603943 4294967251
227.61143 572.85687 -45.65345 4294967251
231.43787 572.42676 -45.989384 4294967251
247.27817 571.19305 -45.657578 4294967251
249.23831 571.04608 -45.723213 4294967251
251.41653 570.88953 -45.866619 4294967251
255.21068 570.4859 -45.549828 4294967251
257.30579 570.2688 -45.957321 4294967251
197.22012 575.04858 -45.689568 4294967251
199.45967 574.9303 -45.639957 4294967251
202.9146 574.72583 -45.893818 4294967251
217.48544 573.62762 -45.832401 4294967251
221.19569 573.24677 -45.321804 4294967251
223.57129 573.12286 -45.586002 4294967251
225.3145 573.04736 -45.424068 4294967251
367.67633 539.81256 -44.703209 4294967252
371.10608 539.52081 -44.780857 4294967252
375.66772 539.00562 -44.864037 4294967252
379.42987 538.42743 -44.059017 4294967252
390.58505 537.29126 -44.12413 4294967252
399.72711 539.82043 -44.731529 4294967252
359.60669 540.95154 -44.92503 4294967252
253.61487 549.69196 -44.115005 4294967252
207.56818 552.88141 -44.057407 4294967252
397.56573 558.70245 -44.536125 4294967252
357.50342 563.73706 -44.882267 4294967252
359.61929 563.70667 -44.778286 4294967252
363.28857 563.58838 -44.666916 4294967252
367.28549 563.44257 -44.589081 4294967252
369.25259 563.35107 -44.607162 4294967252
371.4136 563.289 -44.683083 4294967252
373.37567 563.33624 -44.113045 4294967252
375.49091 563.23895 -44.317307 4294967252
379.79254 563.07239 -44.25206 4294967252
391.56943 561.71503 -44.149239 4294967252
393.314 561.47168 -44.47086 4294967252
333.33615 565.0769 -44.735283 4294967252
337.42261 564.84607 -44.902706 4294967252
343.66852 564.49933 -44.736076 4294967252
396.02609 536.06305 -43.973743 4294967253
365.9285 539.83063 -43.177639 4294967253
381.50424 538.19128 -43.931374 4294967253
383.44846 538.00647 -43.791279 4294967253
385.37604 537.86267 -43.615093 4294967253
397.05786 539.81085 -43.209286 4294967253
345.89291 542.13843 -43.006939 4294967253
307.99606 545.49713 -43.290539 4294967253
309.55286 545.36792 -43.324749 4294967253
313.32025 545.01184 -43.063938 4294967253
315.34424 544.84418 -43.043865 4294967253
397.73776 544.61957 -43.446777 4294967253
265.98425 548.74713 -43.73045 4294967253
269.26871 548.55078 -43.469727 4294967253
270.75754 548.41638 -43.269337 4294967253
273.31711 548.258 -43.41431 4294967253
291.66653 546.86816 -43.564369 4294967253
295.41125 546.53107 -43.201572 4294967253
299.62131 546.15857 -43.223759 4294967253
397.78906 548.87292 -43.911674 4294967253
223.99472 551.72089 -43.703587 4294967253
229.78656 551.58569 -43.719624 4294967253
230.93387 551.52301 -43.249142 4294967253
255.26018 549.57117 -43.673855 4294967253
257.29678 549.4126 -43.593712 4294967253
259.75821 549.28998 -43.801929 4294967253
261.31943 549.15002 -43.797985 4294967253
199.74176 553.59198 -43.93782 4294967253
211.41269 552.61743 -43.529068 4294967253
213.28012 552.52667 -43.205914 4294967253
215.53 552.40399 -43.220917 4294967253
217.17946 552.28082 -43.720154 4294967253
220.94382 552.05957 -43.21278 4294967253
397.96347 556.09467 -43.877586 4294967253
393.68286 559.91718 -43.179115 4294967253
395.49112 559.36102 -43.81255 4294967253
377.44827 563.21606 -43.882797 4294967253
382.24405 563.06366 -43.758095 4294967253
387.8634 562.38654 -43.64658 4294967253
390.06244 562.00568 -43.914654 4294967253
323.64014 566.04736 -43.046783 4294967253
281.42087 568.95178 -43.065376 4294967253
285.32297 568.6861 -43.108524 4294967253
233.51285 572.61188 -43.051994 4294967253
235.35945 572.49231 -43.063976 4294967253
239.19856 572.08759 -43.054035 4294967253
243.96469 571.78979 -43.280769 4294967253
197.10982 575.36896 -43.145962 4294967253
207.4305 574.62695 -43.126389 4294967253
209.49237 574.45117 -43.122265 4294967253
211.70529 574.24817 -43.257797 4294967253
213.1991 574.1402 -43.128738 4294967253
215.29082 573.89478 -43.653229 4294967253
217.47816 573.79865 -43.335331 4294967253
221.31332 573.52173 -43.28326 4294967253
225.53424 573.24323 -43.105019 4294967253
369.29849 539.3526 -42.294025 4294967254
388.46097 537.91113 -42.490707 4294967254
390.51526 537.45752 -42.937988 4294967254
395.29495 539.28723 -42.331596 4294967254
341.11075 542.70947 -42.927723 4294967254
347.42203 541.96753 -42.834892 4294967254
349.63522 541.70752 -42.97887 4294967254
351.30792 541.45691 -42.500446 4294967254
353.66791 541.28558 -42.995289 4294967254
357.33408 540.79633 -42.578285 4294967254
359.36911 540.53668 -42.638325 4294967254
361.30566 540.22162 -42.421211 4294967254
303.69467 545.82581 -42.990406 4294967254
305.72186 545.68134 -42.95351 4294967254
311.35513 545.13977 -42.660622 4294967254
339.48361 543.12756 -42.778793 4294967254
395.5723 544.34186 -42.30518 4294967254
262.66193 548.99188 -42.341908 4294967254
287.43451 547.11084 -42.937786 4294967254
297.56375 546.31067 -42.97929 4294967254
300.8205 546.04608 -42.968555 4294967254
395.71246 551.18524 -42.892532 4294967254
218.89868 552.10504 -42.943298 4294967254
393.89694 557.91559 -42.317635 4294967254
395.97946 555.50964 -42.909756 4294967254
383.85168 562.90723 -42.760956 4294967254
387.69452 562.01544 -42.290798 4294967254
391.22028 561.05701 -42.78989 4294967254
321.47919 566.18988 -42.971897 4294967254
327.30011 565.8432 -42.804932 4294967254
330.79883 565.58783 -42.450596 4294967254
333.00876 565.45648 -42.201576 4294967254
335.32166 565.29169 -42.192955 4294967254
337.79196 565.19092 -42.113174 4294967254
339.77237 564.97479 -42.897598 4294967254
341.31683 564.98126 -42.878658 4294967254
343.58307 564.90881 -42.384487 4294967254
345.33804 564.71222 -42.81636 4294967254
347.45718 564.55402 -42.774776 4294967254
349.71964 564.47284 -42.666599 4294967254
353.49118 564.28918 -42.620125 4294967254
355.18658 564.18695 -42.818943 4294967254
357.5791 564.24811 -42.203545 4294967254
361.5929 564.17316 -42.081337 4294967254
277.76443 569.22998 -42.891472 4294967254
287.36102 568.65125 -42.891705 4294967254
289.23471 568.45447 -42.98912 4294967254
293.84595 568.31281 -42.797653 4294967254
295.59006 568.02319 -42.974575 4294967254
297.32626 567.97089 -42.902397 4294967254
301.26196 567.68091 -42.979637 4294967254
249.19482 571.4198 -42.844994 4294967254
251.50252 571.21838 -42.893295 4294967254
257.38345 570.65985 -42.975929 4294967254
205.59241 574.80176 -42.933861 4294967254
223.05814 573.44275 -42.943932 4294967254
367.38602 539.45294 -41.85672 4294967255
371.74036 539.25513 -41.762714 4294967255
375.78778 538.97009 -41.763378 4294967255
379.34439 538.58051 -41.631969 4294967255
381.63538 538.39655 -41.531731 4294967255
385.70425 538.39423 -41.798203 4294967255
297.9426 546.08655 -41.005764 4294967255
231.42558 551.35229 -41.171459 4294967255
255.47682 549.39319 -41.11845 4294967255
257.59055 549.17694 -41.063915 4294967255
215.3754 552.26898 -41.019081 4294967255
391.73416 552.95172 -41.07095 4294967255
392.03104 555.66473 -41.093861 4294967255
393.6944 555.5517 -41.811584 4294967255
391.50305 558.93115 -41.47982 4294967255
367.42572 563.94116 -41.546993 4294967255
369.53842 563.79657 -41.75322 4294967255
371.58981 563.6767 -41.552475 4294967255
373.68475 563.55255 -41.675278 4294967255
377.9581 563.01215 -41.109856 4294967255
389.78268 561.03229 -41.962818 4294967255
359.60443 564.29242 -41.827923 4294967255
365.29205 564.03076 -41.876087 4294967255
241.64357 572.09619 -41.445621 4294967255
227.50075 573.39795 -41.028858 4294967255
383.61325 538.974 -40.505745 4294967256
387.46735 539.1709 -40.231815 4294967256
389.50665 538.80743 -40.631424 4294967256
342.76297 542.4494 -40.710545 4294967256
345.78119 541.71344 -40.363819 4294967256
347.55624 541.43262 -40.098106 4294967256
391.26993 540.9964 -40.194748 4294967256
392.97278 540.75739 -40.987137 4294967256
301.33282 545.81116 -40.887001 4294967256
303.66739 545.62555 -40.771896 4294967256
305.92813 545.42059 -40.69577 4294967256
307.63846 545.24579 -40.804443 4294967256
309.09406 545.12671 -40.84203 4294967256
311.6788 544.98828 -40.965626 4294967256
313.16702 544.85278 -40.838562 4294967256
315.39871 544.68164 -40.819435 4294967256
317.61716 544.43048 -40.894238 4294967256
323.77637 544.18945 -40.249218 4294967256
325.978 544.20319 -40.89621 4294967256
391.25513 543.84204 -40.031448 4294967256
263.60501 548.74603 -40.906868 4294967256
265.97034 548.5155 -40.887993 4294967256
269.00122 548.33319 -40.943485 4294967256
271.28702 548.16486 -40.900089 4294967256
273.46741 548.01538 -40.898994 4294967256
289.55814 546.81 -40.879375 4294967256
293.25809 546.50354 -40.934921 4294967256
295.43823 546.29333 -40.748558 4294967256
238.07146 550.67291 -40.259571 4294967256
243.93433 550.26636 -40.51252 4294967256
207.10892 552.75177 -40.547676 4294967256
213.08749 552.33051 -40.502029 4294967256
389.73303 555.46942 -40.23262 4294967256
388.60382 560.32526 -40.650402 4294967256
389.93561 558.04218 -40.545078 4294967256
378.00146 562.78406 -40.123089 4294967256
382.31076 562.43402 -40.738735 4294967256
385.48547 561.32001 -40.309395 4294967256
386.87497 561.13379 -40.676548 4294967256
319.30576 566.77521 -40.611366 4294967256
320.97266 566.67603 -40.717297 4294967256
323.59137 566.56354 -40.185547 4294967256
325.5033 566.35077 -40.70364 4294967256
327.3797 566.29669 -40.370613 4294967256
329.07962 566.01605 -40.174839 4294967256
339.36249 565.22601 -40.02375 4294967256
277.61755 569.56439 -40.746494 4294967256
281.61795 569.36182 -40.769798 4294967256
282.85101 569.27533 -40.534855 4294967256
285.14413 569.09369 -40.739727 4294967256
287.45526 568.92786 -40.792847 4294967256
291.5141 568.65283 -40.831425 4294967256
293.30005 568.57074 -40.563507 4294967256
295.73486 568.38348 -40.794453 4294967256
299.39221 568.17456 -40.737511 4294967256
301.22711 568.08441 -40.538429 4294967256
235.33479 572.84686 -40.875278 4294967256
238.79497 572.39471 -40.242439 4294967256
244.36552 571.95178 -40.687187 4294967256
247.19345 571.78918 -40.469551 4294967256
249.95161 571.64783 -40.263241 4294967256
252.87331 571.47089 -40.291206 4294967256
255.63094 571.15045 -40.866184 4294967256
207.43993 574.94757 -40.772152 4294967256
209.58324 574.77112 -40.977283 4294967256
213.14955 574.48254 -40.768688 4294967256
217.53267 574.13666 -40.942253 4294967256
221.44154 573.82605 -40.778358 4294967256
223.62634 573.74854 -40.843693 4294967256
225.64572 573.53601 -40.841145 4294967256
231.08353 573.11737 -40.84248 4294967256
361.55127 539.89081 -39.716118 4294967257
364.64108 539.94684 -39.446915 4294967257
367.72482 539.62317 -39.999508 4294967257
369.55786 539.67175 -39.54607 4294967257
371.87558 539.45947 -39.711189 4294967257
375.61215 539.2204 -39.581936 4294967257
379.66769 538.80048 -39.959858 4294967257
385.39459 539.33276 -39.889145 4294967257
349.48782 541.24341 -39.954628 4294967257
351.59216 540.9776 -39.937901 4294967257
355.53458 540.50494 -39.933899 4294967257
359.38226 540.26001 -39.624348 4294967257
387.60483 540.39063 -39.557659 4294967257
388.96103 540.24573 -39.78223 4294967257
389.19482 541.62622 -39.517002 4294967257
298.29028 545.94733 -39.410107 4294967257
329.05801 544.35107 -39.629372 4294967257
333.43164 544.30353 -39.290218 4294967257
337.50385 543.79193 -39.426453 4294967257
290.05762 546.66437 -39.088146 4294967257
211.50945 552.36426 -39.13335 4294967257
387.58261 555.3255 -39.457787 4294967257
385.49225 559.19727 -39.220291 4294967257
387.9675 558.08551 -39.761768 4294967257
365.40683 563.77783 -39.813473 4294967257
369.42841 563.37402 -39.601109 4294967257
371.68488 563.23682 -39.736198 4294967257
375.31543 562.79126 -39.437805 4294967257
380.96387 561.92535 -39.320663 4294967257
337.3432 565.34064 -39.959064 4294967257
342.13834 565.02448 -39.877907 4294967257
345.35205 565.21075 -39.913418 4294967257
347.53806 565.20306 -39.770493 4294967257
351.82135 564.80646 -39.820538 4294967257
353.51819 564.63062 -39.102417 4294967257
355.26425 564.49615 -39.09874 4294967257
358.08185 564.37604 -39.767876 4294967257
361.41257 564.11261 -39.804432 4294967257
374.64423 539.62 -38.479332 4294967258
376.99973 539.75201 -38.201492 4294967258
379.31097 539.67657 -38.441364 4294967258
342.77335 542.56512 -38.336117 4294967258
344.1507 542.22278 -38.86364 4294967258
345.60492 542.09186 -38.148201 4294967258
361.68756 540.38232 -38.033718 4294967258
365.29178 540.20923 -38.271984 4294967258
385.67477 541.59283 -38.578037 4294967258
386.88416 541.54242 -38.964409 4294967258
299.59952 545.70966 -38.221645 4294967258
301.3801 545.52356 -38.148483 4294967258
305.32913 545.19989 -38.147675 4294967258
309.57657 544.80994 -38.012711 4294967258
311.81128 544.69501 -38.463882 4294967258
313.4516 544.57123 -38.365059 4294967258
315.53253 544.36572 -38.093037 4294967258
317.62332 544.21954 -38.54306 4294967258
322.19025 544.19415 -38.232357 4294967258
325.4339 544.3869 -38.419357 4294967258
331.20892 544.61768 -38.211403 4294967258
340.7327 543.06293 -38.99123 4294967258
385.63754 543.83716 -38.31641 4294967258
387.26276 543.99768 -38.706444 4294967258
261.25021 548.75244 -38.513325 4294967258
265.22165 548.43982 -38.576946 4294967258
266.76056 548.35419 -38.457302 4294967258
269.1586 548.19427 -38.760891 4294967258
271.65775 547.96405 -38.610756 4294967258
274.94366 547.73743 -38.486481 4294967258
283.36462 547.21838 -38.662968 4294967258
291.55472 546.41339 -38.734142 4294967258
293.26718 546.23169 -38.554611 4294967258
295.561 546.11096 -38.664982 4294967258
229.91357 551.18286 -38.687134 4294967258
233.62502 551.02374 -38.959251 4294967258
235.61655 550.85181 -38.448067 4294967258
240.78683 550.43781 -38.800365 4294967258
245.87531 550.10651 -38.675804 4294967258
248.50974 549.94116 -38.099041 4294967258
252.96048 549.35901 -38.57692 4294967258
255.51031 549.17828 -38.71283 4294967258
257.59656 549.03613 -38.847603 4294967258
209.59581 552.39954 -38.604507 4294967258
215.30814 552.14539 -38.652927 4294967258
217.13756 552.08386 -38.841934 4294967258
381.66977 552.96277 -38.010735 4294967258
383.29968 555.75134 -38.187801 4294967258
385.8605 555.48199 -38.919151 4294967258
383.56223 558.12543 -38.379185 4294967258
361.27948 563.72589 -38.075542 4294967258
363.5257 563.56293 -38.434635 4294967258
365.42374 563.36066 -38.525978 4294967258
367.78241 563.14154 -38.585674 4294967258
369.50308 562.65149 -38.047668 4294967258
371.51407 562.46216 -38.0886 4294967258
373.46674 562.28485 -38.113956 4294967258
377.35504 561.97015 -38.50211 4294967258
379.1496 561.60992 -38.583462 4294967258
381.68549 561.05566 -38.87339 4294967258
326.521 566.30646 -38.387287 4294967258
329.66016 566.10809 -38.020184 4294967258
332.2695 565.67334 -38.996609 4294967258
335.58075 565.33673 -38.718826 4294967258
338.59918 565.1391 -38.376652 4294967258
339.73328 565.01373 -38.028671 4294967258
340.5433 565.10303 -38.755005 4294967258
357.99771 564.06 -38.057121 4294967258
279.31549 569.77185 -38.470493 4294967258
281.65042 569.65601 -38.311531 4294967258
283.14258 569.56879 -38.222744 4294967258
287.67642 569.21606 -38.328278 4294967258
289.38492 569.12958 -38.22805 4294967258
291.47183 568.95648 -38.578259 4294967258
293.28323 568.91687 -38.091469 4294967258
295.92392 568.73309 -38.29113 4294967258
299.83243 568.45715 -38.622662 4294967258
311.83401 567.88495 -38.151585 4294967258
317.99606 567.3125 -38.249657 4294967258
235.41437 572.91949 -38.625618 4294967258
236.81827 572.72174 -38.618324 4294967258
242.29697 572.14545 -38.08033 4294967258
249.85593 571.8432 -38.425564 4294967258
251.24071 571.75598 -38.549358 4294967258
253.1956 571.651 -38.744499 4294967258
255.51921 571.45959 -38.815559 4294967258
257.69043 571.26611 -38.779526 4294967258
259.22852 571.14374 -38.628578 4294967258
205.59718 575.41888 -38.71666 4294967258
207.59479 575.27545 -38.608177 4294967258
209.57124 575.1189 -38.693336 4294967258
211.4164 574.93781 -38.818893 4294967258
213.31432 574.80481 -38.678234 4294967258
215.37267 574.66711 -38.650715 4294967258
217.71272 574.47778 -38.710064 4294967258
219.48055 574.42413 -38.687317 4294967258
223.32648 574.12878 -38.322327 4294967258
225.3799 573.95331 -38.43111 4294967258
227.76889 573.78394 -38.353168 4294967258
233.69942 573.07227 -38.163662 4294967258
342.28235 542.99872 -37.354519 4294967259
343.10211 542.69012 -37.323746 4294967259
344.32431 542.59979 -37.299355 4294967259
347.5166 541.64642 -37.907856 4294967259
348.76663 541.61658 -37.693939 4294967259
357.57663 540.51385 -37.689899 4294967259
359.7178 540.4812 -37.930882 4294967259
371.32391 540.79858 -37.070511 4294967259
372.14746 540.40271 -37.279369 4294967259
382.30597 541.64417 -37.827518 4294967259
319.48682 543.96484 -37.947701 4294967259
327.6727 544.71851 -37.52335 4294967259
332.42612 545.03906 -37.181973 4294967259
334.27582 545.09326 -37.070129 4294967259
335.80368 544.69733 -37.632446 4294967259
339.56412 543.91364 -37.451466 4294967259
383.81329 543.52698 -37.907505 4294967259
238.01825 550.65167 -37.501301 4294967259
239.61041 550.50037 -37.331951 4294967259
243.5076 550.32117 -37.418407 4294967259
251.33702 549.7207 -37.212448 4294967259
381.72479 555.28418 -37.875088 4294967259
375.63757 560.24445 -37.175446 4294967259
377.49612 558.2439 -37.099136 4294967259
379.80658 559.44006 -37.740227 4294967259
381.66318 558.03583 -37.895321 4294967259
365.55771 562.53253 -37.103546 4294967259
371.39633 561.26007 -37.046867 4294967259
373.62979 561.31555 -37.393177 4294967259
321.2045 566.97961 -37.761105 4294967259
323.28171 566.8808 -37.79237 4294967259
330.71497 566.00836 -37.219193 4294967259
337.46817 565.12524 -37.930649 4294967259
341.17661 564.61365 -37.230499 4294967259
343.21234 564.42633 -37.129997 4294967259
345.43982 565.07715 -37.777157 4294967259
349.69592 564.66907 -37.593342 4294967259
352.04959 564.54962 -37.79089 4294967259
355.32028 564.28375 -37.748005 4294967259
297.29276 568.74091 -37.605713 4294967259
301.48083 568.53107 -37.763199 4294967259
303.34332 568.46631 -37.818901 4294967259
305.78275 568.33362 -37.870682 4294967259
307.50751 568.07428 -37.78986 4294967259
315.33798 567.62939 -37.767097 4294967259
245.85254 571.96954 -37.786514 4294967259
248.51942 571.89417 -37.884865 4294967259
346.62485 542.49219 -36.79052 4294967260
349.26736 541.96906 -36.60379 4294967260
350.93448 541.69623 -36.970074 4294967260
353.88184 541.41992 -36.940228 4294967260
355.45139 541.3736 -36.647747 4294967260
359.92313 541.29083 -36.416344 4294967260
361.67914 541.23596 -36.564499 4294967260
363.3989 541.22583 -36.70121 4294967260
365.25439 541.05322 -36.842457 4294967260
367.90637 541.14172 -36.84082 4294967260
369.59808 541.59821 -36.518097 4294967260
371.71674 541.8772 -36.42025 4294967260
373.42395 542.29852 -36.398605 4294967260
374.19427 541.07837 -36.743813 4294967260
376.90616 542.01404 -36.97324 4294967260
311.70578 544.78778 -36.650829 4294967260
315.81873 544.50177 -36.023945 4294967260
319.76443 544.09424 -36.072887 4294967260
323.11331 544.76447 -36.335182 4294967260
328.05542 545.27533 -36.38245 4294967260
329.91162 545.18195 -36.94183 4294967260
331.82886 545.74707 -36.039749 4294967260
337.85565 545.03271 -36.705608 4294967260
339.72763 545.1228 -36.045013 4294967260
340.54254 544.31982 -36.462963 4294967260
341.25598 543.69189 -36.95771 4294967260
342.93573 543.76361 -36.169727 4294967260
343.49457 543.04749 -36.700233 4294967260
373.4989 545.8858 -36.217693 4294967260
257.62329 548.79999 -36.230984 4294967260
261.50607 548.51813 -36.037266 4294967260
265.25568 548.31763 -36.450043 4294967260
266.93341 548.13831 -36.02951 4294967260
371.40356 548.73181 -36.094273 4294967260
213.73444 551.98956 -36.21484 4294967260
229.64487 550.95398 -36.62912 4294967260
231.55748 551.20697 -36.190659 4294967260
233.76276 551.01611 -36.636875 4294967260
234.90048 550.91467 -36.286541 4294967260
236.10416 550.8678 -36.167366 4294967260
239.0537 550.66571 -36.053925 4294967260
240.3511 550.49536 -36.866703 4294967260
241.50684 550.4563 -36.793854 4294967260
246.2184 550.25751 -36.157215 4294967260
253.54053 549.48584 -36.867958 4294967260
199.66301 552.90271 -36.072178 4294967260
206.24809 552.4624 -36.634167 4294967260
371.68027 555.47827 -36.215538 4294967260
369.68896 560.17249 -36.251095 4294967260
371.4306 559.091 -36.314976 4294967260
373.46106 559.06915 -36.63448 4294967260
375.69598 558.15796 -36.757187 4294967260
357.43982 562.97681 -36.09576 4294967260
359.47849 562.99451 -36.479328 4294967260
361.42599 562.72125 -36.562534 4294967260
363.44119 562.72327 -36.963028 4294967260
365.49979 561.62354 -36.366779 4294967260
367.41962 561.26172 -36.468193 4294967260
369.58087 561.15613 -36.750393 4294967260
324.83829 566.32965 -36.704235 4294967260
328.51791 566.05396 -36.629452 4294967260
329.83456 566.03162 -36.648399 4294967260
330.88812 565.62085 -36.172951 4294967260
334.27951 564.88947 -36.408585 4294967260
336.62894 564.72192 -36.524387 4294967260
339.13913 564.20789 -36.1371 4294967260
347.22195 564.51154 -36.646965 4294967260
351.29004 564.21729 -36.690247 4294967260
235.66228 572.82996 -36.808132 4294967260
238.67635 572.27423 -36.41394 4294967260
243.13567 571.95001 -36.154934 4294967260
244.70453 571.88397 -36.131298 4294967260
250.19951 571.8905 -36.712452 4294967260
251.897 571.81293 -36.595814 4294967260
253.78075 571.71869 -36.300064 4294967260
205.29774 575.87402 -36.138927 4294967260
209.7285 575.56848 -36.125771 4294967260
221.73074 574.61566 -36.043808 4294967260
230.87511 573.37097 -36.337719 4294967260
351.13766 542.60089 -35.404976 4294967261
355.63446 542.49438 -35.257256 4294967261
357.43311 542.37787 -35.286301 4294967261
359.29166 542.59497 -35.281384 4294967261
361.25967 542.59991 -35.48246 4294967261
363.42969 542.53625 -35.705448 4294967261
365.29767 542.40771 -35.879673 4294967261
367.52606 542.55579 -35.974716 4294967261
295.65082 545.85669 -35.577011 4294967261
297.52249 545.8941 -35.78664 4294967261
299.64993 545.70093 -35.818443 4294967261
301.39288 545.57806 -35.707214 4294967261
304.88007 545.20288 -35.597691 4294967261
309.9848 545.08496 -35.94112 4294967261
317.34561 544.57037 -35.659367 4294967261
325.23706 545.61066 -35.08065 4294967261
326.0116 545.24988 -35.996132 4294967261
338.82321 545.98517 -35.598766 4294967261
341.95346 545.336 -35.384624 4294967261
343.89435 544.64423 -35.239147 4294967261
345.24701 543.64386 -35.762329 4294967261
348.16833 543.26361 -35.500748 4294967261
363.31079 543.76184 -35.16909 4294967261
365.4436 544.80426 -35.248276 4294967261
367.43912 544.72876 -35.432625 4294967261
369.50778 544.77301 -35.663048 4294967261
371.44635 544.50659 -35.940132 4294967261
262.69104 548.43768 -35.554161 4294967261
269.22818 547.92834 -35.609745 4294967261
272.08743 547.70465 -35.777637 4294967261
275.07547 547.47571 -35.607212 4294967261
279.48071 547.3866 -35.95657 4294967261
280.56677 547.28778 -35.098438 4294967261
283.52228 547.00159 -35.887768 4294967261
290.42969 546.39429 -35.61018 4294967261
291.43954 546.30988 -35.95116 4294967261
328.55392 546.58124 -35.050739 4294967261
330.71182 546.28351 -35.452782 4294967261
332.3078 546.95251 -35.002144 4294967261
333.54398 546.00897 -35.875443 4294967261
335.78821 546.27466 -35.776779 4294967261
337.99536 547.16309 -35.085838 4294967261
363.20413 548.72235 -35.067436 4294967261
365.22461 548.72583 -35.29884 4294967261
367.14182 548.58838 -35.504158 4294967261
369.55466 548.19733 -35.76107 4294967261
225.69002 550.98907 -35.578789 4294967261
234.18408 551.14764 -35.184669 4294967261
235.06537 551.09241 -35.049805 4294967261
237.36217 550.95245 -35.216282 4294967261
240.39395 550.76483 -35.197262 4294967261
242.20824 550.63373 -35.381973 4294967261
244.03568 550.58411 -35.079262 4294967261
255.19853 549.45978 -35.659081 4294967261
197.35542 553.0943 -35.994869 4294967261
209.49312 552.16675 -35.882072 4294967261
211.72633 552.02905 -35.629734 4294967261
365.46002 557.88104 -35.299953 4294967261
367.71814 557.99176 -35.436916 4294967261
369.50366 556.52417 -35.901962 4294967261
359.80072 560.08978 -35.014843 4294967261
361.51968 560.07111 -35.212254 4294967261
363.92346 559.87262 -35.41098 4294967261
365.75497 559.86304 -35.63921 4294967261
367.61392 560.01892 -35.924767 4294967261
337.44385 563.62982 -35.11322 4294967261
340.52921 563.37402 -35.053207 4294967261
341.069 563.81433 -35.613182 4294967261
342.58105 563.69708 -35.690533 4294967261
344.81238 563.14264 -35.531857 4294967261
349.65659 563.2757 -35.247818 4294967261
351.37088 563.2486 -35.312702 4294967261
355.45602 562.46155 -35.46814 4294967261
359.31366 561.70728 -35.551437 4294967261
361.71997 561.53131 -35.743347 4294967261
362.68924 561.58331 -35.957348 4294967261
321.5386 566.84027 -35.637333 4294967261
323.25558 566.17816 -35.611446 4294967261
325.94485 565.76135 -35.510639 4294967261
328.2804 565.71198 -35.348755 4294967261
332.20343 565.03058 -35.885044 4294967261
333.14191 564.42053 -35.203213 4294967261
283.49371 569.6944 -35.091187 4294967261
285.3653 569.59448 -35.231632 4294967261
288.13519 569.3609 -35.103569 4294967261
291.45859 569.14911 -35.047188 4294967261
299.5513 568.479 -35.414467 4294967261
301.55133 568.53058 -35.736378 4294967261
305.85233 568.0498 -35.848709 4294967261
307.72964 567.93848 -35.934292 4294967261
309.78644 567.79114 -35.992126 4294967261
315.18542 567.34692 -35.749962 4294967261
317.32468 567.12177 -35.565208 4294967261
233.67062 572.96509 -35.582035 4294967261
235.04245 572.77069 -35.372162 4294967261
240.25394 571.94238 -35.240208 4294967261
241.60304 571.9942 -35.861622 4294967261
246.26364 571.86584 -35.96867 4294967261
247.78571 571.82025 -35.730785 4294967261
249.18716 571.86462 -35.814655 4294967261
251.08105 571.7962 -35.209991 4294967261
255.63675 571.9649 -35.680603 4294967261
257.61996 571.74329 -35.985428 4294967261
261.31808 571.37451 -35.751881 4294967261
264.98544 571.05682 -35.494293 4294967261
267.67224 570.8916 -35.775337 4294967261
269.5473 570.95093 -35.569721 4294967261
271.70688 570.61511 -35.870846 4294967261
275.44547 570.52002 -35.559895 4294967261
277.98392 570.32501 -35.569241 4294967261
213.80388 575.23553 -35.943352 4294967261
215.57167 575.09229 -35.766819 4294967261
217.56726 574.91675 -35.94025 4294967261
223.40591 574.56927 -35.750591 4294967261
225.45961 574.44604 -35.668133 4294967261
227.50351 574.23175 -35.724697 4294967261
201.26727 576.27924 -35.845856 4294967261
307.08026 545.70105 -34.3074 4294967262
310.65402 545.40753 -34.680393 4294967262
313.53305 545.22803 -34.519787 4294967262
316.86081 545.90466 -34.249775 4294967262
320.96481 545.98492 -34.595295 4294967262
323.98697 545.68726 -34.952465 4294967262
344.07889 545.70392 -34.668755 4294967262
345.56259 545.2384 -34.636635 4294967262
347.47495 544.72461 -34.568054 4294967262
349.43292 544.35657 -34.193237 4294967262
350.99646 544.29865 -34.229134 4294967262
355.19492 544.46997 -34.376904 4294967262
357.55478 544.19836 -34.519215 4294967262
359.45697 543.65967 -34.811852 4294967262
361.24899 545.70496 -34.659039 4294967262
363.12338 545.77856 -34.889496 4294967262
276.40726 547.4433 -34.561646 4294967262
285.32507 546.88629 -34.716164 4294967262
287.18051 546.9743 -34.694584 4294967262
325.57858 546.58099 -34.438873 4294967262
330.77429 547.48517 -34.513416 4294967262
334.33679 547.90466 -34.633583 4294967262
340.0249 547.20648 -34.789558 4294967262
342.32758 547.95874 -34.235096 4294967262
343.70322 546.86383 -34.368038 4294967262
345.41953 546.77155 -34.128502 4294967262
347.30441 546.32593 -34.015884 4294967262
355.4671 548.01331 -34.073669 4294967262
357.39572 548.54993 -34.374722 4294967262
359.52438 548.20453 -34.585217 4294967262
361.50302 548.35223 -34.829639 4294967262
216.19131 551.99182 -34.910645 4294967262
219.64922 551.83319 -34.152615 4294967262
229.66508 551.45544 -34.418087 4294967262
233.03955 551.33789 -34.890553 4294967262
235.89911 551.21063 -34.532143 4294967262
238.57988 551.15955 -34.147602 4294967262
245.78931 550.71704 -34.044495 4294967262
247.12927 550.41541 -34.620564 4294967262
249.05461 550.27417 -34.974129 4294967262
252.5979 550.08795 -34.526741 4294967262
256.45959 549.51233 -34.549992 4294967262
336.77234 549.23492 -34.243988 4294967262
213.46188 552.1593 -34.102398 4294967262
351.55005 556.453 -34.144958 4294967262
353.54114 556.422 -34.340519 4294967262
355.51453 557.71466 -34.422665 4294967262
357.56592 556.35834 -34.658146 4294967262
359.16879 557.72253 -34.700123 4294967262
361.37665 557.98352 -34.806324 4294967262
363.74057 557.81842 -34.945061 4294967262
348.06604 559.85486 -34.10799 4294967262
349.18143 560.15741 -34.05238 4294967262
351.60547 560.25848 -34.124462 4294967262
353.53195 560.28735 -34.452858 4294967262
355.75922 560.02405 -34.627167 4294967262
357.4838 560.26758 -34.858791 4294967262
331.77316 563.13037 -34.068462 4294967262
333.95462 563.40656 -34.572758 4294967262
335.77841 563.65106 -34.969589 4294967262
336.96124 562.13324 -34.039604 4294967262
338.67407 562.41187 -34.324627 4294967262
340.07376 562.65784 -34.534321 4294967262
341.75916 562.51355 -34.468113 4294967262
343.39832 562.23901 -34.48391 4294967262
347.45905 562.21057 -34.944862 4294967262
349.65555 562.02399 -34.527561 4294967262
351.52042 562.15985 -34.826397 4294967262
353.44922 562.00952 -34.848015 4294967262
315.35504 566.88586 -34.540497 4294967262
317.7739 566.76434 -34.573349 4294967262
321.00989 566.02002 -34.635826 4294967262
322.62869 564.93927 -34.045208 4294967262
327.20691 565.25494 -34.521187 4294967262
328.88867 565.10925 -34.578983 4294967262
330.31445 564.52759 -34.434544 4294967262
295.55344 568.77191 -34.665993 4294967262
297.34573 568.62048 -34.96991 4294967262
299.43964 568.20355 -34.140789 4294967262
301.38312 567.95105 -34.18325 4294967262
303.62598 567.82611 -34.482487 4294967262
307.62137 567.52484 -34.637539 4294967262
309.27451 567.38049 -34.573509 4294967262
311.11746 567.24927 -34.683113 4294967262
313.39075 567.18793 -34.513382 4294967262
234.59283 572.396 -34.28772 4294967262
236.07782 572.34302 -34.84074 4294967262
241.51711 571.41833 -34.34494 4294967262
244.01266 571.35028 -34.497532 4294967262
246.61504 571.5025 -34.626419 4294967262
248.43274 571.37885 -34.169006 4294967262
249.19638 571.5553 -34.560722 4294967262
250.14026 571.64667 -34.752666 4294967262
252.42577 571.57263 -34.447117 4294967262
273.62268 570.44116 -34.946587 4294967262
281.35727 570.07605 -34.997665 4294967262
207.75066 575.45807 -34.084362 4294967262
231.26898 573.00861 -34.135777 4294967262
232.2966 573.03607 -34.611744 4294967262
303.10669 545.94525 -33.923687 4294967263
349.17264 545.7774 -33.711884 4294967263
351.57993 545.74451 -33.86478 4294967263
353.33878 545.78204 -33.76952 4294967263
264.85181 548.8504 -33.39262 4294967263
267.32385 548.56165 -33.750473 4294967263
269.16962 548.52448 -33.523415 4294967263
271.50653 548.24646 -33.616024 4294967263
273.39066 548.11572 -33.539074 4294967263
275.17218 547.75269 -33.625198 4294967263
281.75906 547.54669 -33.489365 4294967263
283.43134 547.42133 -33.359905 4294967263
285.58789 547.33032 -33.343826 4294967263
290.63684 546.8139 -33.650436 4294967263
293.6871 546.56311 -33.75761 4294967263
297.20016 546.37604 -33.65675 4294967263
299.6272 546.16724 -33.837383 4294967263
322.79889 547.49017 -33.597507 4294967263
324.95041 548.51672 -33.266563 4294967263
327.16129 548.31158 -33.639633 4294967263
329.56882 548.97772 -33.634743 4294967263
344.82437 548.82745 -33.831444 4294967263
346.88431 547.97772 -33.800064 4294967263
349.12491 547.78375 -33.740913 4294967263
351.43295 548.24298 -33.660938 4294967263
353.11993 548.27203 -33.930115 4294967263
222.99754 551.5863 -33.657295 4294967263
225.16205 551.25806 -33.678471 4294967263
226.67311 551.20764 -33.685375 4294967263
231.61774 551.91907 -33.442657 4294967263
234.29845 551.85022 -33.372986 4294967263
236.75107 551.79358 -33.183273 4294967263
239.81221 551.59833 -33.076889 4294967263
241.2697 551.12146 -33.955318 4294967263
242.66354 551.16235 -33.740208 4294967263
244.07187 551.09003 -33.578579 4294967263
247.54279 550.68286 -33.703121 4294967263
248.70581 550.93646 -33.118614 4294967263
250.39767 550.77063 -33.272476 4294967263
253.58902 550.61005 -33.003094 4294967263
255.28246 550.22491 -33.422493 4294967263
257.75635 549.85791 -33.310852 4294967263
259.40533 549.03906 -33.983967 4294967263
327.80981 549.84882 -33.096485 4294967263
330.99802 550.95825 -33.124195 4294967263
332.36948 549.05573 -33.875397 4294967263
333.07108 551.41278 -33.199768 4294967263
335.00339 550.76422 -33.57745 4294967263
339.1246 549.77417 -33.976765 4294967263
340.94495 550.59625 -33.653358 4294967263
342.81046 550.45135 -33.60585 4294967263
345.10135 551.58514 -33.471077 4294967263
347.46661 550.36511 -33.666283 4294967263
349.87497 550.14252 -33.754459 4294967263
352.0007 550.72821 -33.95982 4294967263
199.53758 553.23096 -33.387016 4294967263
202.8013 553.00629 -33.115757 4294967263
206.75974 552.61713 -33.876362 4294967263
209.74641 552.28943 -33.704655 4294967263
218.12473 552.24384 -33.410755 4294967263
338.41519 554.00586 -33.127106 4294967263
341.32028 554.05334 -33.006973 4294967263
343.26468 553.26178 -33.176025 4294967263
345.44482 553.80988 -33.278267 4294967263
346.93335 553.62207 -33.488998 4294967263
349.42435 553.5072 -33.805138 4294967263
337.72128 557.89258 -33.015732 4294967263
339.10092 557.99115 -33.049011 4294967263
344.82788 556.37683 -33.166584 4294967263
345.8436 555.48492 -33.26469 4294967263
347.20242 556.87 -33.608452 4294967263
349.77307 557.6369 -33.981884 4294967263
329.76395 560.76257 -33.037395 4294967263
331.37137 560.33942 -33.133602 4294967263
334.47702 559.1076 -33.063545 4294967263
336.45313 559.81567 -33.257378 4294967263
338.21613 560.33282 -33.387299 4294967263
340.34476 560.3606 -33.481125 4294967263
342.17075 559.47736 -33.266449 4294967263
343.57339 559.32745 -33.296066 4294967263
345.42911 559.94867 -33.885101 4294967263
323.15955 563.65979 -33.197399 4294967263
325.12878 563.32184 -33.127125 4294967263
327.23587 563.54303 -33.346722 4294967263
328.08936 562.57574 -33.097713 4294967263
329.45953 563.26501 -33.521805 4294967263
333.20935 561.20007 -33.485687 4294967263
335.17615 561.7486 -33.78376 4294967263
307.36502 566.64502 -33.108395 4294967263
309.46939 566.38153 -33.086922 4294967263
317.65338 564.87012 -33.174576 4294967263
319.75912 565.09631 -33.716057 4294967263
325.25092 564.67859 -33.920383 4294967263
326.86243 564.5014 -33.811207 4294967263
328.84644 564.0929 -33.743313 4294967263
277.79764 569.9353 -33.749153 4294967263
279.59714 569.80719 -33.738583 4294967263
281.56049 569.65173 -33.645729 4294967263
285.32788 569.35846 -33.631458 4294967263
288.36356 569.23999 -33.971031 4294967263
289.68628 569.09833 -33.717224 4294967263
293.72501 568.77521 -33.751385 4294967263
296.92032 568.41364 -33.819145 4294967263
232.28542 572.60333 -33.387405 4294967263
233.19608 572.49323 -33.738361 4294967263
235.50845 571.76819 -33.597519 4294967263
237.32545 571.5351 -33.875404 4294967263
239.47945 571.3222 -33.952381 4294967263
241.09743 570.33881 -33.024345 4294967263
246.47662 570.49219 -33.112869 4294967263
248.04753 570.83252 -33.323238 4294967263
251.09389 571.4483 -33.948776 4294967263
254.46089 571.41125 -33.883858 4294967263
255.57504 571.80396 -33.763279 4294967263
257.37524 571.65839 -33.791512 4294967263
259.83527 571.38989 -33.649048 4294967263
263.56018 571.21405 -33.475044 4294967263
265.57019 571.06042 -33.487793 4294967263
269.39685 570.65436 -33.56456 4294967263
273.28381 570.33752 -33.537766 4294967263
275.4841 570.16449 -33.77211 4294967263
203.22261 575.80414 -33.85722 4294967263
205.0865 575.59955 -33.770424 4294967263
209.62576 575.33917 -33.804783 4294967263
211.37808 575.15594 -33.57933 4294967263
213.8661 574.97925 -33.742626 4294967263
217.63806 574.63898 -33.737392 4294967263
221.20348 574.41437 -33.829979 4294967263
227.45241 573.91107 -33.850452 4294967263
229.37883 573.10193 -33.693665 4294967263
199.18002 576.11816 -33.805508 4294967263
273.72479 548.8703 -32.072403 4294967264
283.96207 547.74323 -32.446095 4294967264
285.18451 547.76929 -32.269665 4294967264
287.39041 547.59424 -32.390041 4294967264
293.86011 547.34625 -32.22554 4294967264
297.17941 547.14459 -32.352772 4294967264
299.69687 547.0321 -32.405563 4294967264
303.33124 547.04144 -32.266247 4294967264
305.11899 546.79706 -32.506298 4294967264
307.36008 546.85333 -32.440742 4294967264
311.23032 546.67896 -32.368607 4294967264
314.58871 547.80695 -32.38163 4294967264
319.10587 548.95593 -32.770878 4294967264
321.77136 548.97668 -32.813572 4294967264
227.12859 551.76709 -32.500538 4294967264
238.30095 551.88477 -32.695301 4294967264
241.34819 551.97797 -32.498775 4294967264
244.99338 551.3559 -32.844067 4294967264
246.87921 551.36676 -32.556637 4294967264
252.04965 551.29169 -32.350082 4294967264
259.5043 549.50061 -32.490028 4294967264
263.21869 549.33295 -32.603222 4294967264
265.75934 549.15558 -32.609127 4294967264
269.57898 549.11188 -32.250561 4294967264
322.28625 550.867 -32.441517 4294967264
323.2001 549.13416 -32.855816 4294967264
324.71075 550.37854 -32.660347 4294967264
326.32703 549.72559 -32.980721 4294967264
327.25198 551.72015 -32.641743 4294967264
329.05038 550.76617 -32.968735 4294967264
197.90874 553.7749 -32.216389 4294967264
200.88385 553.38751 -32.407955 4294967264
203.89362 553.203 -32.216595 4294967264
207.2563 552.91132 -32.139774 4294967264
213.73877 552.77924 -32.409485 4294967264
219.74547 552.38666 -32.806122 4294967264
220.94882 552.50195 -32.407169 4294967264
225.35316 552.00055 -32.413692 4294967264
228.98982 552.2738 -32.411243 4294967264
232.78775 552.73755 -32.027485 4294967264
238.87384 552.26251 -32.111935 4294967264
243.35051 552.28485 -32.046951 4294967264
319.97028 552.86456 -32.110069 4294967264
322.84091 553.60645 -32.169312 4294967264
324.61536 553.50037 -32.267067 4294967264
326.88559 553.90613 -32.393169 4294967264
328.79449 554.48138 -32.519203 4294967264
329.88376 552.69751 -32.721329 4294967264
332.2149 553.28741 -32.81823 4294967264
334.74585 553.65027 -32.967384 4294967264
320.8559 557.83856 -32.048321 4294967264
321.60196 555.3457 -32.054241 4294967264
322.63403 556.98297 -32.094074 4294967264
323.71518 557.59766 -32.167572 4294967264
324.0303 556.0788 -32.1642 4294967264
325.86804 556.14954 -32.267582 4294967264
326.79541 556.74646 -32.317963 4294967264
327.67932 556.03674 -32.392208 4294967264
329.83588 557.67731 -32.645725 4294967264
331.1001 555.38147 -32.650375 4294967264
333.49948 556.08752 -32.793217 4294967264
335.95486 556.78595 -32.923374 4294967264
340.27817 557.21014 -32.960304 4294967264
341.05746 555.77411 -32.874371 4294967264
343.0014 555.96893 -32.93082 4294967264
319.34259 559.57538 -32.08139 4294967264
320.83896 560.17218 -32.213146 4294967264
322.20709 559.78333 -32.229004 4294967264
323.09894 558.65558 -32.194832 4294967264
325.18204 558.9212 -32.343346 4294967264
327.28827 559.62415 -32.561653 4294967264
332.27472 558.34625 -32.867847 4294967264
319.69357 562.55292 -32.619659 4294967264
322.4397 561.83868 -32.550163 4294967264
324.14233 561.1189 -32.524612 4294967264
325.79291 562.50183 -32.883278 4294967264
326.26007 561.59808 -32.743813 4294967264
328.36481 561.12689 -32.857803 4294967264
303.38025 566.86804 -32.761204 4294967264
309.422 565.18512 -32.18314 4294967264
311.20648 565.73566 -32.687283 4294967264
313.41147 565.59058 -32.727528 4294967264
315.50525 564.87793 -32.667313 4294967264
239.86861 569.91998 -32.444485 4294967264
244.91393 569.97986 -32.734741 4294967264
248.29462 569.38702 -32.0135 4294967264
273.366 569.91907 -32.421692 4294967264
279.34964 569.10968 -32.170193 4294967264
281.09537 568.97266 -32.183189 4294967264
285.23465 568.69092 -32.008492 4294967264
287.23907 568.73438 -32.441689 4294967264
289.36884 568.55035 -32.183872 4294967264
293.41742 568.18097 -32.061996 4294967264
295.30328 568.05432 -32.504112 4294967264
297.09152 567.52106 -32.322868 4294967264
301.47208 567.11194 -32.73354 4294967264
231.36728 572.22321 -32.782108 4294967264
232.50424 571.66833 -32.490623 4294967264
234.06944 571.06403 -32.562527 4294967264
236.07578 570.5105 -32.493298 4294967264
237.94099 570.05707 -32.358757 4294967264
242.93448 570.06104 -32.906227 4294967264
250.09319 570.51801 -32.856567 4294967264
251.9789 570.90369 -32.88702 4294967264
253.39711 570.94867 -32.87133 4294967264
255.82507 571.02338 -32.708866 4294967264
257.465 570.89069 -32.626797 4294967264
261.26184 570.88501 -32.435497 4294967264
267.47705 570.4436 -32.503464 4294967264
269.18112 570.31989 -32.482052 4294967264
271.43802 570.15253 -32.543629 4294967264
199.06412 575.67157 -32.511246 4294967264
201.33864 575.57855 -32.709511 4294967264
203.05913 575.36011 -32.56934 4294967264
205.11394 575.2171 -32.608234 4294967264
207.14601 575.06085 -32.508732 4294967264
209.74747 574.90106 -32.40387 4294967264
214.93907 574.41571 -32.249382 4294967264
217.29631 574.27234 -32.511894 4294967264
219.55238 574.07001 -32.396358 4294967264
221.34946 573.96112 -32.427166 4294967264
223.58171 573.7522 -32.442749 4294967264
225.5602 573.61475 -32.557301 4294967264
275.43237 548.99847 -31.709129 4294967265
285.43704 548.2973 -31.364206 4294967265
287.22464 548.78278 -31.170214 4294967265
289.298 547.58954 -31.977882 4294967265
293.23639 548.53741 -31.28561 4294967265
