# .PCD v0.7 - Point Cloud Data file format
VERSION 0.7
FIELDS x y z rgba
SIZE 4 4 4 4
TYPE F F F U
COUNT 1 1 1 1
WIDTH 1264
HEIGHT 1
VIEWPOINT 0 0 0 1 0 0 0
POINTS 1264
DATA ascii
-57.171486 -198.12003 -6.734108 12271
-20.638788 -198.45764 -6.8294406 12271
-19.133928 -198.52295 -6.0799727 12271
-14.621265 -198.57655 -6.5345068 12271
-8.8515892 -198.63403 -6.8715801 12271
29.581524 -199.34673 -6.8904257 12271
31.062513 -199.36934 -6.6912227 12271
43.032169 -199.71249 -6.9026036 12271
45.222591 -199.74129 -6.9054923 12271
-60.47258 -197.95168 -6.8279295 12271
346.10391 -185.21579 -6.2759805 12271
302.99155 -180.26241 -6.7139893 12271
305.47534 -180.32672 -6.8504572 12271
307.40509 -180.33957 -6.8762074 12271
309.92798 -180.30334 -6.8781838 12271
313.23813 -180.24712 -6.7279048 12271
325.79691 -180.17004 -6.0803604 12271
327.88641 -180.11208 -6.0905046 12271
340.24561 -181.08978 -6.0123715 12271
341.517 -181.30637 -6.3702626 12271
213.17894 -177.01749 -6.8749599 12271
260.96289 -178.65244 -6.5092282 12271
132.89099 -174.42838 -6.9359474 12271
137.54915 -174.56303 -6.8605523 12271
141.60323 -174.70837 -6.886415 12271
147.48796 -174.90555 -6.9782004 12271
151.55919 -175.01152 -6.927597 12271
177.49771 -175.85178 -6.9477816 12271
181.23244 -175.97643 -6.7704949 12271
189.40567 -176.30818 -6.9196911 12271
193.71655 -176.44637 -6.9619989 12271
201.67322 -176.63585 -6.810008 12271
207.01047 -176.78008 -6.7774825 12271
209.55287 -176.87395 -6.9418654 12271
43.897064 -171.17503 -6.7767987 12271
73.313927 -172.37938 -6.9131489 12271
83.659218 -172.73079 -6.8692474 12271
85.294815 -172.81885 -6.9854841 12271
87.203934 -172.84821 -6.7569699 12271
89.196167 -172.93387 -6.9050241 12271
93.593414 -173.05368 -6.7617755 12271
107.45867 -173.59155 -6.9477553 12271
-22.237206 -168.78232 -6.5171118 12271
-19.833654 -168.73471 -6.2840958 12271
-14.592252 -168.81934 -6.6928945 12271
-9.2872581 -168.9422 -6.4163542 12271
1.5080566 -169.5807 -6.9782972 12271
3.5079143 -169.55794 -6.713243 12271
7.6717134 -169.76154 -6.9962597 12271
11.575641 -169.96167 -6.9243746 12271
29.371672 -170.67213 -6.9609017 12271
33.178165 -170.81441 -6.9641848 12271
37.49612 -170.94089 -6.9051008 12271
-72.343925 -167.13188 -6.4105406 12271
-66.765373 -166.87689 -6.9578261 12271
-64.753838 -166.73204 -6.9968195 12271
-63.055984 -166.58672 -6.6497645 12271
327.52988 -207.34828 -5.8740511 12271
330.27576 -207.45139 -5.4167252 12271
335.80994 -207.38174 -5.9510479 12271
245.39227 -204.40346 -5.0368528 12271
249.34329 -204.39417 -5.0868168 12271
339.49603 -205.53001 -5.3072543 12271
109.5323 -201.41199 -5.0717106 12271
113.56669 -201.49803 -5.0132613 12271
121.4538 -201.63879 -5.0161753 12271
188.00235 -203.29547 -5.2528434 12271
-78.947151 -198.14569 -5.9852862 12271
-76.545341 -198.15425 -5.7121673 12271
-55.381992 -198.25691 -5.2424111 12271
-44.108231 -198.29803 -5.0217948 12271
88.735817 -200.83258 -5.7158542 12271
91.509621 -200.84004 -5.171021 12271
94.893898 -200.91629 -5.2376447 12271
-82.415985 -197.88094 -5.9910307 12271
-75.826042 -197.99138 -5.032959 12271
343.41522 -183.48318 -5.1560912 12271
329.9483 -180.15132 -5.5965443 12271
332.19339 -180.28239 -5.5603004 12271
333.95041 -180.39169 -5.7707424 12271
335.33057 -180.54987 -5.4931507 12271
337.87338 -180.75453 -5.2876711 12271
343.60471 -182.52899 -5.9925075 12271
253.79744 -178.23378 -5.0278902 12271
284.10468 -179.61104 -5.2324634 12271
136.11746 -174.33662 -5.1620665 12271
142.21986 -174.52864 -5.0965767 12271
145.26962 -174.64716 -5.1091161 12271
77.944862 -172.34067 -5.2292094 12271
-39.418377 -168.15849 -5.810565 12271
-27.577644 -168.85316 -5.9549308 12271
39.254375 -170.71848 -5.1579881 12271
-74.914352 -167.98621 -5.2370071 12271
-72.378944 -167.81537 -5.1614213 12271
-61.14542 -166.83414 -5.2261562 12271
-52.721073 -167.00516 -5.1751318 12271
323.8804 -207.08505 -4.0050554 12271
327.90503 -207.06912 -4.0023632 12271
333.77524 -207.08209 -4.5882564 12271
241.24693 -204.37445 -4.6818032 12271
247.49203 -204.37531 -4.8726883 12271
253.36151 -204.38368 -4.9505558 12271
256.92856 -204.42549 -4.7335262 12271
309.61508 -206.16565 -4.7776527 12271
311.01105 -206.26382 -4.4686809 12271
314.15048 -206.38861 -4.7817712 12271
317.24451 -206.61459 -4.3679328 12271
320.4299 -206.85321 -4.4193678 12271
106.25908 -201.26413 -4.9069667 12271
117.44215 -201.53735 -4.8519783 12271
125.57421 -201.72769 -4.7156749 12271
-58.405746 -198.23151 -4.1053262 12271
-42.645367 -198.37103 -4.0185041 12271
-36.620205 -198.27286 -4.0527153 12271
-18.52854 -198.59521 -4.69596 12271
-16.897781 -198.66173 -4.2730632 12271
-4.6573334 -198.78531 -4.758399 12271
1.2238092 -198.87457 -4.4598041 12271
5.9382048 -198.89412 -4.9451928 12271
45.479755 -199.68755 -4.9724298 12271
83.163254 -200.72415 -4.7014785 12271
-80.563324 -196.84816 -4.0985818 12271
-78.537094 -197.58069 -4.5992599 12271
342.12091 -183.73801 -4.0686946 12271
305.95636 -180.01755 -4.7423792 12271
307.33804 -180.02426 -4.71419 12271
335.71948 -180.91647 -4.0088334 12271
337.07068 -180.91827 -4.7770839 12271
219.60834 -177.09258 -4.8997526 12271
223.3835 -177.17516 -4.8526282 12271
239.31941 -177.77298 -4.8748555 12271
243.33836 -177.91687 -4.7967324 12271
249.16248 -178.04724 -4.8120122 12271
257.51105 -178.38164 -4.6035166 12271
259.75443 -178.53616 -4.9416118 12271
261.22073 -178.60222 -4.8515921 12271
263.85815 -178.71635 -4.9045577 12271
265.42554 -178.77306 -4.8768406 12271
287.11862 -179.62656 -4.9373112 12271
289.73395 -179.72189 -4.9756436 12271
298.30731 -179.88043 -4.7762084 12271
301.34711 -179.96359 -4.9836497 12271
303.23541 -179.93634 -4.6446919 12271
311.6156 -179.96515 -4.540102 12271
129.34113 -174.0518 -4.5941029 12271
133.10484 -174.19998 -4.7794342 12271
139.26157 -174.38982 -4.8060122 12271
147.49791 -174.69907 -4.9420557 12271
153.88863 -174.84927 -4.1158776 12271
173.668 -175.52271 -4.9150915 12271
177.75818 -175.66615 -4.9425159 12271
179.31566 -175.70534 -4.8657184 12271
191.75136 -176.17757 -4.9476819 12271
193.91899 -176.26118 -4.9372382 12271
197.36122 -176.32918 -4.788959 12271
199.15988 -176.39413 -4.9326553 12271
203.18472 -176.51338 -4.9888272 12271
207.66743 -176.61514 -4.8919911 12271
209.73167 -176.68214 -4.8070159 12271
213.10437 -176.83966 -4.9041705 12271
215.48726 -176.92191 -4.8730149 12271
-73.883682 -173.45685 -4.171267 12271
49.515911 -171.01526 -4.7643704 12271
75.322998 -172.15576 -4.7722645 12271
84.994728 -172.49559 -4.6512699 12271
91.877831 -172.68448 -4.7152753 12271
97.988319 -172.94046 -4.8771329 12271
101.21501 -173.02577 -4.7563252 12271
103.50158 -173.13751 -4.8372412 12271
105.35333 -173.22363 -4.9537883 12271
109.49068 -173.37683 -4.8599687 12271
111.34895 -173.46477 -4.96632 12271
125.49773 -173.9393 -4.8328834 12271
-74.615089 -170.78506 -4.2878995 12271
-72.377213 -169.08476 -4.1869388 12271
-70.265121 -168.80775 -4.0804815 12271
-42.255657 -168.18243 -4.2599454 12271
-38.107277 -168.34436 -4.6689682 12271
-29.085052 -168.92455 -4.0155258 12271
-25.053625 -168.85791 -4.9520659 12271
-23.064568 -168.78535 -4.6029415 12271
-21.275038 -168.61166 -4.5252171 12271
-17.631056 -168.53059 -4.1066928 12271
-14.309238 -168.51666 -4.3849406 12271
-7.0490713 -168.6671 -4.2508178 12271
-2.9256012 -168.91429 -4.9205027 12271
-0.22466873 -169.05385 -4.8218169 12271
1.2596569 -169.0663 -4.6876707 12271
3.8326042 -169.19513 -4.7483325 12271
8.2321167 -169.46567 -4.9210501 12271
11.010564 -169.57146 -4.5335584 12271
13.57483 -169.71942 -4.9733171 12271
14.896508 -169.76305 -4.7699294 12271
35.730064 -170.49628 -4.7261415 12271
41.367977 -170.73622 -4.7735262 12271
-67.875587 -167.64476 -4.5847783 12271
-64.117531 -167.29591 -4.7720938 12271
-62.638237 -167.13524 -4.5969925 12271
-59.06131 -167.39844 -4.1040773 12271
-56.60186 -167.11789 -4.8653545 12271
-55.069134 -167.13246 -4.911263 12271
-51.407665 -167.1983 -4.9305048 12271
326.03906 -207.13121 -3.8420742 12271
330.32281 -207.06844 -3.8121388 12271
239.5349 -204.21382 -3.0726073 12271
245.41141 -204.26384 -3.0464845 12271
247.63881 -204.28172 -3.0032384 12271
251.54858 -204.30945 -3.0143354 12271
255.54442 -204.32123 -3.0921953 12271
257.60245 -204.35846 -3.0706646 12271
261.32898 -204.41068 -3.0229402 12271
335.66013 -205.9389 -3.763695 12271
337.22668 -204.12416 -3.1536505 12271
98.245872 -201.00525 -3.1875336 12271
123.68436 -201.53645 -3.0366216 12271
-62.524052 -198.02214 -3.4568305 12271
-56.816967 -198.25957 -3.5927796 12271
-54.753288 -198.30626 -3.4826119 12271
-41.115284 -198.36777 -3.9294527 12271
-11.403434 -198.71878 -3.9266672 12271
-6.0023513 -198.77504 -3.3687227 12271
84.215233 -200.70462 -3.6301706 12271
87.680908 -200.76819 -3.117002 12271
-83.753281 -196.24516 -3.9864042 12271
-82.201424 -195.07611 -3.1308727 12271
-80.240211 -187.41838 -3.3313055 12271
-78.073227 -184.9725 -3.3983021 12271
339.56674 -183.76031 -3.13762 12271
341.13174 -184.8492 -3.2987325 12271
328.26144 -180.19987 -3.0749087 12271
331.89227 -180.48866 -3.6601622 12271
336.72922 -181.73128 -3.2688529 12271
339.84525 -182.10036 -3.9590354 12271
-70.657013 -179.12305 -3.2354577 12271
254.26128 -178.09706 -3.1506217 12271
321.37762 -179.85359 -3.7969224 12271
149.25417 -174.53598 -3.2570455 12271
151.75621 -174.66951 -3.3440256 12271
157.95502 -174.99451 -3.184824 12271
-71.733376 -172.48796 -3.6491244 12271
89.729385 -172.33704 -3.0619919 12271
-68.263817 -168.62022 -3.7072239 12271
-67.345528 -168.3067 -3.7642367 12271
-64.741493 -168.99361 -3.0843377 12271
-39.842583 -168.64052 -3.5125668 12271
-27.499931 -168.93394 -3.911247 12271
-26.110529 -168.99176 -3.5293782 12271
-21.629065 -168.76036 -3.0516732 12271
-19.656 -168.52829 -3.7289832 12271
-11.274097 -168.444 -3.6695781 12271
4.648932 -169.02908 -3.437649 12271
-56.376423 -167.28108 -3.9655278 12271
-54.649529 -167.38718 -3.5599399 12271
-48.488453 -167.33098 -3.0939476 12271
-45.011204 -167.92245 -3.9565945 12271
237.16727 -204.17073 -2.9753439 12271
243.45152 -204.24464 -2.7837098 12271
249.09148 -204.30913 -2.6793475 12271
253.37973 -204.31981 -2.7194915 12271
311.65106 -206.424 -2.2723763 12271
326.23007 -206.61723 -2.169131 12271
327.68423 -206.48256 -2.1266227 12271
333.35181 -205.36559 -2.1730866 12271
335.33228 -204.01268 -2.5071712 12271
105.55353 -201.21994 -2.7836866 12271
119.41533 -201.43367 -2.8242571 12271
127.28767 -201.66319 -2.9250515 12271
128.65968 -201.68768 -2.0140712 12271
-61.217194 -198.06485 -2.9728651 12271
-53.050201 -198.34506 -2.8838398 12271
-47.924976 -198.11395 -2.186815 12271
-44.535568 -198.17558 -2.1956034 12271
-20.566216 -198.53094 -2.262017 12271
-16.818859 -198.76343 -2.2537136 12271
-10.897799 -198.78743 -2.5366099 12271
1.2858038 -198.88535 -2.8461301 12271
5.3472781 -198.9427 -2.371259 12271
7.1177511 -198.95917 -2.7326586 12271
41.106636 -199.57904 -2.7571321 12271
56.486126 -199.80925 -2.4964225 12271
65.243561 -199.97662 -2.6677876 12271
69.599106 -200.35478 -2.5428874 12271
74.64785 -200.3293 -2.4256172 12271
81.066353 -200.67789 -2.7941842 12271
91.171844 -200.83974 -2.43031 12271
93.224129 -200.85779 -2.8361754 12271
95.394394 -200.93167 -2.5477452 12271
-80.353882 -195.47847 -2.8793433 12271
-78.544044 -195.53949 -2.5600929 12271
-76.70388 -195.69737 -2.024837 12271
-74.607224 -197.04198 -2.4344709 12271
-65.016617 -197.62938 -2.7949297 12271
-80.437729 -192.53889 -2.3578188 12271
-78.89254 -193.92393 -2.0721562 12271
-82.457954 -191.67444 -2.7667551 12271
-80.274948 -189.52574 -2.8061945 12271
-78.851357 -189.72917 -2.4579132 12271
-78.460052 -187.43092 -2.9092536 12271
-72.961594 -184.7448 -2.3193002 12271
337.74963 -184.32098 -2.3632817 12271
-66.91291 -180.77046 -2.1753097 12271
324.28076 -180.1772 -2.4382045 12271
329.41534 -180.34744 -2.864157 12271
333.66397 -181.50938 -2.239821 12271
235.86058 -177.30081 -2.6481919 12271
239.32123 -177.44536 -2.7459924 12271
241.25594 -177.51033 -2.6083543 12271
245.52846 -177.72815 -2.8438997 12271
257.51328 -178.12115 -2.7797606 12271
263.32587 -178.50301 -2.9452446 12271
279.42599 -179.04074 -2.9200995 12271
282.78799 -179.05785 -2.373152 12271
285.41882 -179.22012 -2.8922732 12271
287.32422 -179.231 -2.7726841 12271
290.8862 -179.39014 -2.8398612 12271
303.41675 -179.48303 -2.2952554 12271
326.26941 -179.92351 -2.9421189 12271
-66.589806 -174.93184 -2.8118007 12271
135.48361 -174.0311 -2.7453802 12271
137.77513 -174.13548 -2.9011567 12271
143.26436 -174.27821 -2.8663177 12271
145.05898 -174.31892 -2.7873504 12271
153.08336 -174.64421 -2.0149124 12271
166.22743 -175.17261 -2.4739735 12271
170.55907 -175.13226 -2.7780528 12271
173.67197 -175.23048 -2.867831 12271
177.66866 -175.36902 -2.9072917 12271
181.40337 -175.46251 -2.8679013 12271
187.14954 -175.69637 -2.8143857 12271
191.26729 -175.84685 -2.723948 12271
195.32712 -175.98524 -2.7318475 12271
201.26526 -176.14999 -2.8393209 12271
205.77834 -176.26926 -2.9633985 12271
215.43481 -176.66833 -2.9421954 12271
216.70262 -176.70383 -2.8416541 12271
225.07118 -176.92451 -2.646781 12271
75.35997 -171.85013 -2.8190801 12271
77.343941 -171.92601 -2.5592818 12271
79.157455 -172.06891 -2.8752775 12271
83.303566 -172.20496 -2.8943777 12271
85.083267 -172.20857 -2.8054638 12271
87.362366 -172.25891 -2.8316345 12271
91.470795 -172.35143 -2.56616 12271
93.399582 -172.41885 -2.8166561 12271
95.291588 -172.55573 -2.9265568 12271
99.771088 -172.73207 -2.9082074 12271
103.50317 -172.83286 -2.778161 12271
105.52162 -172.86345 -2.6584768 12271
107.51299 -172.97099 -2.8381624 12271
111.23933 -173.15063 -2.8220463 12271
130.99217 -173.86458 -2.7006879 12271
133.52373 -173.97958 -2.8700368 12271
-68.816666 -170.6769 -2.9423079 12271
-65.282349 -169.78577 -2.8628094 12271
-62.058872 -168.56079 -2.9662836 12271
-61.033691 -168.51576 -2.8417706 12271
-59.825489 -169.65959 -2.1396146 12271
-58.506092 -168.2859 -2.6358027 12271
-45.706161 -168.41145 -2.5055542 12271
-43.229225 -169.31813 -2.0078471 12271
-38.495152 -169.36551 -2.3250101 12271
-36.433517 -169.63217 -2.0613008 12271
-32.023983 -169.28555 -2.8260977 12271
-29.763563 -169.34639 -2.5882633 12271
-27.391144 -169.49437 -2.2586336 12271
-24.044872 -169.27458 -2.5654712 12271
-22.343161 -169.0692 -2.3567078 12271
-20.531874 -168.67102 -2.7979019 12271
-18.38958 -168.47299 -2.624259 12271
3.5527163 -168.81888 -2.0051742 12271
9.8757648 -169.13257 -2.2430584 12271
11.671075 -169.18353 -2.3838937 12271
14.922909 -169.32092 -2.0260248 12271
17.266636 -169.40726 -2.1695235 12271
25.850527 -169.69655 -2.0635362 12271
27.563404 -169.7769 -2.1545906 12271
29.446867 -169.85304 -2.1729801 12271
31.504631 -169.96722 -2.360121 12271
33.774803 -169.97653 -2.059361 12271
35.661526 -170.12651 -2.5049024 12271
39.387676 -170.33905 -2.6936197 12271
41.378548 -170.35156 -2.5786633 12271
43.137764 -170.39388 -2.5140641 12271
45.821949 -170.55646 -2.8262806 12271
46.871407 -170.53728 -2.4906845 12271
-56.86903 -167.98846 -2.6143048 12271
-52.658092 -167.88342 -2.406419 12271
241.95284 -204.18483 -1.5452918 12271
245.05978 -204.23192 -1.1545365 12271
247.89102 -204.27061 -1.0126956 12271
309.99765 -206.34082 -1.9288567 12271
314.97632 -206.57037 -1.9230652 12271
317.38245 -206.63333 -1.6131991 12271
319.61478 -206.71227 -1.7700075 12271
323.51007 -206.72813 -1.5980465 12271
331.33865 -205.23218 -1.5017205 12271
101.87931 -201.05525 -1.7942809 12271
125.57429 -201.53677 -1.140952 12271
153.63026 -202.20055 -1.1702641 12271
-40.712189 -198.20895 -1.7326227 12271
-36.348537 -198.19229 -1.7652361 12271
-34.596592 -198.36499 -1.5873109 12271
-22.294243 -198.50354 -1.6863328 12271
-18.769867 -198.68178 -1.7050186 12271
-14.882283 -198.81929 -1.9485688 12271
-8.8740435 -198.83168 -1.4933927 12271
67.898422 -200.0014 -1.7315514 12271
71.330261 -200.18254 -1.9300898 12271
89.656151 -200.82494 -1.1051332 12271
333.56226 -199.83772 -1.3157103 12271
-72.536964 -196.96126 -1.93525 12271
-68.766098 -196.44543 -1.0317347 12271
-64.626236 -197.31934 -1.727625 12271
-62.083435 -197.37367 -1.2570716 12271
-59.070576 -197.47403 -1.2898949 12271
-56.325039 -197.80634 -1.7233828 12271
-54.581856 -197.93497 -1.5650146 12271
-76.981445 -194.40283 -1.7262025 12271
-75.55172 -192.69731 -1.0124254 12271
331.66754 -193.092 -1.0617031 12271
-77.392136 -191.6638 -1.5895144 12271
-76.778625 -189.64931 -1.9978453 12271
-75.248177 -189.07881 -1.8183072 12271
-72.927567 -186.66817 -1.9050393 12271
333.48563 -188.61836 -1.0634561 12271
-70.492432 -184.87607 -1.8249644 12271
-68.760742 -184.16583 -1.6554558 12271
-66.195045 -183.08221 -1.445196 12271
335.9086 -185.19261 -1.6166215 12271
336.14322 -183.79195 -1.9489441 12271
-61.104198 -181.16362 -1.0101402 12271
323.4819 -180.26529 -1.3936704 12271
327.9068 -180.48965 -1.71254 12271
331.45477 -181.49387 -1.516125 12271
333.38223 -182.47578 -1.3130875 12271
264.11597 -178.31792 -1.2506886 12271
286.03769 -178.89391 -1.021036 12271
307.35568 -179.48151 -1.9319956 12271
311.23218 -179.49689 -1.7364818 12271
155.11505 -174.77092 -1.6422548 12271
159.99898 -175.04297 -1.2672782 12271
162.31261 -175.13887 -1.4626961 12271
-62.441734 -171.93486 -1.9737207 12271
-58.735096 -171.68742 -1.3205408 12271
-58.837666 -169.98013 -1.8755884 12271
-56.534336 -168.93562 -1.8554311 12271
-52.778244 -168.88274 -1.2401444 12271
-50.347458 -168.8288 -1.166544 12271
-46.226845 -169.50269 -1.2899748 12271
-40.322334 -169.63989 -1.8186847 12271
-34.081192 -169.77467 -1.8084131 12271
-32.418663 -170.1859 -1.3125726 12271
-30.717661 -170.25868 -1.2813567 12271
-28.828238 -170.25623 -1.1974055 12271
-25.713615 -169.86185 -1.4642531 12271
-20.510157 -169.36078 -1.1171584 12271
-19.08383 -168.71098 -1.7958997 12271
-17.779993 -168.67453 -1.2646859 12271
-16.432577 -168.54041 -1.8850573 12271
-14.447152 -168.07831 -1.2031122 12271
-10.762789 -168.31348 -1.5323597 12271
-6.5633025 -168.12317 -1.8431493 12271
-3.1664307 -168.31445 -1.9779472 12271
-0.81391078 -168.46832 -1.9038618 12271
1.3281125 -168.58824 -1.996714 12271
5.1336422 -168.79071 -1.8084072 12271
13.212544 -169.22253 -1.836279 12271
18.983793 -169.33543 -1.3872007 12271
235.23232 -204.06313 -0.79609984 12271
236.86737 -204.10237 -0.67177379 12271
239.43239 -204.16875 -0.79009062 12271
251.38245 -204.37549 -0.57177538 12271
257.01941 -204.39317 -0.847799 12271
259.76996 -204.40228 -0.98847109 12271
261.07242 -204.42509 -0.44130129 12271
313.80887 -206.34619 -0.021731934 12271
319.70587 -206.06592 -0.022192037 12271
321.82761 -206.00319 -0.05266577 12271
327.63733 -205.5183 -0.60436118 12271
329.48956 -204.61348 -0.50060987 12271
119.52836 -201.39478 -0.85158229 12271
123.54164 -201.47401 -0.86245841 12271
130.88664 -201.6972 -0.11330882 12271
134.08644 -201.7188 -0.92981607 12271
149.18669 -202.11418 -0.6613397 12271
151.45685 -202.16542 -0.8478626 12271
199.56834 -203.25958 -0.8953349 12271
331.35922 -202.46114 -0.27083454 12271
-14.624181 -198.57306 -0.18298922 12271
3.4401991 -199.05315 -0.020580472 12271
9.2582521 -199.11273 -0.054677702 12271
13.328519 -199.11015 -0.55806512 12271
19.334244 -199.10623 -0.41236532 12271
41.287155 -199.593 -0.809089 12271
43.300888 -199.66832 -0.41454828 12271
45.545998 -199.71944 -0.868177 12271
49.599361 -199.84216 -0.67462677 12271
51.088001 -199.73692 -0.84669203 12271
52.96365 -199.68631 -0.23558949 12271
54.710953 -199.64777 -0.4281933 12271
72.481392 -200.0587 -0.62076765 12271
77.727623 -200.36845 -0.75705034 12271
81.296806 -200.73665 -0.59938854 12271
85.666031 -200.77332 -0.95997161 12271
87.549271 -200.80017 -0.64325172 12271
91.327469 -200.8437 -0.48038569 12271
93.321465 -200.86241 -0.58955181 12271
332.03568 -200.04002 -0.70950937 12271
-70.813828 -195.34944 -0.77276522 12271
-66.747368 -195.33305 -0.1445158 12271
-64.43856 -195.9554 -0.019259399 12271
-58.098221 -197.24033 -0.74234176 12271
-47.111118 -197.29408 -0.18878594 12271
-42.803089 -197.48088 -0.16405728 12271
-39.260151 -197.92334 -0.93251675 12271
329.63364 -196.28781 -0.17340016 12271
331.43414 -195.25204 -0.90792346 12271
-74.04425 -194.31847 -0.88087499 12271
-72.285744 -194.03011 -0.48584929 12271
-70.692955 -192.127 -0.12746747 12271
-72.143631 -190.32469 -0.79402179 12271
-70.804405 -189.4707 -0.7360512 12271
-68.582466 -189.84718 -0.27277124 12271
329.02777 -190.97812 -0.026586859 12271
331.40381 -191.06641 -0.75831491 12271
-68.523209 -187.16945 -0.88414693 12271
-67.22097 -188.63367 -0.35883376 12271
-62.550831 -187.18335 -0.026673567 12271
331.6434 -188.66562 -0.53169483 12271
-66.631462 -185.73596 -0.88113654 12271
-60.754173 -184.26968 -0.36528325 12271
331.58374 -185.2589 -0.0055858172 12271
333.42914 -184.84175 -0.84781033 12271
-62.384697 -182.96053 -0.85411316 12271
323.59586 -180.53015 -0.50561893 12271
325.62985 -181.07788 -0.11563215 12271
329.31409 -181.1824 -0.99989361 12271
235.88353 -177.01437 -0.69354326 12271
237.245 -177.05705 -0.65041679 12271
241.27484 -177.19336 -0.52309132 12271
243.6792 -177.35088 -0.82645023 12271
245.44302 -177.39853 -0.75917041 12271
250.65518 -177.70367 -0.24139778 12271
254.81711 -177.73651 -0.67815721 12271
259.23132 -177.83142 -0.23223102 12271
260.81958 -177.96025 -0.59830385 12271
265.40869 -178.2041 -0.93755209 12271
271.15146 -178.25664 -0.10476699 12271
276.90524 -178.47652 -0.25989261 12271
281.35425 -178.65794 -0.29100838 12271
283.20795 -178.65898 -0.21408215 12271
318.21222 -179.83476 -0.74721301 12271
-54.469009 -174.37732 -0.63775098 12271
-52.365288 -175.84859 -0.25803217 12271
-50.707897 -174.48103 -0.082125545 12271
145.75233 -174.03072 -0.69831419 12271
147.75406 -174.10393 -0.67123979 12271
149.10638 -174.18744 -0.18150634 12271
151.17882 -174.42174 -0.38082331 12271
157.10927 -174.97437 -0.17773859 12271
158.91391 -175.01939 -0.75576156 12271
165.15742 -175.2115 -0.15500043 12271
169.01787 -175.06226 -0.40808442 12271
171.5092 -174.99951 -0.94375414 12271
173.52332 -174.91481 -0.77305073 12271
175.24672 -174.9735 -0.80858237 12271
177.56595 -175.01491 -0.77212155 12271
179.29015 -175.04207 -0.71143347 12271
183.08453 -175.07629 -0.46371815 12271
185.74635 -175.30362 -0.8591029 12271
191.3011 -175.53917 -0.53383934 12271
193.87331 -175.68896 -0.93128955 12271
195.69159 -175.71921 -0.8294248 12271
197.75951 -175.74985 -0.71331489 12271
199.43272 -175.81816 -0.88960057 12271
203.31329 -175.88573 -0.81480259 12271
205.91737 -175.9492 -0.95356917 12271
207.58524 -175.94298 -0.61833709 12271
209.9175 -176.08804 -0.69537503 12271
212.97205 -176.2571 -0.73015338 12271
219.98772 -176.53769 -0.77669704 12271
221.74208 -176.49202 -0.74485612 12271
223.85057 -176.51106 -0.74625057 12271
227.43536 -176.63582 -0.42443645 12271
231.30078 -176.85477 -0.73780096 12271
233.37817 -176.91653 -0.68463981 12271
-52.88269 -171.47774 -0.58402801 12271
-50.63221 -171.41165 -0.30534768 12271
-46.08247 -171.66475 -0.033172306 12271
-43.707237 -171.98474 -0.2006934 12271
-41.160507 -172.04153 -0.10123146 12271
-38.723591 -171.12447 -0.65723783 12271
-35.577148 -171.00078 -0.56896836 12271
-26.784658 -171.41628 -0.00968487 12271
67.384933 -171.09586 -0.10332514 12271
71.435837 -171.29182 -0.24040575 12271
72.708534 -171.30775 -0.037277527 12271
75.398743 -171.49789 -0.46380636 12271
79.207039 -171.62485 -0.13468465 12271
81.683723 -171.72168 -0.16730396 12271
83.063194 -171.75894 -0.099396236 12271
87.50988 -171.91255 -0.2462932 12271
89.532608 -171.96159 -0.10964058 12271
91.696739 -172.04729 -0.30529639 12271
95.525261 -172.17712 -0.33747506 12271
97.898293 -172.27734 -0.35285088 12271
99.405769 -172.30827 -0.18738313 12271
101.08649 -172.36688 -0.17643519 12271
105.30935 -172.5831 -0.72802812 12271
107.12942 -172.54875 -0.2004751 12271
108.84455 -172.70761 -0.83006346 12271
111.50404 -172.82542 -0.70395827 12271
113.13891 -172.83995 -0.43972895 12271
129.88309 -173.5975 -0.99676752 12271
133.49046 -173.70856 -0.84515917 12271
135.73305 -173.76627 -0.86702144 12271
136.80861 -173.78192 -0.52343744 12271
139.43813 -173.90028 -0.78889447 12271
142.15773 -173.97644 -0.90618348 12271
143.35524 -173.97743 -0.70791864 12271
-54.654087 -170.97816 -0.94945192 12271
-52.606628 -169.93283 -0.93108815 12271
-50.511765 -170.065 -0.62180716 12271
-46.40876 -170.20683 -0.025561379 12271
-45.086956 -170.42896 -0.60893923 12271
-41.401588 -170.65761 -0.86251485 12271
-33.568508 -170.70708 -0.70880365 12271
-24.041378 -170.88045 -0.15469994 12271
-22.195143 -170.007 -0.70890963 12271
-18.353655 -169.21924 -0.47633946 12271
-16.931856 -169.24268 -0.16616894 12271
-15.55719 -168.81641 -0.43741131 12271
-8.8752775 -168.07726 -0.95574629 12271
40.192314 -169.95978 -0.39168638 12271
63.149414 -170.82898 -0.0022491002 12271
240.68332 -204.17632 0.80406624 12271
248.18629 -204.28186 0.76088214 12271
264.00293 -204.424 0.78605086 12271
309.99271 -206.14651 0.19237515 12271
311.59387 -206.21439 0.16341002 12271
314.98935 -206.0356 0.48726532 12271
316.93613 -206.07719 0.16875945 12271
323.23111 -205.03136 0.89375764 12271
325.5018 -205.17145 0.29467094 12271
197.78183 -203.20036 0.89994282 12271
232.01877 -203.97749 0.8525005 12271
327.43201 -203.16199 0.71455449 12271
329.58826 -202.28947 0.1798075 12271
-10.983119 -198.66202 0.43204901 12271
-6.7613611 -198.73413 0.555785 12271
-2.6641531 -198.94621 0.059795413 12271
1.1937388 -199.07315 0.20253575 12271
5.3736281 -199.06541 0.24361148 12271
7.3890162 -199.09106 0.1161181 12271
11.437141 -199.10558 0.94789487 12271
21.212664 -199.10727 0.12728338 12271
38.476608 -199.61188 0.8670035 12271
57.186531 -199.34613 0.61144692 12271
60.648037 -199.20251 0.74432218 12271
65.059677 -199.3562 0.53239048 12271
69.769966 -199.60889 0.65608853 12271
73.792473 -199.80573 0.98668206 12271
82.50116 -200.79263 0.39318734 12271
329.46216 -199.62207 0.23764861 12271
-62.404297 -195.2988 0.48899749 12271
-60.416897 -195.12848 0.82195777 12271
-58.237637 -195.39781 0.86083668 12271
-56.624256 -195.46843 0.87564379 12271
-55.048077 -196.51236 0.348414 12271
-54.512035 -195.55757 0.94849926 12271
-40.465004 -197.49255 0.072383881 12271
-36.402615 -197.65244 0.28596517 12271
-35.151196 -197.65108 0.4536739 12271
-25.507143 -196.63087 0.79469448 12271
-17.908947 -197.81308 0.92456949 12271
327.4043 -195.09705 0.45819205 12271
-68.488083 -194.00397 0.25232542 12271
-67.022331 -192.09723 0.530855 12271
-64.621857 -193.1355 0.70169902 12271
-62.476181 -194.17596 0.80557132 12271
-64.78006 -190.27205 0.42222875 12271
-62.740948 -189.74515 0.57251793 12271
-60.900745 -189.9335 0.8093878 12271
-57.795563 -189.65497 0.93555319 12271
-56.588131 -189.58914 0.99564797 12271
327.43091 -191.14449 0.43044642 12271
-60.834476 -187.21843 0.18213724 12271
-58.018291 -187.21292 0.42006424 12271
-54.973808 -186.92859 0.6352486 12271
-52.879074 -187.30608 0.89341152 12271
-57.934635 -185.09026 0.092133008 12271
-56.629856 -183.13811 0.0088237561 12271
-55.38784 -185.20276 0.36438519 12271
-50.779453 -185.28027 0.80572236 12271
329.5867 -184.32858 0.38491803 12271
-48.525043 -182.93871 0.77514738 12271
-46.919334 -180.48355 0.7640633 12271
319.60434 -180.41487 0.14211504 12271
324.68414 -181.62227 0.69543684 12271
-45.650093 -177.11646 0.6321823 12271
247.98816 -177.60788 0.11154178 12271
287.29785 -178.70694 0.0051754508 12271
299.83252 -178.94952 0.00031815769 12271
303.09787 -179.09631 0.17927934 12271
309.25372 -179.59531 0.15746275 12271
311.09207 -179.72818 0.63805902 12271
313.98511 -179.89528 0.27018362 12271
-46.775246 -174.0621 0.22146702 12271
-44.20097 -174.74477 0.47162414 12271
-42.615471 -176.88925 0.91569418 12271
-40.025227 -175.24144 0.92948681 12271
153.50636 -174.67488 0.24115555 12271
155.26405 -174.82834 0.33103067 12271
158.94974 -175.21921 0.74016398 12271
160.93213 -175.29208 0.43780446 12271
167.11961 -175.2403 0.50427812 12271
-48.487938 -171.88249 0.095407598 12271
-41.979881 -173.92552 0.46587142 12271
-40.019627 -173.11649 0.32846525 12271
-38.129574 -173.76071 0.68207788 12271
-36.73555 -172.45056 0.2526134 12271
-35.242023 -172.50056 0.40878728 12271
-34.044956 -171.71661 0.047351129 12271
-33.872013 -173.38518 0.8606562 12271
-31.982653 -171.8694 0.091166623 12271
-29.373056 -171.714 0.078270115 12271
-22.429417 -171.82326 0.90430528 12271
-21.946066 -171.20975 0.55751514 12271
77.250443 -171.48718 0.16786917 12271
93.161003 -172.00455 0.13968168 12271
-20.178408 -170.94234 0.67621344 12271
-19.186567 -170.18687 0.32294717 12271
-13.093652 -168.46085 0.24491021 12271
-10.493381 -168.44563 0.27751687 12271
-6.4050841 -168.5217 0.42696056 12271
-4.5233397 -168.52838 0.19894873 12271
-2.9800034 -168.44244 0.29148215 12271
2.7946911 -168.79175 0.10835051 12271
5.0512671 -168.8345 0.26076654 12271
7.2973151 -168.79576 0.88676322 12271
19.962528 -169.31227 0.58280897 12271
23.583252 -169.42639 0.72332525 12271
35.880817 -169.77757 0.94740361 12271
41.720493 -169.964 0.16775069 12271
45.360508 -169.99577 0.31404451 12271
49.267464 -169.99815 0.22087196 12271
235.35242 -204.04842 1.1739192 12271
237.12297 -204.15033 1.3364935 12271
239.68593 -204.16885 1.4359707 12271
245.1982 -204.27493 1.8006837 12271
249.18323 -204.32886 1.2091628 12271
251.40694 -204.43436 1.6061226 12271
255.59999 -204.48862 1.1798898 12271
259.77567 -204.45056 1.0355463 12271
279.55112 -204.92014 1.5712976 12271
281.27188 -204.97501 1.5550714 12271
285.01938 -205.15631 1.2703687 12271
313.39914 -205.65199 1.6975847 12271
321.57489 -204.12656 1.8549149 12271
325.40936 -204.08047 1.1675698 12271
95.486511 -201.03168 1.9277867 12271
99.060898 -201.09998 1.7331495 12271
117.30211 -201.35869 1.6487021 12271
119.69338 -201.40465 1.2247189 12271
121.14584 -201.46814 1.8080755 12271
125.03729 -201.52274 1.2458209 12271
127.21021 -201.56575 1.0240548 12271
128.98975 -201.60695 1.4791416 12271
139.50659 -201.87831 1.4210927 12271
151.54169 -202.17929 1.4989511 12271
155.93631 -202.2224 1.2574627 12271
179.57054 -202.82867 1.5941006 12271
183.34967 -202.91508 1.8440317 12271
185.40338 -202.93196 1.33127 12271
187.12463 -202.96855 1.4980669 12271
199.27412 -203.23659 1.5621493 12271
201.53316 -203.28625 1.3783675 12271
203.72446 -203.35069 1.3820447 12271
204.92815 -203.38077 1.1566874 12271
207.65392 -203.46039 1.2772869 12271
209.51152 -203.54836 1.1170193 12271
225.35197 -203.84856 1.4494752 12271
227.43306 -203.90356 1.2274096 12271
229.37335 -203.94514 1.5912445 12271
233.16733 -203.99838 1.284871 12271
323.41174 -203.62091 1.6832865 12271
17.660912 -199.01671 1.9971838 12271
43.672405 -199.73492 1.6813895 12271
48.937668 -199.5898 1.7506881 12271
51.896889 -199.46805 1.8073022 12271
53.634995 -199.46864 1.2526877 12271
54.942554 -199.33499 1.5056949 12271
58.777931 -198.87744 1.9988383 12271
67.512283 -199.09419 1.843475 12271
79.140511 -200.34186 1.8505259 12271
89.500847 -200.85924 1.6008599 12271
93.247597 -200.9521 1.9658968 12271
325.55582 -199.8031 1.6502421 12271
327.54401 -200.16043 1.004683 12271
-44.795086 -195.42056 1.8438157 12271
-42.540459 -196.00952 1.7542892 12271
-40.221855 -196.65276 1.5356153 12271
-38.786442 -196.73793 1.6356858 12271
-36.444263 -196.69662 1.9869589 12271
-28.934853 -196.51225 1.0384728 12271
-16.465014 -197.6357 1.5434855 12271
-12.685802 -197.86472 1.6735677 12271
323.40845 -196.37231 1.8314741 12271
-62.646286 -192.15981 1.0997821 12271
-60.453167 -192.36125 1.358685 12271
-58.255753 -194.21133 1.1975988 12271
-56.601955 -193.34911 1.424284 12271
-54.306961 -189.71758 1.1762085 12271
-46.029018 -187.32095 1.6128637 12271
-43.271015 -186.3945 1.8057507 12271
-48.213249 -185.4509 1.1195199 12271
-46.671837 -183.12794 1.0218697 12271
-45.026947 -184.54759 1.3675054 12271
-43.403244 -183.07985 1.4062444 12271
-42.897621 -184.39659 1.6107713 12271
-41.57933 -185.1842 1.8834652 12271
323.22351 -183.8624 1.8981161 12271
325.43222 -184.88966 1.4163163 12271
-44.833374 -182.11639 1.138507 12271
-43.059448 -181.52715 1.313686 12271
-41.342346 -182.85225 1.6874356 12271
-39.932251 -181.30823 1.7651396 12271
-38.792233 -181.28331 1.9502474 12271
311.0788 -180.04884 1.6239846 12271
313.80084 -180.35109 1.9599259 12271
321.43658 -181.17073 1.0320709 12271
322.44009 -182.47693 1.6512833 12271
-44.147163 -179.7057 1.0221407 12271
-41.549393 -179.93288 1.3853379 12271
-40.13348 -177.72464 1.336239 12271
-39.073933 -179.80103 1.7501174 12271
-38.432777 -178.10187 1.6422092 12271
-37.37146 -177.28085 1.6699711 12271
243.9922 -177.31596 1.4175081 12271
246.72491 -177.5368 1.5462229 12271
257.42517 -177.38087 1.9816668 12271
307.19229 -179.78287 1.9227997 12271
308.91702 -179.96445 1.855441 12271
-38.513062 -175.87129 1.245168 12271
-37.302502 -175.63651 1.3317614 12271
-35.893745 -175.55745 1.4109123 12271
-34.122433 -175.88736 1.6862992 12271
-32.126919 -174.84363 1.4799901 12271
-29.948597 -174.06578 1.3119473 12271
149.56447 -174.15945 1.9331523 12271
150.81108 -174.35451 1.7960345 12271
151.8629 -174.65125 1.9250968 12271
154.48944 -175.02882 1.7147572 12271
156.04663 -175.2942 1.8723837 12271
157.88678 -175.43675 1.7671622 12271
163.74466 -175.47943 1.1006176 12271
165.86092 -175.43147 1.3602663 12271
168.69156 -175.1904 1.5066466 12271
170.53934 -174.95395 1.5198375 12271
173.07803 -174.82809 1.1482733 12271
175.27307 -174.52638 1.8998811 12271
177.53044 -174.42159 1.8957249 12271
181.71246 -174.59465 1.7308879 12271
183.59616 -174.63333 1.8210254 12271
185.68556 -174.8479 1.857633 12271
197.90511 -175.19261 1.9998989 12271
199.78566 -175.26576 1.9266313 12271
-27.689369 -173.74142 1.2934344 12271
-25.719364 -173.84883 1.4734977 12271
-24.157925 -173.13976 1.2662663 12271
-22.678423 -172.68135 1.2797641 12271
-20.867731 -172.7175 1.6054419 12271
-19.258766 -172.18681 1.6345043 12271
-17.523796 -171.21095 1.3519639 12271
119.86273 -172.57664 1.9547075 12271
127.45786 -172.92285 1.9585892 12271
131.86061 -173.20932 1.4504634 12271
137.33632 -173.3532 1.8753669 12271
142.06107 -173.55367 1.4291741 12271
147.25319 -173.93631 1.5094665 12271
-14.499019 -169.66811 1.0189004 12271
-8.1312828 -168.67746 1.4017113 12271
-5.2895184 -169.04698 1.7371516 12271
-2.366117 -169.01761 1.4345715 12271
1.604338 -168.95526 1.5417522 12271
5.1578531 -169.15997 1.9518217 12271
9.1555405 -169.1429 1.7840749 12271
11.544489 -169.12579 1.0301399 12271
13.556555 -169.16864 1.0397586 12271
15.403534 -169.1498 1.7613865 12271
17.49358 -169.31808 1.6082903 12271
21.077478 -169.36252 1.2334604 12271
27.533722 -169.5632 1.1909897 12271
29.64653 -169.57083 1.0473223 12271
31.335258 -169.62874 1.1095463 12271
33.632652 -169.46483 1.0379007 12271
37.716919 -169.82182 1.7275383 12271
42.008598 -170.03697 1.8177706 12271
289.31924 -205.36194 2.1228023 12271
315.24567 -204.68729 2.8406315 12271
319.53387 -204.53645 2.0756681 12271
97.513672 -201.06599 2.073314 12271
100.40427 -201.12242 2.7444773 12271
122.97665 -201.52371 2.2206609 12271
164.77498 -201.99744 2.8549864 12271
210.63853 -203.60539 2.6020145 12271
321.56396 -202.20479 2.5997171 12271
-4.5402641 -198.35629 2.3489544 12271
-0.11967686 -198.65401 2.258276 12271
1.2924204 -198.54057 2.2410114 12271
5.6007438 -198.63661 2.3365529 12271
7.5500174 -198.70358 2.2794497 12271
9.0636339 -198.65172 2.5996408 12271
13.098751 -198.78056 2.3516543 12271
15.215261 -198.86159 2.1641066 12271
19.297531 -198.7674 2.9442976 12271
35.654049 -199.46609 2.4490867 12271
39.492149 -199.57234 2.3088505 12271
41.122375 -199.69487 2.316169 12271
45.376778 -199.81587 2.3710029 12271
55.724743 -198.90739 2.61149 12271
57.463497 -198.56891 2.9666057 12271
62.360081 -198.72482 2.2166178 12271
64.082863 -198.59789 2.5472219 12271
66.33284 -198.43048 2.9270627 12271
69.000214 -198.77997 2.7092609 12271
71.320198 -199.17238 2.4052505 12271
72.911743 -199.28598 2.5639977 12271
76.507133 -199.73123 2.5378592 12271
81.451767 -200.81314 2.0638719 12271
83.272804 -200.90652 2.1892505 12271
323.767 -199.88358 2.2541537 12271
-38.741493 -195.50066 2.4449787 12271
-36.225876 -195.22485 2.6057537 12271
-34.168331 -195.26627 2.5669909 12271
-32.369293 -195.79707 2.4299889 12271
-31.007765 -195.84987 2.2633514 12271
-25.066584 -196.69215 2.9054871 12271
-21.818546 -196.27809 2.9130461 12271
-10.358463 -197.9561 2.0803263 12271
-8.6132679 -197.95622 2.3244014 12271
319.82791 -195.35547 2.6501343 12271
321.34079 -197.62245 2.6051857 12271
-42.68045 -192.83481 2.9289329 12271
-40.333504 -193.715 2.7294822 12271
-38.821445 -192.48007 2.7345929 12271
-36.585712 -193.29329 2.8344729 12271
-34.777668 -193.82281 2.8889453 12271
-30.111814 -194.55183 2.8008211 12271
-27.272118 -194.66832 2.7604136 12271
-43.49614 -189.50882 2.211076 12271
-40.755222 -190.74127 2.5984483 12271
-38.607109 -189.317 2.6796231 12271
-36.655453 -190.63014 2.9541533 12271
-40.774189 -187.48834 2.2566669 12271
-38.308956 -186.57751 2.5247788 12271
-36.71339 -187.94292 2.8747401 12271
-35.412117 -186.76991 2.9941528 12271
321.29822 -186.35384 2.4365985 12271
-39.747936 -184.88986 2.1381972 12271
-37.944836 -184.61908 2.4058402 12271
-36.605404 -184.47435 2.6067619 12271
-34.282085 -184.50516 2.9431612 12271
320.11151 -184.08006 2.5603759 12271
-38.751701 -182.79602 2.1022336 12271
-37.516739 -181.27892 2.157572 12271
-35.476776 -181.30913 2.4690855 12271
-33.247025 -180.90149 2.6901278 12271
-30.904293 -180.10709 2.7826023 12271
311.4306 -180.85938 2.8754478 12271
315.4841 -180.87883 2.2998357 12271
317.27707 -181.23956 2.2243402 12271
319.47183 -182.52628 2.244204 12271
-36.836929 -179.06122 2.0062835 12271
-34.648571 -178.61136 2.2173052 12271
-32.553371 -177.80081 2.2765241 12271
-30.340916 -177.01689 2.2389405 12271
-28.46558 -179.57817 2.8235981 12271
-25.915955 -179.37675 2.8304682 12271
-23.728464 -178.85271 2.8189015 12271
-22.15428 -178.32195 2.8512697 12271
-21.059837 -177.25795 2.7781625 12271
253.11638 -177.57547 2.1258602 12271
255.20042 -177.30827 2.2272007 12271
259.34732 -177.33116 2.1995485 12271
270.035 -177.63165 2.888104 12271
271.68161 -177.98222 2.9769228 12271
274.10693 -177.92903 2.200954 12271
276.96405 -178.07584 2.3782861 12271
279.5347 -178.16887 2.8461063 12271
281.55875 -178.2444 2.3396881 12271
283.36487 -178.28578 2.4707272 12271
285.10983 -178.49043 2.5390835 12271
287.47824 -178.38022 2.3984625 12271
289.73193 -178.66913 2.1728449 12271
291.04538 -178.73857 2.3463132 12271
294.24933 -178.93245 2.0937223 12271
295.92941 -178.96848 2.1546793 12271
299.75931 -179.21291 2.3542433 12271
302.03073 -179.41684 2.1302006 12271
-28.042107 -176.4899 2.2326124 12271
-25.829611 -176.20714 2.2436833 12271
-23.576027 -175.9212 2.3134611 12271
-21.53631 -174.8306 2.2448139 12271
-20.111263 -175.46756 2.5548162 12271
-19.45887 -175.7421 2.7231619 12271
-18.022287 -176.27864 2.9613726 12271
-16.90847 -175.63945 2.9959958 12271
153.23509 -175.04213 2.3417697 12271
160.10942 -176.01517 2.6421373 12271
162.16388 -175.79959 2.0928104 12271
165.32324 -175.78227 2.3296323 12271
169.37431 -175.20514 2.6328719 12271
171.8248 -174.90855 2.8902326 12271
179.27666 -174.57062 2.0350072 12271
189.35066 -174.89314 2.1533461 12271
190.76324 -174.9558 2.188838 12271
193.60249 -175.02446 2.0997539 12271
195.58247 -175.08574 2.1299551 12271
201.38608 -175.25961 2.2827013 12271
203.52684 -175.32404 2.0311553 12271
207.80962 -175.48573 2.0940897 12271
209.84198 -175.41649 2.2429392 12271
212.90521 -175.6338 2.1287889 12271
215.45439 -175.75249 2.8741994 12271
217.19376 -175.97511 2.2264132 12271
220.37511 -175.85831 2.6809056 12271
223.79883 -175.91789 2.2843018 12271
224.09579 -175.75963 2.4720132 12271
229.51718 -176.20007 2.1007626 12271
230.95399 -176.23782 2.4197187 12271
233.31145 -176.37254 2.0244396 12271
235.74493 -176.36897 2.3289797 12271
239.32086 -176.51262 2.4798033 12271
241.2993 -176.76741 2.3430927 12271
-18.541052 -173.9632 2.3962979 12271
-16.157141 -173.83667 2.7193851 12271
-14.633818 -171.82144 2.4818151 12271
69.215233 -171.07629 2.9360762 12271
71.771935 -171.18179 2.8927994 12271
77.331245 -171.38063 2.8085389 12271
79.444366 -171.46318 2.9099874 12271
82.408806 -171.54434 2.2490306 12271
91.78231 -171.82164 2.9330659 12271
93.714684 -171.85278 2.7836397 12271
97.417496 -171.96754 2.9391413 12271
101.05111 -171.89604 2.9908524 12271
105.39485 -172.17079 2.838414 12271
107.13462 -171.98755 2.9900637 12271
109.42013 -172.10139 2.4243295 12271
111.51488 -172.20776 2.4467659 12271
113.26345 -172.49759 2.2029598 12271
117.11755 -172.58682 2.2968047 12271
123.44034 -172.74742 2.0288739 12271
133.47556 -173.13541 2.0907562 12271
143.40602 -173.46635 2.1225219 12271
-12.767818 -170.58226 2.8150778 12271
-11.158157 -169.48306 2.2297754 12271
-4.5379367 -169.60606 2.4689593 12271
7.3145685 -169.22031 2.2026076 12271
13.656042 -169.20035 2.4254787 12271
17.441908 -169.30022 2.5420306 12271
19.21365 -169.25291 2.0659189 12271
25.324362 -169.45447 2.2699368 12271
27.514601 -169.54813 2.5341792 12271
31.197052 -169.70813 2.4471548 12271
35.595192 -169.82898 2.2462211 12271
39.421249 -169.87 2.3499088 12271
45.950737 -170.11546 2.1087394 12271
46.944691 -170.12494 2.1866033 12271
49.388298 -170.00949 2.1676068 12271
57.2411 -170.41264 2.3417606 12271
61.349285 -170.69832 2.2634366 12271
65.03447 -170.86224 2.4681277 12271
67.589355 -170.99028 2.9682865 12271
227.6937 -204.04285 3.9724376 12271
248.90179 -204.07281 3.5169361 12271
252.29025 -204.14864 3.3515563 12271
261.55487 -204.11922 3.804873 12271
284.18912 -204.90205 3.2669833 12271
288.18582 -204.98463 3.6650186 12271
150.27504 -202.15256 3.2273209 12271
167.23419 -201.99881 3.4987354 12271
182.03467 -202.94888 3.8961871 12271
195.88663 -203.23393 3.719115 12271
199.57315 -203.22588 3.9462297 12271
211.51767 -203.64899 3.9795709 12271
313.53943 -203.80223 3.8827336 12271
315.38437 -203.37947 3.6739209 12271
317.56619 -203.51521 3.1939647 12271
3.8569117 -198.06699 3.6416378 12271
7.5391703 -198.10541 3.8509688 12271
9.2351446 -198.11856 3.9469419 12271
11.425424 -198.188 3.9910939 12271
15.27717 -198.34953 3.9144855 12271
23.151028 -198.93237 3.0253806 12271
50.721947 -199.26993 3.2748392 12271
51.860214 -199.13464 3.4342604 12271
53.459007 -198.84369 3.4482369 12271
59.922207 -198.02885 3.5163996 12271
70.475327 -198.42628 3.5589902 12271
72.226601 -198.68748 3.5297313 12271
74.264221 -199.02927 3.3469663 12271
75.647003 -199.00681 3.911257 12271
78.238976 -199.58237 3.9642529 12271
79.495377 -200.40625 3.9406009 12271
91.696526 -200.73795 3.7710958 12271
317.70651 -200.01727 3.7190499 12271
320.0231 -200.10286 3.3275759 12271
-22.229071 -195.29948 3.3678653 12271
-18.199629 -196.04425 3.1470525 12271
-16.534662 -195.56992 3.641485 12271
-14.276251 -196.63913 3.1112523 12271
-12.778787 -196.74927 3.3143852 12271
-6.7899785 -197.1481 3.9005477 12271
-2.5168707 -197.75909 3.4123449 12271
1.4056057 -197.96341 3.4445925 12271
62.665642 -197.95599 3.5847774 12271
64.496651 -197.88719 3.6535101 12271
315.68005 -196.6619 3.8067479 12271
-32.511246 -193.46123 3.0588386 12271
-30.154333 -192.36536 3.3866677 12271
-28.57736 -193.16702 3.3214731 12271
-27.225412 -192.92252 3.4253869 12271
-26.340237 -192.13797 3.5711293 12271
-25.779202 -193.41528 3.4048438 12271
-24.635925 -193.10829 3.4470162 12271
-23.989849 -192.25571 3.6090834 12271
-22.668335 -193.47006 3.6363058 12271
-20.63656 -193.66588 3.6629643 12271
-34.334225 -191.47931 3.1624839 12271
-31.789017 -191.02107 3.4244409 12271
-30.967619 -189.3584 3.5378945 12271
-29.647491 -189.79065 3.5757084 12271
-27.851858 -191.01778 3.5841465 12271
-25.638899 -190.12703 3.6253726 12271
-23.700436 -190.75056 3.6463282 12271
-22.36862 -189.49297 3.6455739 12271
-21.233156 -190.92307 3.6914201 12271
-19.42351 -191.8649 3.8126009 12271
-18.904449 -189.75644 3.7500629 12271
-35.067822 -188.81326 3.144212 12271
-34.241909 -187.13043 3.1767097 12271
-32.962292 -187.77916 3.3289113 12271
-30.934841 -187.37961 3.4704506 12271
-28.629353 -187.01593 3.5312815 12271
-27.556179 -188.67705 3.6082838 12271
-26.545294 -187.02405 3.5517445 12271
-24.789494 -187.21077 3.5519412 12271
-23.356735 -187.35812 3.5421243 12271
-21.453241 -188.15524 3.58567 12271
-19.840847 -186.87317 3.5003316 12271
-17.082905 -187.45871 3.6402004 12271
-14.585669 -186.32822 3.6451888 12271
313.39355 -188.96928 3.875824 12271
315.67706 -186.2894 3.6966202 12271
-31.805857 -184.27444 3.1744695 12271
-29.989916 -185.07742 3.3602748 12271
-27.655497 -184.86098 3.4063396 12271
-25.26334 -185.1292 3.4251919 12271
-23.035706 -183.01804 3.2366369 12271
-21.695934 -185.87016 3.4341199 12271
-20.751495 -184.41547 3.318819 12271
-19.105095 -184.10756 3.3075147 12271
-16.632349 -184.25313 3.3743651 12271
-13.034315 -183.15974 3.4716938 12271
313.724 -183.99794 3.7977259 12271
315.61304 -183.88615 3.4971752 12271
317.61441 -183.93959 3.2600384 12271
-29.177874 -182.51003 3.1680827 12271
-26.536329 -182.40498 3.198153 12271
-21.698961 -180.58098 3.0765693 12271
-20.874126 -182.44334 3.2015865 12271
-19.418854 -180.75769 3.1421046 12271
-17.508669 -181.53827 3.2119634 12271
-16.30208 -180.21332 3.2231934 12271
-15.478119 -182.10242 3.2914577 12271
-12.10745 -180.21857 3.4122829 12271
-9.957037 -181.02754 3.5451548 12271
-6.2122617 -181.18085 3.8061399 12271
305.82407 -180.56334 3.6467147 12271
309.66034 -181.00462 3.309875 12271
310.96994 -182.20021 3.7822738 12271
314.11008 -182.58144 3.3482943 12271
315.66263 -182.32401 3.0063813 12271
-20.404938 -179.38358 3.0403466 12271
-18.446106 -178.45601 3.076381 12271
-16.492775 -178.22714 3.2061706 12271
-15.605452 -178.28128 3.2647412 12271
-14.496075 -179.66809 3.3108726 12271
-12.571445 -177.78226 3.4210954 12271
-10.278411 -179.28374 3.4441252 12271
-8.7482939 -178.99321 3.6173344 12271
-6.337307 -179.16388 3.8748288 12271
243.25571 -177.48325 3.996254 12271
246.25967 -177.85538 3.7029243 12271
249.87463 -177.90826 3.0038726 12271
261.67825 -178.31798 3.5176594 12271
265.9339 -178.43587 3.4040356 12271
267.7648 -177.54922 3.0283022 12271
295.07709 -179.29576 3.8158617 12271
299.27582 -179.5535 3.4654078 12271
302.96039 -179.86656 3.2355928 12271
-14.95423 -176.47437 3.2377899 12271
-12.633682 -175.04233 3.4440429 12271
-10.625156 -175.28394 3.7234058 12271
-8.5591593 -176.66551 3.8614459 12271
148.12485 -174.0809 3.2726099 12271
149.15979 -174.25391 3.4675856 12271
150.20198 -174.66103 3.5651307 12271
151.88126 -175.52644 3.9525445 12271
154.35292 -176.10002 3.8448751 12271
157.39735 -176.36903 3.6176488 12271
161.97948 -176.2695 3.0616546 12271
163.74043 -176.42323 3.1818199 12271
165.52269 -176.20979 3.1906972 12271
167.51056 -175.89954 3.0791497 12271
169.72569 -175.40282 3.6141126 12271
170.55362 -175.0565 3.1043081 12271
173.65927 -174.86383 3.6822164 12271
183.82063 -174.77852 3.6283996 12271
223.72922 -175.80566 3.4448905 12271
-14.235497 -173.81351 3.1098335 12271
-12.603212 -171.85677 3.2987578 12271
-8.8071804 -172.0901 3.6833334 12271
-6.9372931 -171.84691 3.7723665 12271
72.949959 -171.19504 3.0971007 12271
75.275459 -171.295 3.0732205 12271
83.594536 -171.57494 3.0567348 12271
85.023674 -171.63078 3.1233537 12271
87.492294 -171.69893 3.0981085 12271
89.436829 -171.77913 3.1002522 12271
94.928513 -171.93111 3.3797512 12271
103.31807 -172.10039 3.0288196 12271
142.19424 -173.36234 3.6707575 12271
-10.674683 -170.66856 3.0327265 12271
-6.7324376 -170.3304 3.0824952 12271
-4.21666 -170.76213 3.4162552 12271
-2.5812678 -170.3708 3.2635043 12271
-0.44533727 -170.46165 3.4077072 12271
1.5068774 -170.24448 3.53531 12271
3.6825922 -170.76999 3.9501634 12271
5.3347669 -170.36337 3.8931148 12271
7.3087349 -170.37877 3.8940048 12271
9.3396521 -170.43349 3.9877992 12271
11.816658 -170.19168 3.9855604 12271
13.683416 -169.87566 3.9446063 12271
21.689617 -169.95619 3.7954249 12271
23.309647 -170.00244 3.7823043 12271
29.292772 -170.04556 3.7941749 12271
33.416649 -170.08058 3.3944788 12271
39.491398 -170.39165 3.3842647 12271
43.572662 -170.4315 3.2662315 12271
49.395733 -170.61702 3.6781745 12271
53.202221 -170.66418 3.7102802 12271
229.27005 -204.08298 4.4855266 12271
231.40588 -204.05534 4.2612028 12271
235.25414 -204.16805 4.2461872 12271
239.83492 -204.43436 4.324481 12271
241.19992 -204.22899 4.8102236 12271
243.93518 -204.44733 4.3870234 12271
245.55992 -204.45093 4.6244845 12271
254.22798 -204.00896 4.4292822 12271
255.7549 -204.72894 4.141849 12271
