# .PCD v0.7 - Point Cloud Data file format
VERSION 0.7
FIELDS x y z rgba
SIZE 4 4 4 4
TYPE F F F U
COUNT 1 1 1 1
WIDTH 1147
HEIGHT 1
VIEWPOINT 0 0 0 1 0 0 0
POINTS 1147
DATA ascii
613.43658 3266.2466 -238.83217 4294967058
614.11035 3265.1516 -238.81137 4294967058
611.33887 3232.8892 -237.35429 4294967059
612.98163 3238.0837 -237.41209 4294967059
613.22546 3265.7793 -237.1347 4294967059
611.86011 3236.2881 -236.97679 4294967060
629.1236 3239.3616 -236.43695 4294967060
630.97205 3241.8438 -236.78304 4294967060
631.86414 3252.9028 -236.78113 4294967060
631.95068 3257.8892 -236.85641 4294967060
618.4248 3263.0542 -236.95605 4294967060
621.03613 3263.2292 -236.98534 4294967060
623.45184 3263.3601 -236.78331 4294967060
626.40839 3263.3357 -236.8037 4294967060
630.86383 3261.0461 -236.77936 4294967060
615.12909 3264.1387 -236.83562 4294967060
612.47076 3267.7192 -236.67865 4294967060
611.22339 3235.9185 -235.46152 4294967061
612.10083 3237.6655 -235.63528 4294967061
614.86603 3238.312 -235.80348 4294967061
625.7439 3237.4082 -235.8446 4294967061
627.31659 3238.1504 -235.11324 4294967061
616.31073 3263.4155 -235.14127 4294967061
618.54315 3263.1475 -235.00403 4294967061
611.94458 3269.6313 -235.00722 4294967061
610.52136 3233.772 -234.63858 4294967062
612.15881 3238.29 -234.79765 4294967062
615.35455 3238.147 -234.77394 4294967062
628.67627 3239.3711 -234.69931 4294967062
629.57458 3240.3884 -234.88811 4294967062
630.42554 3242.071 -234.60422 4294967062
630.9256 3244.2993 -234.86853 4294967062
631.35693 3253.051 -234.53188 4294967062
626.53149 3263.5205 -234.29805 4294967062
628.29065 3262.8613 -234.52602 4294967062
630.2124 3261.438 -234.81091 4294967062
612.35266 3266.6079 -234.89201 4294967062
613.29669 3265.0764 -234.64592 4294967062
612.01257 3267.7998 -234.94878 4294967062
609.99103 3233.5444 -233.19547 4294967063
611.68304 3238.3164 -233.32646 4294967063
630.70972 3247.6062 -233.12521 4294967063
616.27246 3263.4387 -233.09853 4294967063
628.05566 3262.9473 -233.02258 4294967063
614.62292 3264.0823 -233.05244 4294967063
611.57086 3267.7322 -233.49699 4294967063
609.9646 3230.9934 -232.85995 4294967064
609.94116 3235.0911 -232.8083 4294967064
610.77411 3237.7568 -232.43468 4294967064
628.62695 3240.2188 -232.49698 4294967064
629.65326 3241.9448 -232.42772 4294967064
631.11737 3256.5793 -232.93892 4294967064
619.13129 3263.3433 -232.94205 4294967064
621.5116 3263.4849 -232.82179 4294967064
629.91736 3261.1785 -232.77075 4294967064
611.85675 3266.5352 -232.99677 4294967064
612.94348 3265.0637 -232.96375 4294967064
611.23749 3269.8445 -232.9044 4294967064
609.4353 3228.7729 -231.18825 4294967065
609.26636 3231.1594 -231.12177 4294967065
609.10126 3234.0684 -231.02972 4294967065
610.96973 3238.4712 -231.26732 4294967065
630.35101 3252.7349 -231.05995 4294967065
619.28864 3263.4951 -231.00858 4294967065
610.58612 3269.6965 -231.01027 4294967065
609.45447 3236.1431 -230.59927 4294967066
625.66492 3238.3459 -230.14395 4294967066
629.02374 3242.1453 -230.41655 4294967066
629.72607 3247.0056 -230.26685 4294967066
630.01141 3248.8721 -230.74571 4294967066
630.30103 3259.0547 -230.65712 4294967066
624.73047 3263.7771 -230.90012 4294967066
626.39978 3263.4224 -230.94789 4294967066
629.53424 3261.0513 -230.96725 4294967066
611.13733 3266.6558 -230.93005 4294967066
612.40222 3265.0776 -230.90384 4294967066
610.65948 3267.7598 -230.85126 4294967066
608.78601 3235.9382 -229.22548 4294967067
611.85443 3239.2495 -229.05293 4294967067
614.56879 3263.7744 -229.20598 4294967067
610.52118 3266.5703 -229.10696 4294967067
608.48212 3228.7603 -228.689 4294967068
608.39063 3231.3245 -228.84659 4294967068
609.31714 3237.7856 -228.45906 4294967068
623.91467 3238.0391 -228.40382 4294967068
628.9469 3244.429 -228.52902 4294967068
629.83264 3258.0813 -228.53961 4294967068
624.43695 3263.8569 -228.42564 4294967068
627.67517 3262.6519 -228.86371 4294967068
611.51697 3265.322 -228.84293 4294967068
609.99438 3267.5835 -228.99664 4294967068
607.68964 3233.8926 -227.5118 4294967069
607.98096 3236.1648 -227.16722 4294967069
613.67212 3239.2568 -227.66025 4294967069
617.20203 3238.3318 -227.40573 4294967069
625.66595 3239.2402 -227.04875 4294967069
628.86584 3261.041 -227.64255 4294967069
612.5791 3264.3962 -227.127 4294967069
609.23157 3267.7747 -227.07744 4294967069
607.55493 3229.0591 -226.41301 4294967070
607.54907 3231.4468 -226.82481 4294967070
608.91901 3238.3276 -226.73532 4294967070
610.66907 3239.2026 -226.63454 4294967070
621.90277 3237.7559 -226.60825 4294967070
626.88953 3240.6367 -226.80478 4294967070
627.65466 3242.0149 -226.79205 4294967070
629.04828 3253.0872 -226.87637 4294967070
627.79657 3261.9207 -226.71838 4294967070
609.56317 3266.5962 -226.62813 4294967070
610.76257 3265.2183 -226.75414 4294967070
622.27936 3264.0364 -226.75322 4294967070
608.99896 3269.2383 -226.82678 4294967070
606.96075 3230.6589 -225.09993 4294967071
606.6994 3233.8962 -225.04663 4294967071
607.20422 3236.2566 -225.28925 4294967071
609.22308 3239.0081 -225.00858 4294967071
611.69318 3239.2646 -225.8503 4294967071
625.74518 3240.1243 -225.1488 4294967071
614.49341 3263.8018 -225.17667 4294967071
611.27777 3264.7761 -225.0961 4294967071
612.32928 3264.3516 -225.29611 4294967071
606.84216 3226.9131 -224.60081 4294967072
607.84296 3238.2668 -224.08336 4294967072
614.25354 3239.0286 -224.62054 4294967072
620.1366 3237.95 -224.47423 4294967072
623.72192 3238.6577 -224.82608 4294967072
627.24426 3242.3865 -224.99638 4294967072
627.59436 3244.3284 -224.46809 4294967072
628.50024 3260.1401 -224.66972 4294967072
624.12579 3263.8201 -224.60596 4294967072
608.78351 3266.6492 -224.61203 4294967072
606.17828 3228.7837 -223.21382 4294967073
606.00586 3231.1511 -223.19 4294967073
606.18408 3236.1274 -223.45631 4294967073
609.61597 3239.3381 -223.29938 4294967073
611.64069 3239.6091 -223.29163 4294967073
617.71661 3238.3052 -223.31155 4294967073
623.81226 3239.0771 -223.23395 4294967073
614.61688 3263.9316 -223.25624 4294967073
610.72681 3264.7898 -223.29492 4294967073
612.36493 3264.1519 -223.2267 4294967073
606.04742 3226.8694 -222.88297 4294967074
605.8017 3233.8665 -222.82584 4294967074
607.24377 3238.2251 -222.80676 4294967074
615.06891 3238.7869 -222.88101 4294967074
620.00513 3238.1074 -222.71761 4294967074
622.16516 3238.4929 -222.62755 4294967074
625.39063 3240.6216 -222.6738 4294967074
626.35089 3242.0532 -222.70624 4294967074
628.01886 3259.5295 -222.34282 4294967074
608.22247 3266.5901 -222.95634 4294967074
609.2464 3265.5178 -222.75533 4294967074
617.32819 3264.0957 -222.83435 4294967074
607.09363 3269.2219 -222.66685 4294967074
607.46777 3239.0093 -221.18768 4294967075
613.00293 3239.3223 -221.18724 4294967075
612.47809 3264.2747 -221.41736 4294967075
605.29663 3237.2102 -220.29156 4294967076
617.71606 3238.4272 -220.90213 4294967076
622.08484 3238.804 -220.54066 4294967076
625.69836 3241.9722 -220.86639 4294967076
627.06592 3261.0378 -220.53316 4294967076
608.96747 3265.3889 -220.93753 4294967076
614.9613 3264.1626 -220.91107 4294967076
607.55737 3239.4692 -219.25862 4294967077
610.78796 3239.8008 -219.79916 4294967077
625.38464 3242.3799 -219.30763 4294967077
627.21527 3259.8494 -219.00171 4294967077
605.995 3272.2471 -219.17949 4294967077
607.77374 3292.7075 -219.10149 4294967077
603.9939 3220.9121 -218.99257 4294967078
604.04895 3230.1626 -218.75383 4294967078
605.23016 3238.3208 -218.27185 4294967078
608.13177 3239.5779 -218.98814 4294967078
612.57935 3239.4058 -218.70518 4294967078
615.95001 3238.6211 -218.57974 4294967078
620.31195 3238.6533 -218.03323 4294967078
623.9682 3263.8162 -218.70973 4294967078
615.42163 3264.3206 -218.95644 4294967078
620.52063 3264.6372 -218.649 4294967078
605.68695 3269.5151 -218.83263 4294967078
603.66016 3236.4541 -217.35562 4294967079
610.63031 3239.8171 -217.26045 4294967079
613.01337 3239.269 -217.07286 4294967079
626.35803 3261.0369 -217.49631 4294967079
617.66241 3264.5913 -217.00279 4294967079
604.92035 3271.9243 -217.06369 4294967079
602.47705 3215.0818 -216.61458 4294967080
602.66821 3216.9187 -216.78339 4294967080
602.8681 3233.4158 -216.79086 4294967080
603.93372 3237.4019 -216.92461 4294967080
605.04779 3238.8892 -216.60373 4294967080
607.09381 3239.7837 -216.6779 4294967080
615.65613 3238.7795 -216.86624 4294967080
618.23932 3238.5869 -216.65529 4294967080
621.62665 3239.3293 -216.85979 4294967080
624.01721 3241.8999 -216.43797 4294967080
626.75867 3257.6648 -216.98785 4294967080
624.86218 3263.1758 -216.85733 4294967080
620.71643 3264.7258 -216.63185 4294967080
605.31061 3274.7063 -216.91158 4294967080
605.64026 3276.7546 -216.74384 4294967080
606.32587 3289.8281 -216.56355 4294967080
606.51288 3292.7949 -216.69031 4294967080
606.76904 3296.8777 -216.83603 4294967080
601.3924 3208.8398 -215.00734 4294967081
601.69324 3213.0515 -215.29375 4294967081
601.97107 3220.7913 -215.07596 4294967081
602.26599 3231.4563 -215.59155 4294967081
602.38794 3234.7146 -215.97476 4294967081
610.42841 3239.8127 -215.13234 4294967081
613.7514 3239.2969 -215.01372 4294967081
620.55157 3239.3013 -215.11357 4294967081
608.68939 3240.0798 -215.52321 4294967081
603.89178 3271.9646 -215.20135 4294967081
601.30841 3210.8416 -214.71979 4294967082
601.30524 3214.7751 -214.42328 4294967082
601.82318 3218.6941 -214.98691 4294967082
601.3714 3232.7783 -214.17201 4294967082
602.10345 3237.0552 -214.17622 4294967082
604.45471 3239.1077 -214.86386 4294967082
615.0061 3239.0808 -214.02106 4294967082
618.01349 3238.8669 -214.58548 4294967082
622.27972 3240.4675 -214.55716 4294967082
625.71173 3256.4048 -214.78226 4294967082
626.17712 3259.7058 -214.8058 4294967082
624.59296 3263.2239 -214.88014 4294967082
617.49902 3264.813 -214.49617 4294967082
620.52966 3264.7998 -214.627 4294967082
622.55176 3264.4041 -214.64857 4294967082
604.22961 3274.6743 -214.99496 4294967082
604.97064 3279.1331 -214.94965 4294967082
605.26672 3289.9175 -214.71527 4294967082
605.4165 3292.9448 -214.84421 4294967082
605.55475 3294.9827 -214.92488 4294967082
600.73804 3231.1458 -213.06935 4294967083
601.15881 3236.3867 -213.15926 4294967083
603.78583 3239.1484 -213.36899 4294967083
607.17157 3239.9954 -213.84328 4294967083
608.9679 3239.9058 -213.18878 4294967083
611.88123 3239.373 -213.83214 4294967083
623.72223 3246.0056 -213.08461 4294967083
602.44739 3271.7522 -213.14417 4294967083
603.10803 3274.3054 -213.31659 4294967083
600.43085 3214.8643 -212.87941 4294967084
600.56311 3217.8193 -212.84268 4294967084
600.3974 3234.2776 -212.67902 4294967084
601.89716 3238.3545 -212.26546 4294967084
604.94421 3239.6104 -212.98697 4294967084
615.76099 3239.0239 -212.37567 4294967084
618.55261 3239.2029 -212.63942 4294967084
621.26892 3240.519 -212.62932 4294967084
623.96088 3252.8718 -212.6461 4294967084
624.45789 3254.8745 -212.58458 4294967084
625.21753 3257.9636 -212.4711 4294967084
625.2475 3261.6199 -212.89943 4294967084
615.71838 3264.9309 -212.65184 4294967084
618.39337 3264.9863 -212.82076 4294967084
621.48718 3264.439 -212.36313 4294967084
622.44849 3264.1636 -212.34024 4294967084
602.45166 3269.7139 -212.98586 4294967084
603.07471 3268.3157 -212.82098 4294967084
603.0752 3276.9409 -212.48239 4294967084
604.0733 3290.748 -212.84746 4294967084
599.50623 3229.7783 -211.13718 4294967085
599.63416 3235.7412 -211.01146 4294967085
609.59473 3239.3936 -211.04285 4294967085
622.47046 3242.4985 -211.76237 4294967085
624.58862 3257.824 -211.02403 4294967085
624.7627 3260.3628 -211.12366 4294967085
609.19116 3265.0581 -211.23796 4294967085
611.52271 3265.0022 -211.05928 4294967085
600.95612 3271.1816 -211.19711 4294967085
599.07983 3233.3574 -210.62939 4294967086
600.18402 3237.1482 -210.70572 4294967086
601.7157 3238.8003 -210.80005 4294967086
603.25745 3239.4973 -210.87456 4294967086
613.32245 3239.1521 -210.70175 4294967086
616.82605 3239.1758 -210.62982 4294967086
618.32727 3239.5593 -210.61304 4294967086
622.90802 3250.4658 -210.81554 4294967086
623.07233 3252.8669 -210.68425 4294967086
623.75348 3255.3049 -210.75755 4294967086
623.38287 3263.3428 -210.52811 4294967086
624.46326 3261.677 -210.93518 4294967086
606.21527 3265.6724 -210.97192 4294967086
613.59912 3265.0872 -210.94109 4294967086
618.40704 3265.1829 -210.62753 4294967086
620.80164 3264.6316 -210.35085 4294967086
601.58716 3268.6064 -210.81747 4294967086
601.16412 3274.123 -210.85165 4294967086
601.78314 3276.7715 -210.89224 4294967086
602.04388 3278.9629 -210.73567 4294967086
602.48553 3295.7998 -210.71704 4294967086
597.89172 3231.9722 -209.03787 4294967087
603.52557 3239.5786 -209.27534 4294967087
604.29907 3239.6611 -209.0889 4294967087
607.42493 3239.533 -209.79826 4294967087
619.97644 3241.0129 -209.02391 4294967087
604.97888 3265.9167 -209.13007 4294967087
606.79321 3265.4021 -209.34534 4294967087
609.44861 3265.1948 -209.3385 4294967087
599.16663 3271.5923 -209.12144 4294967087
599.61682 3273.9634 -209.21085 4294967087
600.63739 3280.9868 -209.04286 4294967087
609.41986 3239.1504 -208.75116 4294967088
613.90082 3239.0396 -208.84972 4294967088
617.46655 3239.6589 -208.63829 4294967088
621.54108 3243.9863 -208.52608 4294967088
621.83789 3247.5713 -208.56549 4294967088
621.94525 3250.8228 -208.77393 4294967088
622.59753 3254.8203 -208.53055 4294967088
623.63995 3259.302 -208.53424 4294967088
602.84155 3266.8401 -208.9649 4294967088
611.40594 3265.3059 -208.59645 4294967088
613.27118 3265.2891 -208.72377 4294967088
616.38019 3265.3906 -208.78427 4294967088
618.7356 3265.1177 -208.73679 4294967088
620.69781 3264.5959 -208.50723 4294967088
599.29895 3269.7695 -208.89067 4294967088
600.401 3278.6514 -208.97498 4294967088
600.73383 3292.9316 -208.87222 4294967088
596.43939 3235.7642 -207.04169 4294967089
611.69891 3239.0837 -207.0509 4294967089
623.12457 3262.0581 -207.17665 4294967089
601.14624 3266.9858 -207.20244 4294967089
602.62073 3266.5237 -207.28291 4294967089
607.31989 3265.4407 -207.22552 4294967089
611.6413 3265.4646 -207.04633 4294967089
597.73547 3269.9099 -207.15858 4294967089
597.44098 3273.9119 -207.17815 4294967089
598.78192 3278.8728 -207.42081 4294967089
599.13074 3296.7732 -207.16795 4294967089
603.95496 3239.636 -206.80858 4294967090
609.80133 3239.2214 -206.96608 4294967090
614.2514 3239.1587 -206.28601 4294967090
615.5047 3239.4504 -206.1893 4294967090
619.95923 3242.2278 -206.8143 4294967090
621.02112 3248.7041 -206.70088 4294967090
621.24689 3252.709 -206.69833 4294967090
621.74658 3255.1611 -206.44852 4294967090
622.62689 3257.8635 -206.68645 4294967090
623.12506 3260.8088 -206.99387 4294967090
622.51953 3262.1174 -206.00558 4294967090
608.9325 3265.4758 -206.71642 4294967090
613.77612 3265.5022 -206.9675 4294967090
616.57184 3265.6155 -206.30185 4294967090
618.68652 3265.1221 -206.37541 4294967090
620.45752 3264.6121 -206.62572 4294967090
599.42853 3267.7634 -206.76828 4294967090
598.87878 3292.8311 -206.98247 4294967090
608.05304 3239.3467 -205.45384 4294967091
620.32843 3250.6819 -205.02539 4294967091
620.52362 3252.906 -205.1089 4294967091
621.83435 3257.7722 -205.08012 4294967091
602.78644 3266.1941 -205.52373 4294967091
597.08826 3268.5396 -205.0518 4294967091
595.11115 3271.3682 -205.01222 4294967091
605.79083 3239.666 -204.80864 4294967092
609.7464 3239.2395 -204.63223 4294967092
614.48383 3239.5317 -204.64958 4294967092
620.24524 3247.6641 -204.72034 4294967092
622.07825 3261.9187 -204.92505 4294967092
604.65594 3265.8826 -204.93277 4294967092
607.32104 3265.7576 -204.62735 4294967092
611.66541 3265.7319 -204.57794 4294967092
616.57874 3265.5415 -204.58276 4294967092
618.51343 3265.0544 -204.69952 4294967092
612.20953 3239.4141 -203.09024 4294967093
616.81921 3240.7297 -203.33575 4294967093
620.40271 3263.9216 -203.62628 4294967093
621.55792 3261.5571 -203.69308 4294967093
600.70947 3266.5671 -203.52097 4294967093
605.43158 3265.9521 -203.21008 4294967093
597.32581 3267.7756 -203.02029 4294967093
598.94263 3267.1777 -203.60625 4294967093
593.19263 3271.4236 -203.2318 4294967093
609.8349 3239.4778 -202.69469 4294967094
613.91608 3239.7971 -202.11279 4294967094
619.22162 3250.7561 -202.49879 4294967094
619.37524 3252.7302 -202.69658 4294967094
620.54089 3257.7883 -202.48749 4294967094
620.95355 3262.1372 -202.66818 4294967094
609.83063 3265.9185 -202.957 4294967094
611.73352 3266.0356 -202.53438 4294967094
614.36139 3266.0974 -202.36674 4294967094
616.047 3265.6804 -202.17422 4294967094
618.0838 3264.978 -202.55235 4294967094
595.18921 3268.7678 -202.97495 4294967094
593.26031 3270.2441 -202.60614 4294967094
601.80432 3240.481 -201.41641 4294967095
605.47778 3266.1409 -201.25685 4294967095
619.01727 3264.0054 -201.12558 4294967095
595.1424 3268.1733 -201.33247 4294967095
591.16577 3272.2808 -201.63556 4294967095
610.23212 3239.7776 -200.52284 4294967096
620.20929 3260.8586 -200.37657 4294967096
601.1579 3266.5637 -200.96838 4294967096
603.08862 3266.342 -200.73259 4294967096
609.22681 3266.1448 -200.89043 4294967096
612.11646 3266.304 -200.60056 4294967096
616.28699 3265.436 -200.28932 4294967096
617.49054 3264.9021 -200.53062 4294967096
598.57617 3267.0183 -200.80394 4294967096
591.48401 3270.3618 -200.92186 4294967096
589.08685 3273.637 -200.20718 4294967096
591.28229 3240.2639 -199.00343 4294967097
596.83649 3240.7451 -199.84076 4294967097
607.02344 3266.3716 -199.00845 4294967097
590.41241 3269.8503 -199.73099 4294967097
593.28308 3268.4758 -199.47621 4294967097
594.59857 3268.1199 -199.4072 4294967097
596.91815 3267.4302 -199.32291 4294967097
588.93646 3271.7954 -199.82739 4294967097
610.59332 3239.9658 -198.34523 4294967098
613.79834 3240.4561 -198.79243 4294967098
615.89154 3241.7878 -198.71481 4294967098
618.17871 3257.3186 -198.34564 4294967098
619.03912 3260.1006 -198.37624 4294967098
618.48334 3263.1765 -198.97392 4294967098
601.34271 3266.781 -198.81364 4294967098
603.22144 3266.5283 -198.94652 4294967098
609.61792 3266.4287 -198.59825 4294967098
612.61774 3266.2573 -198.22177 4294967098
614.41486 3266.0361 -198.31761 4294967098
615.82178 3265.3953 -198.73021 4294967098
617.37006 3264.5698 -198.99811 4294967098
595.18073 3267.8818 -198.00945 4294967098
599.41016 3267.0371 -198.99184 4294967098
587.2691 3271.4734 -198.10463 4294967098
586.72809 3273.8616 -198.20863 4294967098
590.91187 3241.0776 -197.36266 4294967099
605.42096 3240.4211 -197.02966 4294967099
605.57019 3266.6294 -197.32784 4294967099
607.58405 3266.5986 -197.05754 4294967099
589.32281 3268.9546 -197.24861 4294967099
592.65088 3268.2739 -197.83334 4294967099
599.45227 3267.3469 -197.21178 4294967099
587.62201 3270.5652 -197.84129 4294967099
587.32916 3240.8931 -196.57414 4294967100
599.48389 3240.6189 -196.85132 4294967100
610.71436 3240.2163 -196.3131 4294967100
611.88416 3240.3911 -196.52773 4294967100
615.97711 3243.698 -196.39137 4294967100
616.44537 3245.8057 -196.40382 4294967100
617.87012 3259.8552 -196.54219 4294967100
617.60168 3262.0657 -196.54289 4294967100
603.25787 3266.8987 -196.82661 4294967100
610.22693 3266.6128 -196.94022 4294967100
612.93335 3266.2046 -196.3643 4294967100
616.19135 3264.717 -196.85753 4294967100
587.38318 3269.4092 -196.39572 4294967100
591.4837 3268.1279 -196.14877 4294967100
584.86737 3273.6123 -196.62054 4294967100
584.63721 3240.0212 -195.70576 4294967101
616.30823 3263.4341 -195.14708 4294967101
589.08539 3268.1975 -195.05698 4294967101
594.47308 3267.835 -195.45943 4294967101
585.03894 3270.6812 -195.73149 4294967101
582.93304 3273.1875 -195.03181 4294967101
583.11053 3240.1572 -194.56657 4294967102
587.17657 3242.1782 -194.98604 4294967102
610.85797 3240.5879 -194.32509 4294967102
614.03638 3241.8342 -194.91873 4294967102
615.54205 3245.7681 -194.62518 4294967102
616.15839 3257.0222 -194.59169 4294967102
616.6817 3259.7068 -194.57793 4294967102
616.42883 3262.2014 -194.54414 4294967102
607.74133 3266.9775 -194.71454 4294967102
613.69263 3265.9512 -194.6418 4294967102
614.61371 3265.2476 -194.96597 4294967102
587.17017 3268.6165 -194.9807 4294967102
597.64008 3267.9521 -194.81683 4294967102
601.73041 3267.5103 -194.79266 4294967102
583.44879 3271.6438 -194.95789 4294967102
587.48914 3242.8765 -193.56815 4294967103
591.31543 3242.5786 -193.28581 4294967103
608.14111 3240.155 -193.87503 4294967103
588.43091 3243.0405 -193.08661 4294967103
583.32404 3269.3074 -193.12869 4294967103
587.14807 3268.2163 -193.35773 4294967103
588.83569 3267.7791 -193.54709 4294967103
591.33185 3267.6768 -193.41296 4294967103
593.12134 3267.801 -193.18454 4294967103
605.74719 3267.2622 -193.58386 4294967103
581.04303 3272.9514 -193.61676 4294967103
581.71906 3241.6685 -192.69849 4294967104
583.38562 3242.5186 -192.40054 4294967104
585.31744 3242.9192 -192.62239 4294967104
598.49719 3240.762 -192.89447 4294967104
607.99866 3240.1648 -192.24515 4294967104
610.87701 3240.863 -192.63728 4294967104
612.37817 3241.6045 -192.70363 4294967104
613.79846 3243.7495 -192.38512 4294967104
614.52484 3245.7678 -192.5741 4294967104
615.46014 3259.8213 -192.60707 4294967104
615.14746 3262.8062 -192.67331 4294967104
610.50958 3266.8574 -192.1115 4294967104
612.13586 3266.1858 -192.78302 4294967104
581.47717 3269.9707 -192.64841 4294967104
597.34528 3268.0806 -192.95697 4294967104
599.29474 3268.012 -192.86545 4294967104
601.55579 3267.8042 -192.97014 4294967104
603.57703 3267.6541 -192.64781 4294967104
608.22723 3267.3 -192.31496 4294967104
578.89093 3273.0386 -192.21375 4294967104
579.41046 3240.2129 -191.97197 4294967105
581.74493 3242.6721 -191.2766 4294967105
591.31812 3242.7898 -191.1321 4294967105
611.88055 3241.9541 -191.25233 4294967105
584.98755 3243.2986 -191.3508 4294967105
586.92883 3243.5281 -191.31616 4294967105
613.86981 3263.7161 -191.15118 4294967105
614.4389 3262.2163 -191.05005 4294967105
612.81763 3265.1982 -191.00464 4294967105
583.03064 3268.7234 -191.23695 4294967105
585.78479 3268.1592 -191.86823 4294967105
595.26294 3267.9255 -191.12302 4294967105
579.38684 3270.1626 -191.41754 4294967105
577.29034 3240.1985 -190.64014 4294967106
610.24823 3240.9731 -190.26599 4294967106
612.89612 3243.7617 -190.67708 4294967106
613.422 3245.991 -190.26332 4294967106
610.479 3266.6292 -190.51706 4294967106
591.2879 3267.5959 -190.82762 4294967106
597.42316 3268.0835 -190.86288 4294967106
599.60364 3268.124 -190.98488 4294967106
601.37994 3268.1057 -190.61746 4294967106
603.94061 3267.8948 -190.98917 4294967106
577.13599 3272.6494 -190.9828 4294967106
577.2334 3241.5391 -189.94556 4294967107
579.36609 3243.2654 -189.10416 4294967107
581.32001 3243.4639 -189.34567 4294967107
582.81824 3243.5759 -189.61499 4294967107
585.10516 3243.6865 -189.74582 4294967107
589.29468 3243.3679 -189.34085 4294967107
577.2262 3269.7605 -189.18349 4294967107
578.9743 3269.2415 -189.25095 4294967107
581.05212 3268.8071 -189.69217 4294967107
583.38995 3268.3323 -189.91412 4294967107
587.02454 3267.6895 -189.55463 4294967107
599.53137 3268.1245 -189.00864 4294967107
605.30316 3268.0176 -189.80197 4294967107
574.98541 3271.5925 -189.20631 4294967107
575.13867 3273.0613 -189.49997 4294967107
574.07458 3241.2051 -188.33438 4294967108
591.66412 3242.9172 -188.71283 4294967108
601.89044 3240.2483 -188.4767 4294967108
606.54907 3240.3062 -188.19928 4294967108
608.15295 3240.7361 -188.56944 4294967108
611.88312 3243.8875 -188.65994 4294967108
612.22272 3245.5115 -188.40762 4294967108
609.77167 3266.7454 -188.74797 4294967108
595.26703 3267.8203 -188.6347 4294967108
601.53632 3268.2029 -188.65804 4294967108
608.04218 3267.3723 -188.17995 4294967108
573.30701 3272.2029 -188.32562 4294967108
575.62915 3270.3789 -188.8196 4294967108
575.61078 3243.2168 -187.52493 4294967109
577.30963 3243.897 -187.14432 4294967109
579.53387 3244.0457 -187.38423 4294967109
583.18213 3243.9165 -187.6301 4294967109
584.93829 3243.8743 -187.14716 4294967109
587.40338 3243.6531 -187.50368 4294967109
611.25494 3265.1157 -187.39594 4294967109
575.38605 3269.5396 -187.27592 4294967109
577.13324 3269.2397 -187.63686 4294967109
580.56628 3268.6333 -187.67181 4294967109
583.14465 3268.2205 -187.25584 4294967109
584.96411 3268.0081 -187.6086 4294967109
597.84454 3267.9768 -187.16037 4294967109
603.45734 3268.3037 -187.83278 4294967109
570.71954 3272.7007 -187.28494 4294967109
573.27948 3270.3943 -187.30692 4294967109
592.0976 3242.8579 -186.85655 4294967110
597.72015 3241.3616 -186.98251 4294967110
599.38605 3241.0078 -186.09677 4294967110
604.15222 3240.4509 -186.43237 4294967110
608.01025 3241.1421 -186.68297 4294967110
573.21558 3243.002 -186.78537 4294967110
589.52783 3243.3057 -186.87494 4294967110
610.69293 3243.6091 -186.69601 4294967110
609.18964 3266.4089 -186.43959 4294967110
576.71545 3269.0537 -186.00969 4294967110
578.84454 3268.6318 -186.1546 4294967110
591.74359 3267.7131 -186.98236 4294967110
595.35583 3267.8042 -186.74564 4294967110
599.61005 3268.0745 -186.80441 4294967110
602.00122 3268.2053 -186.45264 4294967110
604.24091 3268.0759 -186.27829 4294967110
605.86127 3267.8196 -186.35155 4294967110
607.38428 3267.3774 -186.43103 4294967110
570.97577 3271.6941 -186.89244 4294967110
571.74023 3270.5757 -186.50275 4294967110
569.16302 3274.4688 -186.48897 4294967110
571.3913 3243.5061 -185.5246 4294967111
578.3454 3244.2859 -185.60339 4294967111
581.24854 3244.324 -185.60291 4294967111
583.58221 3244.0654 -185.95995 4294967111
589.60358 3243.2395 -185.04378 4294967111
571.49097 3269.9338 -185.41354 4294967111
573.00586 3269.592 -185.61363 4294967111
581.08252 3268.4595 -185.75404 4294967111
583.3114 3268.353 -185.187 4294967111
569.17499 3270.7559 -185.16849 4294967111
566.11292 3241.9346 -184.35854 4294967112
596.0307 3241.9636 -184.80426 4294967112
600.11627 3240.9824 -184.46167 4294967112
603.94818 3240.7566 -184.32628 4294967112
605.7326 3241.1694 -184.3129 4294967112
567.10278 3243.1084 -184.0787 4294967112
573.70557 3244.592 -184.16324 4294967112
577.68152 3244.6211 -184.07452 4294967112
585.26093 3243.7986 -184.87004 4294967112
587.39716 3243.5181 -184.91676 4294967112
609.98218 3263.5974 -184.65724 4294967112
607.62891 3266.7739 -184.88286 4294967112
574.67719 3269.1333 -184.45694 4294967112
595.50195 3267.8696 -184.82407 4294967112
597.33636 3267.9294 -184.73029 4294967112
599.61011 3268.1096 -184.51422 4294967112
602.40375 3268.1257 -184.22893 4294967112
605.84698 3267.5027 -184.36137 4294967112
565.20905 3273.5571 -184.5818 4294967112
569.87201 3244.7302 -183.16913 4294967113
575.09729 3244.6853 -183.7151 4294967113
579.03394 3244.5906 -183.85609 4294967113
583.61945 3243.9265 -183.0825 4294967113
569.11835 3269.9172 -183.42728 4294967113
570.75476 3269.6125 -183.58954 4294967113
572.90918 3269.2939 -183.95512 4294967113
576.76318 3268.8818 -183.63509 4294967113
581.5011 3268.6619 -183.35239 4294967113
606.17633 3267.0193 -183.5063 4294967113
567.37714 3270.7126 -183.89409 4294967113
591.20117 3242.9082 -182.8532 4294967114
593.08331 3242.5813 -182.70518 4294967114
596.18268 3241.9514 -182.75717 4294967114
597.94727 3241.655 -182.34447 4294967114
600.84711 3241.3909 -182.17639 4294967114
603.94678 3241.4082 -182.58855 4294967114
565.68445 3244.3376 -182.40195 4294967114
567.29688 3244.4028 -182.95813 4294967114
569.66479 3245.0752 -182.14024 4294967114
581.63446 3244.1514 -182.83723 4294967114
589.43774 3243.1758 -182.78012 4294967114
608.29095 3263.8345 -182.53333 4294967114
607.18665 3265.6958 -182.69437 4294967114
579.04108 3268.8638 -182.83562 4294967114
585.28021 3268.3748 -182.89911 4294967114
591.58563 3268.0481 -182.59019 4294967114
593.67499 3268.0029 -182.78796 4294967114
595.85596 3268.0051 -182.9601 4294967114
597.72406 3268.1382 -182.34996 4294967114
602.38837 3267.8535 -182.15306 4294967114
604.1955 3267.5176 -182.5264 4294967114
561.42108 3272.583 -182.41576 4294967114
559.05206 3275.3757 -182.6299 4294967114
561.34454 3273.793 -182.9252 4294967114
603.55084 3242.1892 -181.19699 4294967115
563.33209 3244.6343 -181.24283 4294967115
566.95154 3245.0579 -181.58192 4294967115
572.42664 3245.3083 -181.10278 4294967115
578.67181 3244.5449 -181.06665 4294967115
581.6521 3244.1436 -181.06905 4294967115
585.97375 3243.6118 -181.07695 4294967115
604.85425 3266.6001 -181.20343 4294967115
566.95819 3269.9326 -181.72014 4294967115
570.62952 3269.2395 -181.89241 4294967115
572.93756 3269.125 -181.76216 4294967115
583.50269 3268.6182 -181.01268 4294967115
587.59912 3268.3037 -181.13399 4294967115
600.38263 3268.1968 -181.91472 4294967115
559.64526 3272.2319 -181.56499 4294967115
561.23688 3271.4263 -181.18384 4294967115
563.65704 3271.0583 -181.82196 4294967115
555.396 3275.6138 -181.33095 4294967115
557.39044 3273.8892 -181.53583 4294967115
555.21777 3278.0417 -181.26892 4294967115
593.54181 3242.4954 -180.71475 4294967116
555.95636 3243.657 -180.22455 4294967116
559.15674 3243.6777 -180.86028 4294967116
569.63068 3245.5903 -180.0244 4294967116
583.12323 3243.9744 -180.69119 4294967116
587.77258 3243.3572 -180.67055 4294967116
606.84167 3263.8691 -180.87209 4294967116
605.67804 3265.3694 -180.77301 4294967116
606.20599 3264.1865 -180.28391 4294967116
567.40417 3269.6294 -180.10822 4294967116
575.35242 3269.1846 -180.86768 4294967116
581.38489 3268.8086 -180.83035 4294967116
585.66132 3268.4419 -180.96182 4294967116
593.66699 3268.2056 -180.64597 4294967116
595.85114 3268.3035 -180.36255 4294967116
598.01294 3268.1177 -180.15776 4294967116
602.16046 3267.4463 -180.18126 4294967116
555.41827 3272.6118 -180.26089 4294967116
557.46814 3272.4373 -180.7659 4294967116
563.46307 3270.5356 -180.09729 4294967116
564.9635 3270.373 -180.83076 4294967116
551.62982 3275.5352 -180.25458 4294967116
553.02185 3274.8843 -180.7112 4294967116
555.10522 3273.7852 -180.85306 4294967116
551.10254 3278.6677 -180.22121 4294967116
553.41113 3277.9568 -180.82692 4294967116
551.13342 3280.8469 -180.04294 4294967116
553.94629 3280.7502 -180.67606 4294967116
550.44922 3242.0078 -179.19148 4294967117
598.10986 3241.8789 -179.62025 4294967117
600.15997 3242.0271 -179.95476 4294967117
550.97589 3244.1563 -179.03085 4294967117
557.31458 3245.4583 -179.23996 4294967117
561.44995 3245.7385 -179.15312 4294967117
563.46625 3245.7446 -179.08737 4294967117
565.23145 3245.5488 -179.78461 4294967117
566.69092 3245.6206 -179.62286 4294967117
573.01392 3245.2886 -179.66074 4294967117
575.66675 3244.8828 -179.09138 4294967117
583.49426 3243.8833 -179.00064 4294967117
604.14655 3244.0076 -179.43422 4294967117
569.3559 3269.4387 -179.43588 4294967117
571.07452 3269.397 -179.09946 4294967117
579.70795 3268.9963 -179.03311 4294967117
583.7049 3268.6599 -179.06963 4294967117
553.59973 3272.4124 -179.41052 4294967117
557.55945 3271.345 -179.22032 4294967117
561.14716 3270.791 -179.4751 4294967117
547.25568 3275.5278 -179.26573 4294967117
549.2912 3275.8225 -179.74994 4294967117
550.04346 3274.1362 -179.46675 4294967117
551.40088 3273.8323 -179.70978 4294967117
547.10114 3277.8433 -179.53531 4294967117
549.13104 3278.0464 -179.88998 4294967117
547.28448 3280.7656 -179.24077 4294967117
549.57867 3280.5332 -179.78209 4294967117
547.133 3242.2524 -178.44804 4294967118
593.66553 3242.4546 -178.52585 4294967118
596.22101 3242.1907 -178.00314 4294967118
599.82574 3242.4971 -178.32651 4294967118
551.73157 3245.0442 -178.79683 4294967118
552.922 3245.7341 -178.55803 4294967118
578.74158 3244.5122 -178.42828 4294967118
601.50958 3243.0286 -178.38911 4294967118
602.86353 3266.4253 -178.87958 4294967118
603.98639 3265.2424 -178.66031 4294967118
581.73242 3268.8245 -178.98027 4294967118
587.23596 3268.4458 -178.78912 4294967118
591.19928 3268.342 -178.74367 4294967118
593.98212 3268.4778 -178.31404 4294967118
599.71228 3267.8152 -178.48311 4294967118
551.49261 3272.7192 -178.95078 4294967118
541.93408 3274.7336 -178.07446 4294967118
543.4552 3275.9773 -178.74358 4294967118
545.03973 3275.5139 -178.91188 4294967118
547.21503 3274.1062 -178.71629 4294967118
549.66925 3273.0032 -178.65247 4294967118
536.99829 3277.4819 -178.12479 4294967118
538.9317 3277.6572 -178.36963 4294967118
541.07648 3277.7334 -178.6642 4294967118
543.59875 3277.7781 -178.93752 4294967118
545.24091 3280.7734 -178.88751 4294967118
539.7149 3241.9771 -177.03275 4294967119
541.62506 3241.9915 -177.15002 4294967119
545.30676 3242.0774 -177.7988 4294967119
543.48944 3243.7229 -177.19101 4294967119
545.29388 3243.8167 -177.52937 4294967119
547.48083 3245.584 -177.00237 4294967119
549.31366 3245.8887 -177.22121 4294967119
569.63745 3245.582 -177.11183 4294967119
583.70721 3243.8059 -177.05432 4294967119
588.93066 3243.1506 -177.71132 4294967119
553.1684 3246.6853 -177.36435 4294967119
556.87726 3246.5146 -177.48764 4294967119
559.38037 3246.22 -177.89032 4294967119
562.69214 3246.2854 -177.96133 4294967119
603.19586 3263.906 -177.33435 4294967119
601.17255 3266.562 -177.16386 4294967119
564.89368 3269.9546 -177.53116 4294967119
583.54462 3268.7412 -177.01578 4294967119
545.75653 3272.9258 -177.43573 4294967119
549.15271 3272.0166 -177.14807 4294967119
551.66223 3271.6675 -177.34663 4294967119
553.31836 3271.3726 -177.28383 4294967119
555.44202 3271.2043 -177.86104 4294967119
556.82977 3270.9609 -177.79898 4294967119
535.00214 3275.7732 -177.37733 4294967119
539.58752 3274.1389 -177.19484 4294967119
517.14612 3277.6082 -177.05605 4294967119
519.41498 3277.6587 -177.12009 4294967119
521.26416 3277.5647 -177.06981 4294967119
523.44501 3277.9102 -177.1284 4294967119
525.74573 3277.8828 -177.14429 4294967119
533.36072 3277.7239 -177.6561 4294967119
535.591 3277.5176 -177.89531 4294967119
493.3887 3281.9082 -177.07451 4294967119
495.27396 3281.8484 -177.08122 4294967119
505.47192 3279.0686 -177.04222 4294967119
507.11884 3279.1829 -177.1041 4294967119
509.32675 3279.5713 -177.17444 4294967119
511.35181 3279.6528 -177.20773 4294967119
513.04926 3279.9807 -177.34776 4294967119
517.32629 3279.7288 -177.50908 4294967119
521.10748 3279.6763 -177.44234 4294967119
523.51575 3279.8743 -177.56343 4294967119
532.96674 3280.2607 -177.75018 4294967119
496.95831 3282.323 -177.06966 4294967119
591.80865 3242.6936 -176.38705 4294967120
596.30865 3242.6482 -176.08716 4294967120
597.99994 3242.6611 -176.34196 4294967120
517.45117 3244.8682 -176.04813 4294967120
523.47699 3243.825 -176.31627 4294967120
527.13403 3243.8218 -176.3743 4294967120
533.65674 3244.791 -176.42256 4294967120
537.58215 3244.0305 -176.69739 4294967120
539.64142 3245.3245 -176.3382 4294967120
541.33502 3244.4204 -176.60493 4294967120
545.45374 3245.2654 -176.77838 4294967120
585.37067 3243.6013 -176.86801 4294967120
587.2951 3243.3542 -176.5489 4294967120
599.61145 3243.1218 -176.7392 4294967120
601.65894 3244.8835 -176.47844 4294967120
509.74475 3246.033 -176.07925 4294967120
573.461 3269.4421 -176.98853 4294967120
579.00891 3269.1086 -176.58167 4294967120
581.54846 3268.9055 -176.70551 4294967120
585.87134 3268.6162 -176.93776 4294967120
589.58295 3268.5476 -176.74939 4294967120
591.99994 3268.6174 -176.32826 4294967120
594.44373 3268.5876 -176.18311 4294967120
597.68738 3267.9666 -176.4174 4294967120
599.4231 3267.1108 -176.41699 4294967120
543.78595 3272.769 -176.70912 4294967120
533.08783 3274.6064 -176.58449 4294967120
535.22174 3274.439 -176.60339 4294967120
537.48169 3274.2026 -176.79037 4294967120
485.38995 3278.6648 -176.19888 4294967120
487.58084 3278.5735 -176.1243 4294967120
491.0137 3278.3604 -176.19128 4294967120
493.36572 3277.9316 -176.17732 4294967120
495.32867 3277.9631 -176.30908 4294967120
497.12613 3277.8528 -176.41742 4294967120
499.73584 3277.4619 -176.41876 4294967120
501.3053 3277.5913 -176.69969 4294967120
503.25024 3277.7417 -176.60728 4294967120
505.22733 3277.1721 -176.75529 4294967120
507.37592 3276.3169 -176.21494 4294967120
509.27914 3276.8159 -176.65564 4294967120
511.30804 3276.5547 -176.44289 4294967120
513.42365 3276.76 -176.58081 4294967120
515.47949 3276.3696 -176.42683 4294967120
517.58734 3276.3364 -176.49234 4294967120
519.32477 3276.4692 -176.59074 4294967120
521.42767 3276.5068 -176.6136 4294967120
523.5907 3276.2502 -176.49504 4294967120
525.22388 3276.5994 -176.80824 4294967120
529.5191 3276.127 -176.79251 4294967120
463.24457 3281.7056 -176.21114 4294967120
465.66583 3281.6711 -176.2941 4294967120
467.33667 3281.7808 -176.4221 4294967120
469.47125 3281.5308 -176.41205 4294967120
473.27795 3280.7163 -176.30911 4294967120
475.28616 3281.5713 -176.61597 4294967120
477.44693 3279.927 -176.27155 4294967120
479.29541 3280.3691 -176.39063 4294967120
481.3479 3280.3145 -176.4641 4294967120
483.46692 3279.3948 -176.32045 4294967120
485.33145 3281.5291 -176.79234 4294967120
486.67334 3279.8662 -176.53493 4294967120
487.01907 3281.8042 -176.87059 4294967120
489.62927 3280.4536 -176.68497 4294967120
491.56577 3280.7397 -176.82231 4294967120
495.30536 3279.1094 -176.68529 4294967120
497.98749 3279.2285 -176.86383 4294967120
435.56213 3284.0559 -176.12398 4294967120
437.6261 3283.8574 -176.17233 4294967120
441.61575 3283.6328 -176.08957 4294967120
443.23547 3283.7371 -176.19896 4294967120
445.4888 3283.3687 -176.33376 4294967120
451.19205 3283.4712 -176.4839 4294967120
453.82553 3283.5374 -176.51378 4294967120
455.42825 3283.417 -176.50916 4294967120
457.47134 3283.7524 -176.58311 4294967120
459.29306 3283.5151 -176.64671 4294967120
463.18759 3283.7036 -176.5713 4294967120
465.38916 3283.9421 -176.66069 4294967120
467.42581 3283.6099 -176.85469 4294967120
469.16519 3283.7625 -176.6971 4294967120
391.31674 3287.7405 -176.00218 4294967120
397.54568 3287.6995 -176.00302 4294967120
401.62064 3287.8557 -176.04369 4294967120
403.58945 3287.6538 -176.06187 4294967120
405.54663 3287.926 -176.08693 4294967120
409.46594 3287.9585 -176.10559 4294967120
415.47681 3287.9983 -176.10555 4294967120
421.72412 3285.1865 -176.10765 4294967120
425.38275 3285.7402 -176.23428 4294967120
427.40265 3285.7693 -176.27361 4294967120
429.51508 3285.6172 -176.27907 4294967120
431.41278 3285.6328 -176.29126 4294967120
433.19382 3285.5474 -176.313 4294967120
441.31473 3285.886 -176.5484 4294967120
445.07666 3286.0825 -176.49812 4294967120
447.63977 3285.7771 -176.49876 4294967120
411.41882 3288.0796 -176.09665 4294967120
417.36896 3288.156 -176.10564 4294967120
419.36905 3288.2446 -176.07652 4294967120
512.54492 3242.373 -175.63614 4294967121
594.29803 3242.5298 -175.92726 4294967121
483.55957 3245.5461 -175.10512 4294967121
485.29263 3245.5247 -175.17654 4294967121
487.3848 3245.2598 -175.21597 4294967121
489.12881 3245.6477 -175.34334 4294967121
491.51721 3245.9192 -175.48596 4294967121
497.51953 3244.6284 -175.54892 4294967121
499.3808 3245.9707 -175.64651 4294967121
501.40076 3245.002 -175.72681 4294967121
505.87051 3243.2539 -175.55916 4294967121
507.39957 3243.4287 -175.63811 4294967121
509.50562 3243.3469 -175.69354 4294967121
511.2626 3243.4128 -175.74185 4294967121
515.92212 3243.2659 -175.92313 4294967121
519.97229 3245.741 -175.96713 4294967121
529.90216 3245.623 -175.99982 4294967121
576.64801 3244.7646 -175.02365 4294967121
471.78226 3247.9453 -175.17149 4294967121
473.51852 3247.9634 -175.12715 4294967121
475.34933 3248.1321 -175.18095 4294967121
478.69638 3248.5222 -175.37607 4294967121
481.99719 3248.4985 -175.42613 4294967121
483.50043 3248.7546 -175.26353 4294967121
485.4061 3248.2002 -175.34277 4294967121
487.74509 3248.146 -175.37468 4294967121
489.58975 3248.217 -175.55733 4294967121
491.6373 3248.1931 -175.39227 4294967121
493.24353 3247.8882 -175.39973 4294967121
495.80246 3247.8557 -175.40015 4294967121
497.60699 3248.7937 -175.16466 4294967121
501.98318 3247.5713 -175.52534 4294967121
503.41464 3246.7375 -175.65034 4294967121
505.44888 3246.8 -175.84288 4294967121
507.42831 3247.9939 -175.5374 4294967121
511.34238 3247.7278 -175.48085 4294967121
513.67651 3246.8035 -175.67535 4294967121
519.24823 3247.24 -175.47386 4294967121
521.47174 3247.158 -175.47031 4294967121
525.27197 3247.5725 -175.14374 4294967121
531.57391 3247.5747 -175.02386 4294967121
535.29993 3246.5706 -175.53116 4294967121
537.38452 3246.8677 -175.26462 4294967121
539.5567 3246.5735 -175.14616 4294967121
541.24768 3246.3806 -175.20459 4294967121
543.53241 3246.3079 -175.14278 4294967121
545.39325 3246.2966 -175.36223 4294967121
547.0155 3246.5796 -175.27946 4294967121
549.84589 3246.782 -175.66551 4294967121
555.13202 3247.1755 -175.9341 4294967121
557.32422 3247.0269 -175.78252 4294967121
560.99377 3246.6824 -175.94571 4294967121
564.00757 3246.3093 -175.43979 4294967121
473.64047 3250.0898 -175.01578 4294967121
483.41296 3250.0906 -175.08525 4294967121
485.76242 3249.9944 -175.08363 4294967121
487.30548 3249.8323 -175.09999 4294967121
489.75211 3249.8882 -175.01546 4294967121
491.37436 3249.7444 -175.01239 4294967121
499.14914 3249.2312 -175.07845 4294967121
601.7204 3263.8396 -175.62018 4294967121
602.02234 3261.915 -175.83379 4294967121
537.3053 3272.9556 -175.02831 4294967121
539.47327 3272.9568 -175.72754 4294967121
541.65442 3272.4136 -175.45831 4294967121
545.41888 3271.9583 -175.56244 4294967121
547.4353 3271.8198 -175.90892 4294967121
553.27167 3271.0781 -175.83331 4294967121
557.16223 3270.6892 -175.84129 4294967121
503.29938 3275.6125 -175.63118 4294967121
505.53421 3275.4697 -175.67633 4294967121
509.04962 3275.2808 -175.62512 4294967121
513.39288 3275.0747 -175.25388 4294967121
514.93262 3274.9863 -175.20705 4294967121
517.77094 3275.238 -175.61577 4294967121
521.50653 3275.0583 -175.46515 4294967121
523.28766 3275.0857 -175.52394 4294967121
529.28113 3274.564 -175.52159 4294967121
535.31183 3273.335 -175.17804 4294967121
471.41635 3278.9243 -175.11356 4294967121
475.45724 3278.5662 -175.26591 4294967121
477.33182 3278.7891 -175.59404 4294967121
481.38202 3278.0605 -175.37248 4294967121
483.28134 3277.6973 -175.41931 4294967121
487.58551 3277.3066 -175.32312 4294967121
489.40567 3277.1921 -175.40503 4294967121
491.52832 3276.9583 -175.1992 4294967121
493.48947 3276.9128 -175.38557 4294967121
495.57077 3276.7483 -175.49051 4294967121
497.3392 3276.4846 -175.43919 4294967121
499.10461 3276.3474 -175.57611 4294967121
445.41537 3281.9253 -175.63316 4294967121
447.47281 3281.9985 -175.72565 4294967121
449.32751 3281.7332 -175.70334 4294967121
453.31882 3281.668 -175.81503 4294967121
455.57703 3280.3123 -175.08466 4294967121
457.5354 3281.5859 -175.93375 4294967121
459.60437 3280.1279 -175.14369 4294967121
461.17072 3280.6326 -175.5808 4294967121
465.26819 3280.4724 -175.71329 4294967121
471.3688 3279.948 -175.92415 4294967121
405.25427 3284.4561 -175.05359 4294967121
407.41583 3284.4485 -175.09384 4294967121
409.24243 3284.4026 -175.08604 4294967121
411.58002 3284.4138 -175.14923 4294967121
413.32928 3283.9697 -175.08156 4294967121
415.41229 3284.1873 -175.37442 4294967121
417.15109 3283.7939 -175.21251 4294967121
419.12857 3283.7966 -175.34473 4294967121
425.50702 3283.6973 -175.61185 4294967121
427.62622 3283.8069 -175.67293 4294967121
429.1691 3283.5339 -175.64282 4294967121
431.26791 3283.6538 -175.74655 4294967121
435.89499 3282.4932 -175.27351 4294967121
439.46393 3282.3257 -175.53419 4294967121
441.26257 3282.2383 -175.52701 4294967121
443.54349 3282 -175.54495 4294967121
389.41788 3287.5854 -175.9286 4294967121
391.05249 3285.4993 -175.25024 4294967121
393.40857 3287.4124 -175.97856 4294967121
395.29993 3287.1184 -175.95848 4294967121
399.18976 3286.4795 -175.70761 4294967121
401.84332 3285.5664 -175.46623 4294967121
403.36096 3285.6082 -175.53471 4294967121
409.22577 3285.7927 -175.67143 4294967121
411.46283 3285.8564 -175.72792 4294967121
413.34122 3285.6914 -175.70799 4294967121
415.62949 3285.8296 -175.79868 4294967121
417.08856 3285.7446 -175.85078 4294967121
419.09644 3285.6938 -175.88635 4294967121
590.12238 3242.916 -174.10388 4294967122
593.88745 3242.8977 -174.01588 4294967122
572.65582 3245.2415 -174.746 4294967122
582.82843 3243.9214 -174.72621 4294967122
585.05621 3243.6458 -174.68237 4294967122
587.82422 3243.1497 -174.1684 4294967122
598.01746 3243.6218 -174.27155 4294967122
599.67206 3245.5566 -174.23413 4294967122
463.51581 3247.2139 -174.6274 4294967122
469.35745 3247.6079 -174.9713 4294967122
517.50098 3248.6543 -174.58067 4294967122
519.57031 3248.5791 -174.59256 4294967122
521.24359 3248.5374 -174.53304 4294967122
523.50336 3248.2825 -174.62683 4294967122
527.40033 3247.6887 -174.91045 4294967122
545.29572 3246.78 -174.23647 4294967122
546.97693 3246.9648 -174.04927 4294967122
401.211 3251.0044 -174.00635 4294967122
403.85138 3251.6558 -174.19878 4294967122
405.59967 3251.3867 -174.20508 4294967122
407.17834 3251.7856 -174.29713 4294967122
409.7049 3251.7737 -174.31419 4294967122
413.46753 3251.7205 -174.28828 4294967122
415.86075 3251.5596 -174.27246 4294967122
417.4697 3251.5317 -174.31274 4294967122
419.61078 3251.8723 -174.44307 4294967122
421.39188 3251.4832 -174.45789 4294967122
423.94235 3251.7803 -174.55653 4294967122
425.23621 3251.9458 -174.56783 4294967122
441.39639 3249.9067 -174.56007 4294967122
447.31335 3250.0723 -174.71387 4294967122
451.67761 3249.908 -174.70277 4294967122
453.14035 3249.9934 -174.729 4294967122
455.25693 3249.9919 -174.79623 4294967122
457.71277 3251.3994 -174.76302 4294967122
459.46265 3250.1289 -174.84402 4294967122
461.40869 3250.8975 -174.8026 4294967122
463.401 3251.3396 -174.77254 4294967122
467.24844 3250.9392 -174.72342 4294967122
469.71759 3251.0737 -174.7326 4294967122
473.27252 3251.189 -174.69943 4294967122
477.27808 3251.0054 -174.77075 4294967122
479.28885 3251.3003 -174.67134 4294967122
481.24084 3251.8303 -174.32288 4294967122
483.60428 3251.4316 -174.5173 4294967122
485.54681 3251.2009 -174.56183 4294967122
489.56961 3251.0906 -174.38718 4294967122
493.06076 3249.5923 -174.99858 4294967122
495.3989 3249.3999 -174.99843 4294967122
498.17383 3250.4299 -174.24368 4294967122
501.42157 3249.2942 -174.93279 4294967122
503.59286 3249.3157 -174.86954 4294967122
505.37421 3249.6565 -174.84068 4294967122
507.29172 3249.5012 -174.75569 4294967122
509.50732 3249.2019 -174.8 4294967122
511.49081 3249.3047 -174.68137 4294967122
513.06854 3249.126 -174.54295 4294967122
393.75946 3253.7571 -174.21361 4294967122
395.31039 3254.7017 -174.43027 4294967122
397.94299 3254.0208 -174.45988 4294967122
399.38657 3253.9382 -174.32924 4294967122
401.23184 3253.9841 -174.33492 4294967122
403.55392 3254.1404 -174.39648 4294967122
405.5701 3253.9434 -174.479 4294967122
407.46875 3254.8491 -174.44678 4294967122
409.84106 3254.5786 -174.44522 4294967122
411.10864 3254.6804 -174.39925 4294967122
413.30661 3254.8269 -174.34897 4294967122
415.71777 3254.7256 -174.56667 4294967122
417.68097 3254.1714 -174.35655 4294967122
419.12363 3254.2188 -174.34695 4294967122
421.77795 3254.3564 -174.45686 4294967122
423.31195 3254.092 -174.3663 4294967122
425.54538 3254.0886 -174.39859 4294967122
427.65091 3253.9336 -174.44527 4294967122
429.23126 3254.0088 -174.44708 4294967122
433.37787 3253.3105 -174.57582 4294967122
435.32675 3253.1152 -174.59171 4294967122
437.43185 3252.7275 -174.62576 4294967122
439.55963 3253.4988 -174.57065 4294967122
441.59784 3253.9592 -174.49295 4294967122
442.95309 3253.988 -174.2923 4294967122
443.22745 3252.6477 -174.51724 4294967122
445.83826 3253.0352 -174.36673 4294967122
447.55569 3253.2917 -174.29195 4294967122
449.61612 3252.1174 -174.74266 4294967122
451.33624 3252.6379 -174.46954 4294967122
453.57968 3252.7561 -174.474 4294967122
455.6048 3252.8188 -174.48103 4294967122
457.34723 3253.1248 -174.37186 4294967122
459.60345 3253.2507 -174.38872 4294967122
461.54144 3252.792 -174.39029 4294967122
464.80463 3252.5063 -174.37073 4294967122
387.72009 3257.8298 -174.10602 4294967122
395.83224 3256.4155 -174.17795 4294967122
397.95493 3256.123 -174.17677 4294967122
399.60077 3255.9294 -174.2238 4294967122
401.13379 3255.9917 -174.13435 4294967122
403.52075 3255.8784 -174.19798 4294967122
411.41473 3255.7979 -174.22275 4294967122
413.71921 3255.8574 -174.14935 4294967122
415.57639 3255.8315 -174.06578 4294967122
417.65228 3255.7004 -174.05116 4294967122
422.97037 3255.3015 -174.08575 4294967122
425.67041 3255.0969 -174.14862 4294967122
431.36176 3255.1616 -174.20885 4294967122
433.65295 3255.2957 -174.16809 4294967122
435.4491 3255.2744 -174.15799 4294967122
437.50473 3255.1687 -174.18402 4294967122
387.5271 3258.0249 -174.03487 4294967122
391.44028 3258.0583 -174.04839 4294967122
