# .PCD v0.7 - Point Cloud Data file format
VERSION 0.7
FIELDS x y z rgba
SIZE 4 4 4 4
TYPE F F F U
COUNT 1 1 1 1
WIDTH 1147
HEIGHT 1
VIEWPOINT 0 0 0 1 0 0 0
POINTS 1147
DATA ascii
499.51761 1342.6526 -317.41144 4294966979
502.50558 1341.6559 -317.13385 4294966979
496.25137 1319.5515 -316.28558 4294966980
500.50214 1320.1334 -316.17761 4294966980
502.36716 1320.8372 -316.84329 4294966980
505.19907 1323.8356 -316.84586 4294966980
506.24081 1335.4923 -316.7092 4294966980
505.15848 1338.5199 -316.15479 4294966980
501.17868 1342.2495 -316.85733 4294966980
502.4794 1341.5808 -316.2121 4294966980
485.63638 1345.0708 -316.80856 4294966980
484.57278 1348.6785 -316.57483 4294966980
485.13412 1320.635 -315.8371 4294966981
486.44955 1320.9086 -315.83783 4294966981
503.74573 1321.9773 -315.5047 4294966981
504.84729 1323.4492 -315.82794 4294966981
505.89413 1326.693 -315.52771 4294966981
506.37411 1332.2433 -315.19568 4294966981
499.20981 1342.7133 -315.34122 4294966981
501.38071 1342.071 -315.07535 4294966981
485.97928 1344.8826 -315.34488 4294966981
498.85562 1319.9702 -314.59128 4294966982
500.71136 1320.3214 -314.6044 4294966982
502.1069 1320.8933 -314.93646 4294966982
504.767 1323.6276 -314.78967 4294966982
505.79617 1336.4397 -314.70032 4294966982
503.55286 1340.5066 -314.92099 4294966982
504.96219 1338.7449 -314.90948 4294966982
496.81052 1342.9642 -314.57904 4294966982
484.91397 1346.5792 -314.96783 4294966982
484.3999 1347.8285 -314.71744 4294966982
483.41095 1320.2101 -313.15283 4294966983
488.52707 1321.024 -313.02048 4294966983
503.65976 1322.3246 -313.77582 4294966983
505.07483 1324.5326 -313.60703 4294966983
505.75232 1326.8075 -313.056 4294966983
506.13736 1329.8755 -313.54245 4294966983
506.05902 1333.5884 -313.36459 4294966983
504.69672 1338.7854 -313.6759 4294966983
500.28568 1342.512 -313.76212 4294966983
501.90735 1341.7014 -313.44366 4294966983
495.80679 1319.8715 -312.54428 4294966984
485.07651 1320.8816 -312.763 4294966984
491.34079 1320.5686 -312.99478 4294966984
498.94104 1320.0693 -312.42981 4294966984
501.44757 1320.973 -312.63141 4294966984
503.31201 1322.2227 -312.37549 4294966984
504.37027 1323.4609 -312.29297 4294966984
505.21329 1325.0977 -312.26538 4294966984
505.9808 1331.6749 -312.0831 4294966984
505.23441 1336.9093 -312.34402 4294966984
503.51068 1340.2268 -312.52985 4294966984
504.48511 1338.8718 -312.50705 4294966984
495.72958 1343.0852 -312.65643 4294966984
498.52283 1342.9019 -312.32281 4294966984
500.69434 1342.3392 -312.37503 4294966984
498.70828 1319.7313 -311.24371 4294966985
488.69504 1321.1316 -311.18039 4294966985
505.68054 1327.77 -311.69147 4294966985
505.74939 1334.2273 -311.91043 4294966985
504.24402 1338.9095 -311.47983 4294966985
502.07703 1341.5305 -311.54297 4294966985
486.3775 1321.2407 -310.86484 4294966986
491.52002 1320.6418 -310.78186 4294966986
495.72986 1320.0026 -310.96051 4294966986
500.00766 1320.3092 -310.86639 4294966986
503.43069 1322.8229 -310.70251 4294966986
504.7735 1324.7209 -310.96307 4294966986
505.54709 1328.3861 -310.6384 4294966986
505.67331 1330.5164 -310.72583 4294966986
505.58777 1332.9811 -310.68295 4294966986
504.51108 1337.7095 -310.03409 4294966986
505.24704 1335.4244 -310.62234 4294966986
503.32654 1340.1479 -310.04306 4294966986
496.42609 1343.2129 -310.39886 4294966986
500.73788 1342.3916 -310.30173 4294966986
491.02832 1320.8584 -309.19269 4294966987
493.49615 1320.4539 -309.43338 4294966987
501.58377 1321.2738 -309.10281 4294966987
504.33878 1324.5621 -309.55795 4294966987
505.03937 1326.6622 -309.72055 4294966987
505.3028 1330.6835 -309.41473 4294966987
504.86154 1336.0801 -309.40817 4294966987
502.18268 1341.5594 -309.91241 4294966987
499.21033 1319.9069 -308.7594 4294966988
486.46884 1321.2162 -308.58765 4294966988
488.80606 1321.2832 -308.87723 4294966988
497.01285 1320.0026 -308.32767 4294966988
503.42642 1323.4921 -308.13229 4294966988
504.40332 1325.6365 -308.28156 4294966988
505.05057 1331.7678 -308.36127 4294966988
505.03241 1334.0901 -308.8251 4294966988
503.9108 1338.8016 -308.25024 4294966988
498.68259 1343.1285 -308.74603 4294966988
501.83432 1341.9182 -308.63632 4294966988
502.65424 1341.1422 -308.53452 4294966988
488.62521 1321.4342 -307.20218 4294966989
495.52701 1320.1693 -307.203 4294966989
504.71115 1327.8317 -307.80042 4294966989
504.8024 1330.376 -307.35126 4294966989
504.46741 1336.7283 -307.83014 4294966989
503.25983 1340.1503 -307.71082 4294966989
495.93665 1343.515 -307.18964 4294966989
500.80298 1342.48 -307.98282 4294966989
485.03281 1321.2094 -306.95074 4294966990
491.41684 1321.066 -306.29089 4294966990
493.50705 1320.6292 -306.75394 4294966990
502.30713 1321.7893 -306.84442 4294966990
503.14542 1323.1198 -306.1405 4294966990
504.64038 1333.8071 -306.79004 4294966990
498.23032 1343.7861 -306.9122 4294966990
502.25876 1341.3502 -306.02466 4294966990
498.03177 1319.9783 -305.93225 4294966991
499.78354 1320.1155 -305.82727 4294966991
500.7438 1320.2461 -305.64313 4294966991
503.97159 1325.7628 -305.93604 4294966991
504.42041 1328.9386 -305.92944 4294966991
504.50372 1330.9717 -305.7933 4294966991
504.40091 1334.3765 -305.23157 4294966991
504.31659 1336.1899 -305.83444 4294966991
503.72794 1338.7969 -305.47742 4294966991
499.92072 1342.9783 -305.95432 4294966991
486.36337 1321.6219 -304.39584 4294966992
488.30371 1321.5168 -304.87479 4294966992
490.99625 1321.2122 -304.98666 4294966992
502.29495 1321.0717 -304.91803 4294966992
503.53967 1324.3647 -304.56207 4294966992
504.11218 1328.2734 -304.01071 4294966992
504.28592 1330.2335 -304.55725 4294966992
504.32077 1332.3271 -304.40781 4294966992
503.15457 1340.3325 -304.65945 4294966992
485.09579 1346.829 -304.69016 4294966992
486.98233 1344.3226 -304.7316 4294966992
499.27039 1319.9586 -303.23602 4294966993
486.23541 1321.3821 -303.33997 4294966993
493.4534 1320.7939 -303.75604 4294966993
495.5018 1320.4429 -303.55249 4294966993
503.85236 1325.7781 -303.41769 4294966993
504.25305 1333.991 -303.86285 4294966993
504.17612 1335.894 -303.7226 4294966993
488.05319 1343.7247 -303.24759 4294966993
490.22327 1343.1415 -303.27966 4294966993
498.39166 1343.8215 -303.55789 4294966993
500.77063 1320.396 -302.58807 4294966994
502.12949 1321.0286 -302.8103 4294966994
503.67755 1323.639 -302.68796 4294966994
504.10733 1330.5365 -302.76083 4294966994
504.1246 1333.2544 -302.11176 4294966994
503.51288 1339.3916 -302.51825 4294966994
500.75641 1342.7445 -302.50772 4294966994
485.48236 1346.3693 -302.73987 4294966994
485.04178 1347.8346 -302.72742 4294966994
503.13284 1322.3888 -301.06873 4294966995
503.96191 1328.2887 -301.6149 4294966995
485.52661 1346.6719 -301.27322 4294966995
491.2803 1321.3319 -300.62509 4294966996
496.45895 1320.321 -300.3317 4294966996
499.94904 1320.3118 -300.77969 4294966996
502.28345 1321.1866 -300.6712 4294966996
503.77905 1324.5984 -300.69641 4294966996
503.94135 1330.7828 -300.19748 4294966996
504.19217 1336.0168 -300.81485 4294966996
504.47946 1338.1501 -300.81805 4294966996
488.72577 1343.8616 -300.17126 4294966996
493.21432 1343.4955 -300.54465 4294966996
498.39926 1343.8022 -300.60632 4294966996
486.90958 1345.0959 -300.5397 4294966996
496.13968 1320.4376 -299.02032 4294966997
500.56815 1320.5044 -299.17484 4294966997
503.82541 1328.6332 -299.10529 4294966997
503.97864 1333.2062 -299.1575 4294966997
503.61954 1340.9009 -299.18542 4294966997
487.79822 1344.5095 -299.32123 4294966997
485.5097 1349.8118 -299.05191 4294966997
498.58698 1320.2433 -298.97931 4294966998
502.04138 1321.1425 -298.89331 4294966998
503.75888 1324.7076 -298.76819 4294966998
504.28113 1336.6849 -298.56375 4294966998
490.14145 1343.5433 -298.90552 4294966998
495.51965 1343.6206 -298.80032 4294966998
485.4715 1347.868 -298.67938 4294966998
503.04755 1322.4409 -297.19296 4294966999
490.18692 1343.7692 -297.035 4294966999
503.73044 1341.1797 -297.05258 4294966999
487.77603 1344.6683 -297.08841 4294966999
482.05905 1317.5062 -296.41531 4294967000
483.54218 1320.2871 -296.53641 4294967000
486.12308 1321.906 -296.19791 4294967000
495.45029 1320.6896 -296.88617 4294967000
498.61282 1320.3431 -296.81024 4294967000
500.58398 1320.606 -296.60162 4294967000
501.90952 1321.1382 -296.88715 4294967000
503.78696 1324.4773 -296.95648 4294967000
503.78336 1328.8188 -296.79449 4294967000
503.74744 1330.7806 -296.73538 4294967000
503.80887 1332.9338 -296.49069 4294967000
504.12756 1335.739 -296.79163 4294967000
504.44745 1338.1471 -296.86578 4294967000
493.01804 1343.5887 -296.70496 4294967000
485.67038 1347.7734 -296.62851 4294967000
482.66071 1319.3444 -295.28464 4294967001
504.00354 1335.0425 -295.36169 4294967001
483.71213 1320.6454 -294.32675 4294967002
496.24728 1320.6278 -294.89798 4294967002
498.686 1320.4669 -294.94388 4294967002
500.51636 1320.692 -294.98785 4294967002
503.06326 1322.5238 -294.65686 4294967002
503.6507 1324.3961 -294.41034 4294967002
503.75412 1328.6748 -294.91617 4294967002
503.73096 1330.6615 -294.7464 4294967002
504.3786 1337.6963 -294.694 4294967002
504.01868 1340.0012 -294.57803 4294967002
500.75656 1343.6837 -294.72498 4294967002
502.37408 1342.6041 -294.81836 4294967002
486.16922 1346.699 -294.56403 4294967002
485.6962 1348.0707 -294.85431 4294967002
482.2482 1318.0377 -293.15582 4294967003
483.66867 1320.7159 -293.15994 4294967003
485.048 1321.6028 -293.40567 4294967003
486.20438 1322.0015 -293.12674 4294967003
488.16739 1322.3226 -293.27426 4294967003
503.02991 1322.2422 -293.08023 4294967003
503.83008 1325.677 -293.00244 4294967003
503.72241 1328.8638 -293.40622 4294967003
486.47333 1345.5854 -293.04462 4294967003
493.37115 1321.3466 -292.87396 4294967004
498.61331 1320.4094 -292.89157 4294967004
503.45978 1323.4866 -292.70474 4294967004
503.98056 1335.073 -292.88068 4294967004
503.98688 1339.9291 -292.73486 4294967004
503.6759 1341.001 -292.81006 4294967004
482.38168 1318.5842 -291.7485 4294967005
484.00827 1321.123 -291.02066 4294967005
491.03909 1321.8701 -291.02805 4294967005
501.9863 1321.384 -291.27948 4294967005
503.72949 1325.3508 -291.09372 4294967005
503.67792 1330.6968 -291.13232 4294967005
504.3815 1337.8962 -291.10315 4294967005
502.31744 1342.8273 -291.30081 4294967005
486.36774 1345.5778 -291.13159 4294967005
498.48074 1344.1937 -291.28635 4294967005
485.98929 1347.1053 -291.30231 4294967005
485.13968 1321.7817 -290.84854 4294967006
486.48978 1322.1569 -290.59335 4294967006
488.30035 1322.2501 -290.69232 4294967006
496.19116 1320.9388 -290.13159 4294967006
499.30368 1320.7397 -290.51608 4294967006
503.45837 1323.344 -290.30511 4294967006
503.76813 1328.0867 -290.76343 4294967006
503.60602 1341.0927 -290.80573 4294967006
485.55005 1349.8438 -290.93561 4294967006
482.81775 1319.7405 -289.41592 4294967007
488.58508 1322.2939 -289.46332 4294967007
500.73587 1320.9713 -289.26636 4294967007
502.01807 1321.4884 -289.19058 4294967007
503.68204 1324.9235 -289.02759 4294967007
504.38504 1337.859 -289.06519 4294967007
504.23227 1340.0385 -289.19965 4294967007
485.67477 1347.8242 -289.19345 4294967007
482.13638 1318.176 -288.66879 4294967008
483.98215 1321.2369 -288.4097 4294967008
485.11475 1321.8412 -288.72421 4294967008
490.75687 1322.0695 -288.47531 4294967008
499.35098 1320.8052 -288.75229 4294967008
493.41357 1343.9513 -288.27078 4294967008
500.46964 1343.9143 -288.52277 4294967008
502.48047 1343.0925 -288.55573 4294967008
486.16687 1345.8979 -288.99228 4294967008
489.15448 1344.2834 -288.22906 4294967008
495.56668 1344.2081 -288.31888 4294967008
498.38242 1344.3402 -288.53986 4294967008
485.49567 1349.9767 -288.60318 4294967008
485.25107 1322.0863 -287.06573 4294967009
495.78537 1321.059 -287.59747 4294967009
501.07449 1321.1322 -287.70584 4294967009
502.45438 1321.9729 -287.20319 4294967009
493.45343 1343.9927 -287.06699 4294967009
501.98257 1343.6455 -287.23065 4294967009
503.25122 1342.6591 -287.39844 4294967009
489.47736 1344.2135 -287.02011 4294967009
495.40225 1344.2581 -287.13483 4294967009
498.18451 1344.4015 -287.31012 4294967009
500.42288 1344.0236 -287.65427 4294967009
482.20331 1318.3964 -286.55853 4294967010
483.2341 1320.5101 -286.95691 4294967010
486.30984 1322.3929 -286.71429 4294967010
488.59464 1322.5439 -286.9003 4294967010
503.55823 1324.5707 -286.7843 4294967010
504.30957 1338.0095 -286.93115 4294967010
487.11661 1345.3402 -286.85736 4294967010
485.69568 1347.6135 -286.34348 4294967010
482.2384 1318.6382 -285.19131 4294967011
483.9024 1321.6107 -285.03394 4294967011
488.59705 1322.6047 -285.15796 4294967011
491.04568 1322.1162 -285.37936 4294967011
503.88718 1342.0935 -285.20721 4294967011
485.49628 1348.9026 -285.48187 4294967011
496.18207 1321.1073 -284.87796 4294967012
499.39548 1321.0421 -284.75977 4294967012
502.05402 1321.6387 -284.68198 4294967012
503.55194 1324.2078 -284.75366 4294967012
503.26578 1343.215 -284.72375 4294967012
486.9805 1345.5415 -284.66226 4294967012
490.00873 1344.0739 -284.87601 4294967012
493.05902 1344.0313 -284.91644 4294967012
495.52554 1344.285 -284.70901 4294967012
497.93457 1344.406 -284.94745 4294967012
500.93152 1344.4174 -284.88437 4294967012
485.36688 1349.7169 -284.90805 4294967012
485.59045 1351.5754 -284.43637 4294967012
486.55838 1322.5654 -283.1113 4294967013
504.3226 1339.5734 -283.22061 4294967013
493.62704 1344.1223 -283.14459 4294967013
482.19589 1319.0685 -282.93585 4294967014
483.4751 1321.4382 -282.69241 4294967014
488.59888 1322.6405 -282.81342 4294967014
491.41821 1322.1855 -282.34036 4294967014
493.41031 1321.8802 -282.16745 4294967014
503.51807 1324.2002 -282.65723 4294967014
503.68253 1333.9312 -282.72852 4294967014
504.05386 1342.1757 -282.98688 4294967014
488.41641 1344.6139 -282.41562 4294967014
495.73013 1344.2399 -282.3555 4294967014
501.26474 1344.3329 -282.53653 4294967014
485.73633 1347.6227 -282.80643 4294967014
485.70074 1352.6259 -282.61728 4294967014
500.47552 1321.2106 -281.17581 4294967015
504.10486 1337.7031 -281.00467 4294967015
488.29797 1344.7856 -281.05728 4294967015
490.57562 1344.172 -281.09293 4294967015
493.10156 1344.1326 -281.09045 4294967015
485.82678 1347.5228 -281.45395 4294967015
485.51453 1350.1093 -281.12616 4294967015
482.18323 1319.5161 -280.93143 4294967016
484.97702 1322.4088 -280.86472 4294967016
488.63538 1322.7046 -280.53107 4294967016
491.32056 1322.2783 -280.25897 4294967016
496.49951 1321.298 -280.8504 4294967016
503.41745 1323.788 -280.69077 4294967016
503.7916 1328.1952 -280.46289 4294967016
486.20535 1346.7012 -280.59598 4294967016
499.5387 1344.5905 -280.92331 4294967016
502.33752 1344.1067 -280.60788 4294967016
485.66699 1352.5125 -280.90311 4294967016
493.38315 1321.9125 -279.19516 4294967017
496.36978 1321.4236 -279.03381 4294967017
499.94489 1321.3279 -279.05124 4294967017
503.8295 1342.4894 -279.2381 4294967017
488.28073 1344.8131 -279.27756 4294967017
498.38062 1344.8945 -279.36191 4294967017
482.01926 1319.1317 -278.85483 4294967018
482.8334 1321.1581 -278.84628 4294967018
485.00464 1322.3801 -278.12903 4294967018
486.50262 1322.6552 -278.32254 4294967018
488.96964 1322.7679 -278.3219 4294967018
491.32681 1322.4247 -278.71878 4294967018
502.23132 1321.9131 -278.76279 4294967018
503.52478 1324.6479 -278.86844 4294967018
504.15549 1338.1046 -278.67899 4294967018
500.71127 1344.6754 -278.83487 4294967018
485.64502 1348.6816 -278.70905 4294967018
485.58008 1352.3553 -278.66602 4294967018
486.26181 1322.8105 -277.07306 4294967019
488.41495 1322.9025 -277.32162 4294967019
493.5437 1322.0186 -277.01456 4294967019
496.16718 1321.5886 -277.12964 4294967019
504.10486 1340.6224 -277.03741 4294967019
503.85568 1342.1587 -277.12244 4294967019
487.05618 1345.7543 -277.25769 4294967019
484.9744 1322.3601 -276.65201 4294967020
491.36874 1322.4478 -276.7197 4294967020
500.06598 1321.4874 -276.38104 4294967020
503.42929 1324.5483 -276.77917 4294967020
503.84479 1328.0391 -276.73746 4294967020
503.77078 1335.1157 -276.87354 4294967020
504.05325 1337.694 -276.88763 4294967020
503.08627 1343.5093 -276.8685 4294967020
498.42914 1345.2303 -276.71613 4294967020
501.98611 1344.3706 -276.67181 4294967020
485.6778 1348.0192 -276.71588 4294967020
485.4166 1350.0137 -276.67181 4294967020
482.69009 1321.1455 -275.10928 4294967021
488.41092 1322.963 -275.05365 4294967021
499.90994 1321.5945 -275.23151 4294967021
502.25171 1322.2413 -275.81314 4294967021
504.01685 1337.7498 -275.38489 4294967021
502.9285 1343.6907 -275.04028 4294967021
485.25119 1349.7805 -275.39902 4294967021
485.05264 1322.4779 -274.96799 4294967022
491.07645 1322.6119 -274.77426 4294967022
502.32471 1322.5492 -274.92349 4294967022
503.42059 1324.7053 -274.72604 4294967022
503.85385 1328.022 -274.76776 4294967022
503.60455 1332.8643 -274.76337 4294967022
504.06732 1340.0399 -274.5376 4294967022
486.66354 1346.254 -274.82224 4294967022
490.24393 1344.5054 -274.69708 4294967022
498.59509 1345.4989 -274.66614 4294967022
501.79507 1344.5422 -274.93646 4294967022
485.53934 1347.8937 -274.99533 4294967022
485.4758 1352.3287 -274.98816 4294967022
482.03647 1319.7616 -273.22394 4294967023
484.90002 1322.422 -273.04605 4294967023
495.47241 1321.9418 -273.00885 4294967023
500.08527 1321.7174 -273.28995 4294967023
503.86423 1327.9945 -273.05206 4294967023
503.68356 1334.9835 -273.10791 4294967023
486.59109 1346.0919 -273.03491 4294967023
488.20053 1345.0426 -273.02509 4294967023
493.12234 1344.8457 -273.00888 4294967023
501.76895 1344.5858 -273.17499 4294967023
485.69095 1347.92 -273.3158 4294967023
500.83002 1321.8044 -272.67996 4294967024
502.33151 1322.6858 -272.758 4294967024
503.37073 1324.8188 -272.86713 4294967024
503.88574 1337.2576 -272.88773 4294967024
504.16144 1340.0636 -272.53668 4294967024
503.07184 1343.4027 -272.87854 4294967024
498.57242 1345.4786 -272.9751 4294967024
482.11749 1319.7455 -271.1188 4294967025
490.83173 1322.886 -271.6702 4294967025
500.18417 1321.8524 -271.12869 4294967025
502.11847 1322.5353 -271.03152 4294967025
503.16623 1324.1036 -271.19543 4294967025
503.84549 1337.2236 -271.09769 4294967025
485.15823 1349.6466 -271.10892 4294967025
485.38245 1352.3804 -271.28796 4294967025
482.14816 1320.4772 -270.89487 4294967026
495.92389 1322.0477 -270.35001 4294967026
486.41913 1323.1018 -270.72861 4294967026
503.57965 1325.553 -270.54648 4294967026
503.57751 1332.6694 -270.50439 4294967026
503.68271 1335.3447 -270.54123 4294967026
503.4017 1342.6243 -270.87537 4294967026
486.7309 1345.9928 -270.58563 4294967026
490.15659 1344.7001 -270.91785 4294967026
493.67764 1345.0414 -270.69757 4294967026
499.94409 1345.4586 -270.74011 4294967026
482.15732 1319.8782 -269.55615 4294967027
485.05634 1322.7256 -269.05438 4294967027
486.09695 1322.9991 -269.08832 4294967027
500.05164 1321.741 -269.02487 4294967027
488.64697 1323.3446 -269.29385 4294967027
502.89035 1323.1091 -269.10471 4294967027
503.64032 1342.0337 -269.20358 4294967027
486.42413 1346.3184 -269.06796 4294967027
495.40259 1345.3546 -269.04196 4294967027
501.7493 1344.6261 -269.01459 4294967027
485.44696 1347.8527 -269.22839 4294967027
495.65659 1322.1259 -268.78995 4294967028
503.88745 1327.7091 -268.6557 4294967028
503.62036 1330.7964 -268.86102 4294967028
503.64078 1334.9961 -268.73422 4294967028
503.79285 1337.0006 -268.55927 4294967028
504.09518 1339.7153 -268.832 4294967028
488.11728 1345.1885 -268.96814 4294967028
490.49887 1344.7509 -268.61603 4294967028
498.55716 1345.7806 -268.89548 4294967028
485.08124 1349.6804 -268.63196 4294967028
485.2673 1352.406 -268.26035 4294967028
482.21246 1320.6458 -267.44363 4294967029
491.30591 1323.0693 -267.03583 4294967029
503.92697 1339.9418 -267.03787 4294967029
493.14981 1345.0198 -267.04419 4294967029
500.67075 1345.1566 -267.28568 4294967029
485.18158 1352.0836 -267.00354 4294967029
482.5253 1321.0167 -266.97363 4294967030
496.17413 1322.1023 -266.81818 4294967030
499.9682 1322.0852 -266.4144 4294967030
486.48447 1323.3606 -266.45831 4294967030
488.61572 1323.498 -266.90482 4294967030
503.56909 1325.575 -266.84921 4294967030
503.82965 1328.4541 -266.78156 4294967030
503.64157 1330.868 -266.75629 4294967030
503.80099 1337.1064 -266.95026 4294967030
503.38531 1342.535 -266.63104 4294967030
486.46039 1346.3771 -266.51907 4294967030
488.43719 1345.1414 -266.66818 4294967030
485.11676 1350.4849 -266.08023 4294967030
481.80313 1318.1016 -265.96307 4294967031
482.61029 1321.2439 -265.45758 4294967031
485.00278 1323.0767 -265.97821 4294967031
503.90115 1327.9012 -265.07074 4294967031
503.66919 1330.536 -265.26944 4294967031
503.93384 1339.8552 -265.35068 4294967031
493.46622 1345.1271 -265.08502 4294967031
498.43179 1345.6014 -265.18265 4294967031
483.6712 1322.5465 -264.57376 4294967032
493.54819 1322.7638 -264.75876 4294967032
495.93655 1322.3628 -264.87939 4294967032
500.00467 1322.1815 -264.25693 4294967032
502.30225 1322.6893 -264.71161 4294967032
484.98315 1323.3082 -264.67819 4294967032
503.61313 1325.692 -264.72913 4294967032
503.59906 1333.9294 -264.82941 4294967032
503.80759 1337.2562 -264.84543 4294967032
503.60641 1341.986 -264.85904 4294967032
500.5209 1345.1324 -264.99802 4294967032
501.63687 1344.5865 -264.62671 4294967032
485.00482 1349.4963 -264.71191 4294967032
483.44846 1322.4054 -263.25583 4294967033
495.93472 1322.4418 -263.14581 4294967033
488.56659 1323.8588 -263.31671 4294967033
503.6572 1330.7866 -263.04782 4294967033
503.92868 1339.9027 -263.10306 4294967033
502.92685 1343.4034 -263.35779 4294967033
488.4176 1345.2834 -263.19232 4294967033
498.58676 1345.4507 -263.19937 4294967033
501.77884 1344.5054 -263.19128 4294967033
481.8801 1320.2908 -262.62341 4294967034
493.4845 1322.9077 -262.99417 4294967034
499.42578 1321.9486 -262.86722 4294967034
503.56003 1325.5334 -262.879 4294967034
503.94116 1327.8158 -262.47653 4294967034
503.59305 1333.9119 -262.89453 4294967034
503.81488 1337.4697 -262.66699 4294967034
490.09268 1344.9414 -262.88504 4294967034
500.54147 1345.0939 -262.97894 4294967034
485.60049 1348.2318 -262.23047 4294967034
485.15601 1352.3584 -262.79581 4294967034
481.60315 1318.6433 -261.30087 4294967035
500.66666 1322.3367 -261.08252 4294967035
484.90509 1323.2944 -261.04938 4294967035
485.91006 1323.6112 -261.78345 4294967035
491.21371 1323.4047 -261.17072 4294967035
503.61276 1334.7661 -261.08887 4294967035
482.23685 1320.9952 -260.61713 4294967036
483.64105 1322.5739 -260.93195 4294967036
493.46695 1322.9485 -260.62476 4294967036
496.13226 1322.46 -260.66919 4294967036
499.39868 1321.9923 -260.92578 4294967036
488.50974 1323.9764 -260.28543 4294967036
502.25516 1323.0857 -260.75409 4294967036
503.1539 1324.4403 -260.94693 4294967036
503.98123 1327.5522 -260.71826 4294967036
503.71094 1330.5038 -260.93176 4294967036
503.58585 1332.8248 -260.86639 4294967036
503.78177 1337.092 -260.94669 4294967036
503.93405 1339.8146 -260.66882 4294967036
503.56613 1342.0717 -260.98227 4294967036
486.51111 1346.8683 -260.69278 4294967036
490.39014 1344.9928 -260.59518 4294967036
493.11835 1345.1049 -260.81482 4294967036
495.6832 1345.3408 -260.72128 4294967036
498.57785 1345.6425 -260.69507 4294967036
500.43701 1345.1523 -260.75061 4294967036
485.16772 1352.1729 -260.91043 4294967036
482.45648 1321.3169 -259.14157 4294967037
496.05325 1322.5313 -259.06451 4294967037
500.68103 1322.38 -259.04691 4294967037
486.34882 1323.9752 -259.10895 4294967037
503.89169 1327.7372 -259.13724 4294967037
503.80273 1337.3947 -259.02472 4294967037
488.85077 1345.4523 -259.86005 4294967037
485.59882 1348.1697 -259.19214 4294967037
481.77307 1319.5894 -258.98654 4294967038
483.27893 1322.3513 -258.57443 4294967038
493.53284 1322.9697 -258.93399 4294967038
498.65134 1322.3007 -258.81744 4294967038
488.72461 1323.9536 -258.40558 4294967038
491.33215 1323.5662 -258.8425 4294967038
503.36868 1324.9408 -258.95654 4294967038
503.72894 1330.5906 -258.79529 4294967038
503.60175 1332.7699 -258.43784 4294967038
503.62128 1335.0297 -258.7124 4294967038
503.68021 1341.8431 -258.85776 4294967038
486.91162 1346.5687 -258.80463 4294967038
488.42865 1345.6201 -258.57596 4294967038
493.14856 1345.1501 -258.92059 4294967038
495.62494 1345.4196 -258.87619 4294967038
498.42203 1345.7015 -258.85159 4294967038
500.50244 1345.198 -258.98007 4294967038
502.01343 1344.4388 -258.92871 4294967038
485.19293 1351.9404 -258.93997 4294967038
500.56085 1322.5537 -257.11832 4294967039
503.63226 1325.7051 -257.22864 4294967039
503.90414 1327.7098 -257.09982 4294967039
503.7236 1330.6965 -257.02878 4294967039
495.38474 1345.5574 -257.00153 4294967039
498.40756 1345.7964 -257.18423 4294967039
485.43042 1349.8601 -257.12149 4294967039
481.83646 1319.5747 -256.31656 4294967040
496.36111 1322.5959 -256.75638 4294967040
499.17911 1322.4388 -256.62796 4294967040
484.72104 1323.4563 -256.65912 4294967040
488.22723 1323.9629 -256.87924 4294967040
491.0864 1323.6702 -256.90366 4294967040
493.57822 1323.0958 -256.81836 4294967040
503.11609 1324.3728 -256.49136 4294967040
503.60889 1334.796 -256.9473 4294967040
503.74121 1337.0015 -256.81961 4294967040
503.93231 1339.9152 -256.73727 4294967040
503.19852 1343.0586 -256.95361 4294967040
486.93372 1346.5176 -256.82736 4294967040
490.05856 1345.0261 -256.8735 4294967040
502.13055 1344.4989 -256.71497 4294967040
485.85547 1348.3401 -256.89026 4294967040
485.27139 1351.9854 -256.82507 4294967040
495.46381 1322.8721 -255.11287 4294967041
488.33197 1324.0074 -255.27002 4294967041
503.72964 1337.0522 -255.01006 4294967041
498.32471 1345.9866 -255.06123 4294967041
502.15656 1344.6226 -255.01811 4294967041
498.60455 1322.4562 -254.97766 4294967042
500.77762 1322.6986 -254.95425 4294967042
484.45718 1323.3967 -254.93176 4294967042
493.57217 1323.1743 -254.77515 4294967042
503.31552 1324.9082 -254.94327 4294967042
504.0358 1327.5793 -254.80017 4294967042
503.78134 1330.068 -254.37103 4294967042
503.61188 1332.9218 -254.90126 4294967042
503.93829 1339.8693 -254.87418 4294967042
503.69891 1341.9546 -254.88852 4294967042
488.33719 1345.8661 -254.93312 4294967042
490.25726 1345.1174 -254.88531 4294967042
493.01132 1345.3928 -254.98238 4294967042
495.42819 1345.65 -254.93332 4294967042
500.84216 1345.5503 -254.8056 4294967042
486.01031 1348.2792 -254.84727 4294967042
485.33047 1351.7894 -254.56195 4294967042
481.93686 1319.9241 -253.09319 4294967043
482.8606 1322.0284 -253.0582 4294967043
491.07709 1323.842 -253.01752 4294967043
501.9682 1323.2545 -253.23639 4294967043
503.69934 1331.1481 -253.14645 4294967043
504.06906 1339.9054 -253.09523 4294967043
503.43341 1343.3168 -253.02666 4294967043
502.18991 1344.7736 -253.05275 4294967043
496.18872 1322.9154 -252.358 4294967044
484.80005 1323.5143 -252.95912 4294967044
488.45447 1324.0928 -252.81221 4294967044
493.28873 1323.2803 -252.97144 4294967044
503.4812 1325.375 -252.88811 4294967044
503.74036 1326.8085 -252.07996 4294967044
503.59286 1333.9587 -252.63657 4294967044
503.71616 1337.0311 -252.77457 4294967044
487.79105 1346.3079 -252.68832 4294967044
490.22018 1345.4041 -252.67595 4294967044
492.76395 1345.5669 -252.40359 4294967044
495.51959 1345.9044 -252.8857 4294967044
498.8017 1346.2631 -252.51727 4294967044
485.54926 1349.7141 -252.90073 4294967044
481.94565 1319.9658 -251.17731 4294967045
500.79053 1322.873 -251.48531 4294967045
487.47964 1324.1547 -251.78281 4294967045
501.66608 1323.2095 -251.38339 4294967045
503.90305 1339.882 -251.17662 4294967045
500.10226 1346.0934 -251.37418 4294967045
483.69528 1323.0476 -250.57506 4294967046
484.90833 1323.8463 -250.88704 4294967046
493.61905 1323.3899 -250.80539 4294967046
502.97342 1324.3517 -250.9726 4294967046
503.95801 1327.6473 -250.80193 4294967046
503.74429 1330.2146 -250.63176 4294967046
503.57489 1333.7908 -250.71387 4294967046
503.76407 1337.4799 -250.89893 4294967046
503.29608 1343.2983 -250.82846 4294967046
490.45859 1345.6418 -250.88768 4294967046
496.1449 1346.2318 -250.24467 4294967046
502.31635 1344.7682 -250.88979 4294967046
486.48099 1348.0162 -250.83698 4294967046
496.67694 1322.9633 -249.31441 4294967047
491.11441 1323.9996 -249.44559 4294967047
495.45834 1346.1781 -249.08734 4294967047
481.76846 1319.5936 -248.61583 4294967048
482.56558 1321.4796 -248.98944 4294967048
498.64365 1322.6744 -248.30687 4294967048
488.48425 1324.3987 -248.64943 4294967048
493.1084 1323.7362 -248.18837 4294967048
500.91098 1323.0145 -248.47141 4294967048
503.24927 1324.9219 -248.70905 4294967048
503.83847 1327.5884 -248.44077 4294967048
503.74683 1330.297 -248.96437 4294967048
503.57208 1332.9554 -248.89397 4294967048
504.01089 1339.4208 -248.85616 4294967048
503.14539 1343.676 -248.6104 4294967048
490.46011 1345.9061 -248.72008 4294967048
493.24313 1345.9204 -248.4079 4294967048
498.81824 1346.5035 -248.74313 4294967048
502.22214 1344.9551 -248.78331 4294967048
482.3685 1321.3934 -247.20412 4294967049
499.28516 1322.8849 -247.14993 4294967049
488.20016 1324.5793 -247.64357 4294967049
494.06531 1323.4591 -247.39116 4294967049
503.74493 1330.4585 -247.0529 4294967049
488.33704 1346.8593 -247.70219 4294967049
498.44815 1346.5769 -247.15735 4294967049
483.31918 1323.0195 -246.80371 4294967050
485.94144 1324.4584 -246.87772 4294967050
496.32104 1323.1416 -246.90353 4294967050
503.23532 1324.8885 -246.79861 4294967050
503.82394 1327.5795 -246.97485 4294967050
503.53799 1332.8199 -246.80904 4294967050
504.00369 1339.5953 -246.85773 4294967050
503.27646 1343.2257 -246.8494 4294967050
491.16495 1345.9766 -246.68056 4294967050
495.79214 1346.2223 -246.74359 4294967050
502.6972 1344.4028 -246.66064 4294967050
493.67175 1323.7484 -245.12581 4294967051
503.78528 1330.1227 -245.26578 4294967051
495.3653 1346.1902 -245.0937 4294967051
500.15497 1346.2521 -245.256 4294967051
482.87228 1322.6624 -244.9623 4294967052
500.81357 1322.9631 -244.92491 4294967052
485.8765 1324.5995 -244.58502 4294967052
488.76575 1324.6376 -244.79446 4294967052
491.30179 1324.2664 -244.65331 4294967052
496.49832 1323.2261 -244.73055 4294967052
502.74814 1323.8562 -244.95912 4294967052
503.754 1326.8378 -244.92287 4294967052
503.33621 1343.1213 -244.87224 4294967052
490.93365 1346.0907 -244.90205 4294967052
498.85156 1346.5405 -244.76224 4294967052
502.24506 1344.9287 -244.89796 4294967052
496.22321 1323.364 -243.02994 4294967053
503.96024 1339.7716 -243.07982 4294967053
503.28458 1343.2335 -243.20197 4294967053
482.91595 1323.3242 -242.81541 4294967054
484.82291 1324.2487 -242.24017 4294967054
491.1131 1324.4175 -242.91408 4294967054
503.59793 1325.4425 -242.75879 4294967054
503.74689 1326.7339 -242.96878 4294967054
491.2648 1346.0717 -242.83493 4294967054
495.44608 1346.2771 -242.67737 4294967054
498.16888 1346.562 -242.62337 4294967054
500.63702 1346.0681 -242.87663 4294967054
502.33542 1344.9811 -242.51117 4294967054
484.70361 1324.2841 -241.36525 4294967055
486.11011 1324.8346 -241.05537 4294967055
493.21381 1324.094 -241.24739 4294967055
502.75403 1323.7964 -241.15327 4294967055
503.89355 1339.6543 -241.03264 4294967055
503.48529 1342.6313 -241.11377 4294967055
490.2482 1346.2278 -241.05002 4294967055
493.3826 1346.2755 -241.04417 4294967055
483.35852 1323.6333 -240.81197 4294967056
488.87912 1324.8585 -240.73581 4294967056
491.35889 1324.4967 -240.87926 4294967056
503.73605 1326.1844 -240.43324 4294967056
498.72354 1346.6858 -240.95499 4294967056
501.48801 1345.7314 -240.74861 4294967056
482.29324 1322.2924 -239.60649 4294967057
495.7312 1323.6808 -239.19582 4294967057
500.2345 1323.1461 -239.06757 4294967057
489.66138 1346.4115 -239.13351 4294967057
481.67343 1320.8812 -238.71613 4294967058
484.97116 1324.5918 -238.16122 4294967058
486.43604 1324.8475 -238.98445 4294967058
491.87894 1324.4868 -238.24582 4294967058
502.47241 1323.7412 -238.86127 4294967058
503.72748 1326.9377 -238.71996 4294967058
503.74353 1339.327 -238.50774 4294967058
503.2493 1343.8265 -238.81233 4294967058
492.9812 1346.3397 -238.32552 4294967058
495.57416 1346.5232 -238.91306 4294967058
498.84097 1346.7678 -238.44321 4294967058
500.67981 1346.2456 -238.79236 4294967058
484.54504 1324.4506 -237.30437 4294967059
495.27988 1323.8657 -237.33472 4294967059
502.53641 1323.9948 -237.10567 4294967059
503.71753 1339.6008 -237.21913 4294967059
503.67578 1342.1196 -237.04077 4294967059
491.24478 1346.5553 -237.06609 4294967059
493.37643 1346.5302 -237.09532 4294967059
481.62595 1321.0358 -236.85724 4294967060
483.07751 1323.6055 -236.52415 4294967060
488.64453 1325.0942 -236.69772 4294967060
491.41159 1324.5919 -236.91223 4294967060
500.09335 1323.4041 -236.73961 4294967060
503.62384 1326.8882 -236.83366 4294967060
495.77228 1346.7391 -236.82715 4294967060
498.46536 1346.8435 -236.88931 4294967060
500.50018 1346.4093 -236.59377 4294967060
502.89221 1344.979 -236.72639 4294967060
482.5903 1323.0623 -235.22339 4294967061
501.66971 1323.8108 -235.32356 4294967061
502.72852 1324.8049 -235.10089 4294967061
503.25406 1325.6892 -235.08243 4294967061
503.63409 1339.5756 -235.12138 4294967061
503.55835 1342.6042 -235.08015 4294967061
489.06705 1347.1432 -235.05476 4294967061
481.78085 1317.955 -234.80119 4294967062
481.58157 1320.9601 -234.98601 4294967062
483.51285 1324.125 -234.65349 4294967062
484.68439 1324.665 -234.72467 4294967062
486.14203 1325.2112 -234.7989 4294967062
496.22177 1323.75 -234.664 4294967062
500.04681 1323.5245 -234.90335 4294967062
503.40576 1336.9014 -234.62596 4294967062
503.2897 1343.9274 -234.84142 4294967062
493.4967 1346.7111 -234.76515 4294967062
496.06598 1346.858 -234.83199 4294967062
498.86215 1346.8196 -234.73325 4294967062
501.86633 1346.0608 -234.70532 4294967062
482.11075 1322.7432 -233.70818 4294967063
483.24307 1323.9991 -233.03566 4294967063
493.60681 1324.2874 -233.0419 4294967063
496.06116 1323.8447 -233.21802 4294967063
502.79257 1345.0107 -233.17563 4294967063
486.48093 1325.1718 -232.90923 4294967064
488.67661 1325.3076 -232.64871 4294967064
499.46744 1323.5873 -232.99161 4294967064
502.06778 1324.2203 -232.74371 4294967064
503.12915 1325.9415 -232.44733 4294967064
503.42456 1327.0294 -232.89798 4294967064
503.60336 1342.0139 -232.92781 4294967064
493.55698 1346.9349 -232.88676 4294967064
498.57797 1346.9695 -232.72389 4294967064
500.56821 1346.6019 -232.99464 4294967064
503.25037 1344.0426 -232.73578 4294967064
489.37289 1347.3462 -232.76236 4294967064
483.46921 1324.2428 -231.06244 4294967065
488.62347 1325.3945 -231.04262 4294967065
491.32031 1324.865 -231.38599 4294967065
503.06274 1326.0139 -231.00002 4294967065
481.57581 1321.0814 -230.8878 4294967066
482.32306 1322.8777 -230.73795 4294967066
496.07156 1323.9392 -230.75865 4294967066
499.46246 1323.6786 -230.83044 4294967066
500.65985 1323.8809 -230.43446 4294967066
503.46738 1339.5067 -230.86633 4294967066
503.45184 1342.8267 -230.93942 4294967066
493.59372 1346.9724 -230.6366 4294967066
501.88763 1346.1788 -230.94238 4294967066
503.32794 1344.0671 -230.78308 4294967066
495.83875 1347.0961 -230.77798 4294967066
498.70587 1347.0259 -230.9808 4294967066
481.98605 1322.1692 -229.00815 4294967067
486.36502 1325.5063 -229.20227 4294967067
503.43213 1342.2274 -229.049 4294967067
481.48685 1320.9866 -228.71906 4294967068
482.97546 1323.9681 -228.79726 4294967068
491.26294 1324.9918 -228.45706 4294967068
496.28336 1323.9691 -228.53302 4294967068
499.47617 1323.8245 -228.82553 4294967068
503.06247 1325.796 -228.5802 4294967068
503.38028 1327.0952 -228.64517 4294967068
503.78833 1329.7754 -228.71327 4294967068
501.78635 1346.2542 -228.67039 4294967068
502.72067 1345.0173 -228.89137 4294967068
493.8671 1347.0857 -228.94183 4294967068
498.72513 1347.0472 -228.9489 4294967068
481.48224 1320.0746 -227.01202 4294967069
483.29236 1324.4535 -227.31395 4294967069
503.41107 1342.1406 -227.26031 4294967069
500.54465 1346.7042 -227.52145 4294967069
501.97925 1346.0916 -227.06142 4294967069
495.47012 1347.2203 -227.06259 4294967069
499.03796 1347.0637 -227.14851 4294967069
482.36298 1323.1726 -226.9034 4294967070
486.22156 1325.6298 -226.80597 4294967070
488.71069 1325.4963 -226.81343 4294967070
493.50082 1324.5292 -226.55417 4294967070
495.85678 1324.1033 -226.60172 4294967070
499.38516 1323.8834 -226.85153 4294967070
502.1322 1324.8461 -226.61859 4294967070
503.42087 1327.3677 -226.74309 4294967070
503.75833 1329.7047 -226.8987 4294967070
489.12286 1347.6577 -226.76755 4294967070
493.61218 1347.207 -226.94005 4294967070
484.05286 1325.2267 -225.07875 4294967071
491.15909 1325.1787 -225.08913 4294967071
503.60464 1329.6381 -225.013 4294967071
502.39087 1345.6248 -225.27843 4294967071
481.47092 1319.8929 -224.78299 4294967072
482.10623 1323.2811 -224.9859 4294967072
488.50052 1325.6208 -224.76971 4294967072
496.00546 1324.204 -224.63606 4294967072
499.18423 1323.9694 -224.73332 4294967072
500.67508 1324.197 -224.86986 4294967072
503.0275 1325.9733 -224.8387 4294967072
503.26395 1326.9978 -224.89761 4294967072
500.23059 1346.8687 -224.79822 4294967072
503.00058 1344.1449 -224.68462 4294967072
493.27975 1347.218 -224.69838 4294967072
496.09393 1347.3058 -224.93204 4294967072
498.73825 1347.183 -224.79395 4294967072
485.51364 1325.8224 -223.19386 4294967073
488.54739 1325.6199 -223.18745 4294967073
502.28992 1325.017 -223.14713 4294967073
503.15692 1326.9797 -223.02136 4294967073
481.74942 1322.1062 -222.89613 4294967074
483.35739 1325.1859 -222.77722 4294967074
491.02798 1325.2556 -222.63332 4294967074
493.66098 1324.7217 -222.58337 4294967074
496.17279 1324.2537 -222.67442 4294967074
499.18381 1324.0905 -222.84787 4294967074
503.50507 1329.6869 -222.78719 4294967074
503.30435 1341.8739 -222.81059 4294967074
500.35602 1346.807 -222.89252 4294967074
502.4227 1344.9999 -222.60895 4294967074
496.28674 1347.4006 -222.73572 4294967074
498.73596 1347.3484 -222.56326 4294967074
499.29562 1324.204 -221.20953 4294967075
481.57828 1322.2283 -220.69824 4294967076
482.90863 1325.0883 -220.92102 4294967076
484.01794 1325.7034 -220.94302 4294967076
488.91559 1325.6232 -220.68913 4294967076
493.39008 1324.8385 -220.79997 4294967076
496.0918 1324.3616 -220.53012 4294967076
502.22568 1325.1042 -220.97696 4294967076
503.03738 1327.0344 -220.40916 4294967076
503.48679 1329.5797 -220.8887 4294967076
502.98758 1343.9559 -220.78932 4294967076
500.39636 1346.7687 -220.95604 4294967076
501.45361 1346.1571 -220.89461 4294967076
496.19446 1347.3567 -220.5433 4294967076
482.33655 1324.7245 -219.31267 4294967077
488.35696 1325.8151 -219.03006 4294967077
493.51599 1324.8665 -219.17688 4294967077
496.15057 1324.3992 -219.00473 4294967077
499.36206 1324.2911 -219.0656 4294967077
500.57166 1324.5166 -219.1241 4294967077
502.92365 1326.6375 -219.10687 4294967077
493.27585 1347.265 -219.16751 4294967077
483.16922 1325.5045 -218.70262 4294967078
491.34192 1325.2773 -218.57681 4294967078
502.17871 1325.2306 -218.87483 4294967078
485.43304 1326.0723 -218.75499 4294967078
503.43292 1329.1993 -218.8688 4294967078
501.95416 1345.5159 -218.87015 4294967078
498.55652 1347.4355 -218.58545 4294967078
481.35269 1322.0264 -217.28462 4294967079
502.21484 1325.4327 -217.1286 4294967079
502.88596 1339.5465 -217.14183 4294967079
483.05807 1325.5568 -216.88417 4294967080
489.1062 1325.8217 -216.82405 4294967080
491.25623 1325.4812 -216.39235 4294967080
493.40933 1324.8986 -216.84845 4294967080
496.43365 1324.4189 -216.80916 4294967080
500.4968 1324.653 -216.73389 4294967080
502.96378 1331.6875 -216.61018 4294967080
503.19464 1329.1038 -216.51178 4294967080
502.86746 1343.9562 -216.81383 4294967080
503.15375 1342.0184 -216.92577 4294967080
499.89694 1346.9478 -216.96893 4294967080
501.81638 1345.6353 -216.97093 4294967080
493.06128 1347.3646 -216.92548 4294967080
495.88806 1347.6125 -216.80391 4294967080
498.40866 1347.5085 -216.88586 4294967080
481.34012 1322.7676 -215.06448 4294967081
482.7377 1325.4933 -215.00595 4294967081
489.55655 1325.8175 -215.16808 4294967081
496.41135 1324.5126 -215.26009 4294967081
499.23941 1324.6127 -215.24364 4294967081
500.61768 1324.8667 -215.15706 4294967081
485.39752 1326.2888 -215.75267 4294967081
502.66382 1336.9891 -215.01379 4294967081
501.4913 1345.9922 -215.12645 4294967081
490.4162 1347.8528 -215.11249 4294967081
493.39081 1325.0095 -214.77493 4294967082
502.28094 1325.8302 -214.5903 4294967082
502.83884 1329.1348 -214.21457 4294967082
502.71463 1334.8594 -214.79268 4294967082
502.84998 1339.4929 -214.79945 4294967082
502.94193 1343.783 -214.61011 4294967082
492.93579 1347.4893 -214.64513 4294967082
495.90289 1347.7068 -214.96825 4294967082
498.13538 1347.5455 -214.70172 4294967082
481.9422 1324.4122 -213.09615 4294967083
491.28549 1325.5441 -213.02 4294967083
493.72098 1325.0673 -213.07454 4294967083
502.0726 1325.7391 -213.37151 4294967083
485.54214 1326.4779 -213.39874 4294967083
488.66269 1326.0593 -213.1572 4294967083
503.18878 1342.5399 -213.00563 4294967083
495.65421 1347.7546 -213.11024 4294967083
481.06836 1322.1826 -212.81126 4294967084
496.28302 1324.6642 -212.58458 4294967084
499.37793 1324.7931 -212.41821 4294967084
500.40317 1325.0065 -212.5238 4294967084
484.16846 1326.1313 -212.8253 4294967084
502.95746 1327.5343 -212.81831 4294967084
502.59579 1330.6121 -212.27382 4294967084
502.76953 1339.5018 -212.64601 4294967084
501.24219 1346.1617 -212.53824 4294967084
502.25586 1344.9487 -212.7874 4294967084
493.13361 1347.7799 -212.85248 4294967084
498.56793 1347.6216 -212.74568 4294967084
499.83334 1347.0957 -212.58409 4294967084
481.79242 1324.3276 -211.83665 4294967085
497.09418 1324.598 -211.27126 4294967085
499.68042 1325.4695 -211.0011 4294967085
485.28314 1326.6278 -211.2345 4294967085
501.40012 1326.7795 -211.30702 4294967085
502.32346 1328.7029 -211.52623 4294967085
502.56393 1334.6411 -211.65732 4294967085
501.45599 1345.9894 -211.02356 4294967085
502.32437 1344.6287 -211.27016 4294967085
495.50552 1347.8003 -211.14621 4294967085
481.19577 1322.6262 -210.7804 4294967086
482.31473 1325.3278 -210.92162 4294967086
483.10818 1325.918 -210.48672 4294967086
491.59106 1325.6533 -210.67352 4294967086
487.59644 1326.4355 -210.19904 4294967086
502.5235 1339.4441 -210.18359 4294967086
502.57019 1342.0509 -210.86006 4294967086
488.80728 1348.799 -210.96729 4294967086
498.24841 1347.7982 -210.97699 4294967086
494.46967 1325.2219 -209.92705 4294967087
498.88965 1325.4768 -209.55537 4294967087
485.68378 1326.6987 -209.55341 4294967087
488.90222 1326.2211 -209.22539 4294967087
500.19333 1326.4893 -209.08328 4294967087
501.47238 1328.871 -209.07317 4294967087
502.41751 1336.1931 -209.29601 4294967087
502.17383 1343.6121 -209.81784 4294967087
491.01306 1347.8796 -209.0448 4294967087
495.27988 1347.8171 -209.03786 4294967087
499.6633 1347.275 -209.00662 4294967087
486.98831 1350.7794 -209.06038 4294967087
481.58292 1324.1493 -208.77707 4294967088
496.14761 1325.1683 -208.87543 4294967088
497.59708 1325.3623 -208.46754 4294967088
499.02734 1325.8208 -208.228 4294967088
502.07101 1331.5646 -208.91948 4294967088
502.11523 1342.4994 -208.04688 4294967088
501.3837 1345.1633 -208.93884 4294967088
481.00897 1322.7246 -207.00491 4294967089
491.83374 1325.8055 -207.87508 4294967089
484.32416 1326.425 -207.08525 4294967089
499.4241 1326.3644 -207.36977 4294967089
500.22122 1327.3135 -207.39426 4294967089
502.06195 1333.4795 -207.37506 4294967089
491.05063 1347.7452 -207.05136 4294967089
497.85559 1347.9089 -207.02528 4294967089
481.56021 1324.4901 -206.76295 4294967090
495.46292 1325.6642 -206.35983 4294967090
498.09964 1325.9102 -206.91138 4294967090
485.96838 1326.5947 -206.94733 4294967090
489.15799 1326.2327 -206.76314 4294967090
500.47205 1328.4768 -206.20264 4294967090
501.41583 1330.7651 -206.44144 4294967090
502.18823 1335.9713 -206.35988 4294967090
502.31256 1339.0566 -206.96851 4294967090
500.27536 1346.9604 -206.77579 4294967090
501.23566 1345.0161 -206.4303 4294967090
488.24811 1348.9961 -206.85774 4294967090
495.58716 1347.9459 -206.88263 4294967090
486.57205 1351.2817 -206.77174 4294967090
483.18796 1326.1593 -205.39973 4294967091
484.14453 1326.4703 -205.17354 4294967091
486.39459 1326.6173 -205.19162 4294967091
497.42453 1326.0272 -205.8334 4294967091
498.84393 1326.838 -205.39543 4294967091
501.80225 1333.3314 -205.40909 4294967091
502.25952 1339.7585 -205.07716 4294967091
501.755 1343.744 -205.30307 4294967091
502.17258 1341.5035 -205.40758 4294967091
495.75098 1348.0537 -205.03723 4294967091
480.68213 1322.8077 -204.96234 4294967092
489.39435 1326.235 -204.80942 4294967092
491.47394 1326.0261 -204.73206 4294967092
497.06299 1326.0608 -204.87926 4294967092
499.75583 1328.0835 -204.56789 4294967092
500.4371 1329.3678 -204.32516 4294967092
502.10077 1336.6733 -204.43951 4294967092
500.11093 1346.3087 -204.32611 4294967092
501.18912 1345.08 -204.93336 4294967092
487.66061 1349.2098 -204.93883 4294967092
488.99701 1348.193 -204.74092 4294967092
493.32327 1347.7399 -204.81319 4294967092
498.10284 1347.9033 -204.58989 4294967092
486.73419 1350.3705 -204.67801 4294967092
485.69382 1354.145 -204.9915 4294967092
494.13745 1325.9005 -203.16626 4294967093
496.03055 1325.9119 -203.89519 4294967093
497.42096 1326.4351 -203.30272 4294967093
501.12842 1331.3075 -203.96747 4294967093
501.66034 1333.7358 -203.43658 4294967093
501.98563 1336.0004 -203.21396 4294967093
502.20483 1340.5305 -203.67035 4294967093
501.95087 1342.9081 -203.302 4294967093
501.22324 1344.8911 -203.52881 4294967093
487.35458 1349.2739 -203.05273 4294967093
493.17032 1347.7915 -203.08344 4294967093
485.98038 1351.7938 -203.1172 4294967093
480.49811 1322.7838 -202.97371 4294967094
484.40421 1326.6273 -202.80841 4294967094
486.41824 1326.7542 -202.97118 4294967094
488.73071 1326.4672 -202.4659 4294967094
495.96185 1326.0836 -202.04372 4294967094
499.12305 1328.0073 -202.37343 4294967094
500.40955 1330.022 -202.62663 4294967094
502.20441 1339.5674 -202.28308 4294967094
490.45035 1347.708 -202.84671 4294967094
495.79233 1348.2264 -202.90501 4294967094
498.0751 1347.4952 -202.18158 4294967094
481.63727 1325.549 -201.03241 4294967095
483.16458 1326.483 -201.14008 4294967095
484.34201 1326.7786 -201.0506 4294967095
486.28433 1326.9072 -201.14325 4294967095
489.32367 1326.5022 -201.32231 4294967095
491.58505 1326.1595 -201.86626 4294967095
497.42892 1326.6665 -201.43837 4294967095
501.00217 1331.7784 -201.8519 4294967095
501.84555 1335.496 -201.76875 4294967095
502.09183 1337.6992 -201.44896 4294967095
502.0817 1342.3005 -201.74571 4294967095
500.2048 1346.1752 -201.40948 4294967095
501.5416 1344.3625 -201.66132 4294967095
485.79584 1352.1462 -201.65218 4294967095
480.30521 1322.6693 -200.8727 4294967096
480.93631 1324.3446 -200.88474 4294967096
494.27261 1326.0796 -200.32877 4294967096
496.41342 1326.3466 -200.27655 4294967096
500.21814 1330.028 -200.78566 4294967096
501.47513 1333.8601 -200.7765 4294967096
502.19788 1340.2368 -200.3654 4294967096
501.2695 1345.1964 -200.09793 4294967096
487.23462 1349.3403 -200.71068 4294967096
490.23663 1347.8239 -200.97423 4294967096
493.22852 1347.9384 -200.96609 4294967096
495.88879 1348.337 -200.70631 4294967096
486.30582 1350.6965 -200.12444 4294967096
485.46573 1354.0389 -200.75751 4294967096
480.40881 1322.9485 -199.01715 4294967097
480.68121 1324.1124 -199.10228 4294967097
482.13116 1326.2869 -199.04712 4294967097
484.16052 1326.9003 -199.43973 4294967097
491.64883 1326.2587 -199.33658 4294967097
498.11893 1327.3529 -199.22052 4294967097
499.43311 1328.7375 -199.82417 4294967097
500.88855 1331.9833 -199.55222 4294967097
501.8262 1336.068 -199.6899 4294967097
502.02945 1343.1301 -199.7345 4294967097
496.35141 1348.4347 -199.03885 4294967097
485.58069 1353.9167 -199.12187 4294967097
481.16098 1325.1359 -198.69725 4294967098
486.21048 1327.0649 -198.92627 4294967098
489.42572 1326.5398 -198.61932 4294967098
496.13052 1326.4221 -198.38303 4294967098
499.36469 1328.7712 -198.08028 4294967098
500.15829 1330.2036 -198.58183 4294967098
501.3898 1334.1729 -198.24287 4294967098
502.18039 1339.6863 -198.51601 4294967098
500.47165 1346.3594 -198.79446 4294967098
501.52493 1345.1847 -198.6516 4294967098
487.4061 1349.2964 -198.85405 4294967098
488.58292 1348.5466 -198.82143 4294967098
490.26346 1347.9396 -198.96114 4294967098
493.35666 1348.0812 -198.69989 4294967098
498.19598 1347.6305 -198.84541 4294967098
485.84006 1351.8188 -198.6599 4294967098
480.57639 1324.2129 -197.181 4294967099
483.14679 1326.7158 -197.22629 4294967099
494.047 1326.1781 -197.42346 4294967099
