# .PCD v0.7 - Point Cloud Data file format
VERSION 0.7
FIELDS x y z rgba
SIZE 4 4 4 4
TYPE F F F U
COUNT 1 1 1 1
WIDTH 1147
HEIGHT 1
VIEWPOINT 0 0 0 1 0 0 0
POINTS 1147
DATA ascii
145.36081 1347.7501 -625.40198 4294966671
147.5491 1347.6783 -625.39581 4294966671
149.62184 1347.5627 -625.38074 4294966671
151.50302 1348.8364 -625.29999 4294966671
153.50269 1348.905 -625.21893 4294966671
155.33505 1347.9221 -625.32172 4294966671
157.43575 1347.9637 -625.30353 4294966671
159.52867 1348.9714 -625.16479 4294966671
161.53674 1347.9827 -625.21179 4294966671
163.57301 1347.9839 -625.16064 4294966671
165.34875 1348.1682 -625.24054 4294966671
167.56201 1348.1487 -625.0296 4294966671
169.47948 1348.1549 -625.01019 4294966671
171.57236 1348.1168 -625.00366 4294966671
173.42114 1348.1703 -625.15527 4294966671
175.45598 1347.8922 -625.19189 4294966671
177.52705 1347.9053 -625.16449 4294966671
97.746384 1351.7727 -625.10754 4294966671
99.088089 1351.9301 -625.15143 4294966671
101.5767 1351.9388 -625.1911 4294966671
103.49097 1351.995 -625.23505 4294966671
105.42854 1351.9684 -625.27075 4294966671
107.4579 1352.049 -625.31689 4294966671
109.56038 1352.0897 -625.38263 4294966671
111.43713 1352.1042 -625.43237 4294966671
113.39391 1352.0413 -625.47906 4294966671
115.60264 1352.1189 -625.52448 4294966671
117.42293 1351.9911 -625.52753 4294966671
119.37791 1351.9398 -625.55145 4294966671
123.48374 1351.9523 -625.53802 4294966671
125.26527 1351.9221 -625.50555 4294966671
127.58266 1351.9338 -625.44696 4294966671
129.53822 1351.9285 -625.39099 4294966671
131.55396 1350.1013 -625.599 4294966671
133.49074 1351.0314 -625.40674 4294966671
135.49532 1351.0087 -625.36298 4294966671
137.39668 1351.9535 -625.15997 4294966671
139.48938 1351.0125 -625.28497 4294966671
141.58609 1350.1229 -625.5799 4294966671
143.49875 1350.9855 -625.203 4294966671
145.53932 1350.0879 -625.33496 4294966671
147.47278 1350.053 -625.28217 4294966671
149.39195 1350.0398 -625.21564 4294966671
155.45001 1350.047 -625.09985 4294966671
157.67308 1350 -625.07251 4294966671
91.565102 1353.9681 -625.02826 4294966671
107.40936 1354.0907 -625.01715 4294966671
109.51892 1354.0232 -625.08484 4294966671
113.33647 1353.9668 -625.10608 4294966671
115.62868 1354.0121 -625.20612 4294966671
119.46967 1353.7292 -625.09393 4294966671
121.68568 1353.6456 -625.07056 4294966671
123.41354 1353.5792 -625.03796 4294966671
215.36438 1331.8762 -624.13513 4294966672
217.33229 1331.8945 -624.20697 4294966672
231.43343 1329.4629 -624.04517 4294966672
233.33722 1329.494 -624.05664 4294966672
238.13342 1331.9485 -624.01208 4294966672
169.32182 1333.639 -624.03754 4294966672
171.17421 1333.564 -624.14581 4294966672
185.28566 1333.5592 -624.02795 4294966672
213.51176 1334.7352 -624.11188 4294966672
217.26176 1334.3541 -624.21686 4294966672
219.42018 1333.3955 -624.25128 4294966672
221.42166 1333.4865 -624.25879 4294966672
225.44388 1332.2625 -624.25195 4294966672
227.40323 1333.3545 -624.25793 4294966672
229.36629 1333.3921 -624.25037 4294966672
231.31769 1333.4209 -624.21313 4294966672
240.43066 1333.4745 -624.091 4294966672
242.69106 1334.9625 -624.22253 4294966672
243.58371 1332.998 -624.05188 4294966672
244.86496 1334.314 -624.1842 4294966672
245.74883 1333.2792 -624.08563 4294966672
247.01004 1332.7261 -624.04175 4294966672
248.34142 1332.6731 -624.08331 4294966672
250.09534 1332.713 -624.17853 4294966672
251.0204 1334.1294 -624.29919 4294966672
99.431046 1337.7522 -624.2077 4294966672
105.25806 1337.6965 -624.46173 4294966672
109.26499 1337.5591 -624.48669 4294966672
111.61836 1336.4172 -624.1759 4294966672
113.26473 1336.7476 -624.37305 4294966672
115.52702 1335.9067 -624.11676 4294966672
117.47923 1336.3064 -624.2627 4294966672
119.45098 1337.5431 -624.8186 4294966672
121.09776 1337.7628 -624.83185 4294966672
125.35974 1337.64 -624.6485 4294966672
139.49875 1335.9132 -624.28839 4294966672
141.41428 1337.0198 -624.51459 4294966672
143.38351 1336.905 -624.48224 4294966672
145.42291 1335.9158 -624.29797 4294966672
149.50783 1335.7094 -624.32324 4294966672
151.34802 1335.6505 -624.33844 4294966672
153.32367 1335.6814 -624.5332 4294966672
155.25111 1335.5908 -624.53558 4294966672
157.24997 1335.6677 -624.56696 4294966672
165.63876 1335.9635 -624.31055 4294966672
167.32233 1335.8829 -624.44769 4294966672
169.27641 1335.7814 -624.51947 4294966672
217.34489 1336.8673 -624.29443 4294966672
235.72905 1337.2455 -624.35095 4294966672
239.69942 1336.9722 -624.34583 4294966672
242.88664 1336.833 -624.34198 4294966672
244.7075 1335.9454 -624.29663 4294966672
245.60712 1337.2709 -624.33929 4294966672
246.68103 1337.7485 -624.33191 4294966672
247.71396 1336.5079 -624.30029 4294966672
248.71875 1337.261 -624.33917 4294966672
250.3808 1337.2396 -624.3443 4294966672
251.14294 1335.6622 -624.34015 4294966672
85.391373 1339.8224 -624.01825 4294966672
89.309128 1339.6536 -624.3432 4294966672
93.406952 1339.601 -624.53607 4294966672
97.33419 1338.8169 -624.27631 4294966672
99.314453 1339.5988 -624.79022 4294966672
101.42356 1339.5177 -624.7713 4294966672
107.28983 1339.7666 -624.83716 4294966672
109.2506 1339.6986 -624.78143 4294966672
111.35519 1339.7937 -624.98157 4294966672
133.32533 1338.0396 -624.65894 4294966672
151.41278 1339.4686 -624.6355 4294966672
163.57233 1339.6215 -624.47705 4294966672
165.45422 1338.4825 -624.42096 4294966672
169.22606 1338.4026 -624.40216 4294966672
185.54109 1340.9485 -624.27734 4294966672
187.51813 1340.8586 -624.24146 4294966672
191.36961 1340.9454 -624.18451 4294966672
205.62946 1340.9604 -624.44312 4294966672
215.42212 1338.8311 -624.41095 4294966672
231.31905 1338.9174 -624.50513 4294966672
237.51921 1339.7074 -624.57587 4294966672
239.54193 1339.5389 -624.52679 4294966672
241.564 1339.6362 -624.42896 4294966672
243.82491 1339.7988 -624.34076 4294966672
245.52946 1339.2314 -624.3233 4294966672
247.51199 1339.5334 -624.29114 4294966672
249.38792 1338.7711 -624.32642 4294966672
252.16791 1339.3986 -624.26129 4294966672
79.558441 1341.6118 -624.14941 4294966672
83.278793 1341.8458 -624.46136 4294966672
85.298088 1341.9402 -624.59125 4294966672
89.198761 1341.6621 -624.73846 4294966672
93.272995 1341.9312 -624.78308 4294966672
95.337738 1341.84 -624.81952 4294966672
97.4431 1342.1807 -624.77545 4294966672
101.01881 1342.2502 -624.74902 4294966672
103.3072 1342.38 -624.72986 4294966672
105.17168 1342.2615 -624.74194 4294966672
161.47791 1342.9325 -624.68225 4294966672
165.59642 1342.9233 -624.53094 4294966672
167.32278 1342.9446 -624.54108 4294966672
187.40845 1343.4227 -624.60107 4294966672
189.50632 1343.3354 -624.54907 4294966672
201.41003 1343.7136 -624.77911 4294966672
203.48682 1343.7894 -624.84491 4294966672
205.49266 1343.7458 -624.88043 4294966672
207.31195 1343.807 -624.83783 4294966672
209.64064 1342.4781 -624.76941 4294966672
211.34772 1342.465 -624.7439 4294966672
213.29817 1343.9454 -624.8999 4294966672
215.49529 1342.5115 -624.77808 4294966672
217.54756 1342.6006 -624.82861 4294966672
219.51132 1342.6587 -624.83002 4294966672
223.44769 1341.6088 -624.80511 4294966672
227.46346 1341.5897 -624.82007 4294966672
229.15346 1341.6122 -624.83875 4294966672
231.77647 1341.7015 -624.8941 4294966672
233.47491 1341.7831 -624.90753 4294966672
235.40956 1341.8645 -624.83466 4294966672
237.54181 1341.896 -624.84564 4294966672
239.29071 1341.9237 -624.52869 4294966672
241.81723 1343.3511 -624.07782 4294966672
245.98294 1342.313 -624.02454 4294966672
249.92583 1341.4797 -624.12274 4294966672
79.496941 1345.632 -624.14563 4294966672
105.55758 1346.9747 -624.84521 4294966672
109.32471 1344.7592 -624.77264 4294966672
113.56081 1344.8513 -624.84161 4294966672
149.40723 1344.9592 -624.98114 4294966672
163.49559 1345.4805 -624.97339 4294966672
165.36685 1345.3756 -624.91626 4294966672
167.7366 1345.5046 -624.92761 4294966672
169.5237 1345.7352 -624.98273 4294966672
185.62263 1345.9166 -624.8725 4294966672
187.62451 1345.9434 -624.80896 4294966672
189.51649 1345.9514 -624.77704 4294966672
191.47363 1346.0653 -624.78101 4294966672
193.48712 1346.6683 -624.71375 4294966672
195.54068 1346.6055 -624.7066 4294966672
199.51195 1346.1138 -624.72552 4294966672
201.47615 1346.0667 -624.69135 4294966672
205.48718 1346.0226 -624.67664 4294966672
207.70421 1345.9863 -624.67365 4294966672
211.45274 1346.1504 -624.66925 4294966672
213.55315 1346.0571 -624.63873 4294966672
217.47186 1346.0269 -624.64349 4294966672
221.3792 1346.0262 -624.57568 4294966672
223.38864 1345.1018 -624.70032 4294966672
225.53049 1345.9381 -624.46539 4294966672
227.50671 1344.9503 -624.60193 4294966672
229.43158 1344.9539 -624.53601 4294966672
231.601 1344.8025 -624.49005 4294966672
233.54036 1345.2917 -624.29022 4294966672
235.52274 1344.6917 -624.43604 4294966672
237.36418 1345.23 -624.17914 4294966672
239.49657 1344.0155 -624.53687 4294966672
77.367317 1348.9645 -624.08905 4294966672
99.301048 1349.1104 -624.95782 4294966672
111.50778 1347.0007 -624.95294 4294966672
163.43251 1349.8906 -624.91235 4294966672
169.60255 1349.9067 -624.76434 4294966672
171.55804 1349.8402 -624.5874 4294966672
173.46371 1349.7285 -624.54919 4294966672
175.57558 1349.676 -624.48938 4294966672
179.36736 1349.3979 -624.60858 4294966672
183.39882 1347.9198 -624.77606 4294966672
185.43692 1349.1731 -624.19281 4294966672
187.50226 1348.0856 -624.58099 4294966672
189.5419 1348.6801 -624.38562 4294966672
193.64496 1348.1488 -624.59241 4294966672
195.39561 1349.1689 -624.15198 4294966672
197.6424 1347.8915 -624.41046 4294966672
199.56151 1347.7692 -624.36084 4294966672
203.28336 1347.6263 -624.24036 4294966672
207.55971 1347.3173 -624.23883 4294966672
209.57404 1347.3152 -624.21344 4294966672
211.36365 1347.2559 -624.22565 4294966672
213.49055 1347.2782 -624.17725 4294966672
215.4541 1347.297 -624.15234 4294966672
217.42688 1347.2552 -624.12787 4294966672
219.64967 1347.1124 -624.14587 4294966672
221.4621 1347.0691 -624.10803 4294966672
75.56147 1351.3469 -624.17151 4294966672
79.52887 1351.4546 -624.53064 4294966672
81.525681 1351.5872 -624.71094 4294966672
85.497787 1351.6245 -624.9455 4294966672
87.24984 1351.4801 -624.99347 4294966672
145.51874 1351.7656 -624.94861 4294966672
147.40709 1352.3557 -624.44043 4294966672
149.48169 1351.4449 -624.78369 4294966672
151.62151 1351.3685 -624.70166 4294966672
155.48355 1351.2675 -624.60486 4294966672
157.4256 1351.1957 -624.59082 4294966672
159.60829 1351.2109 -624.52362 4294966672
161.53171 1350.1224 -624.95428 4294966672
163.34502 1351.1791 -624.38708 4294966672
167.38776 1350.5581 -624.50513 4294966672
169.55862 1350.9905 -624.10913 4294966672
79.442535 1355.7468 -624.24146 4294966672
81.523148 1355.8868 -624.42157 4294966672
83.648621 1355.0143 -624.72083 4294966672
85.513924 1354.7168 -624.90875 4294966672
87.498962 1355.2678 -624.81653 4294966672
89.493301 1355.3442 -624.77673 4294966672
95.50695 1354.7517 -624.69287 4294966672
97.534554 1354.0117 -624.89038 4294966672
99.117264 1354.6338 -624.63611 4294966672
101.56415 1354.7297 -624.65161 4294966672
103.49397 1354.0192 -624.9679 4294966672
105.46462 1355.1509 -624.5155 4294966672
107.5418 1355.2249 -624.5202 4294966672
111.33714 1355.1541 -624.54559 4294966672
115.53872 1355.059 -624.48694 4294966672
117.54277 1354.8998 -624.49677 4294966672
119.45753 1354.7804 -624.48059 4294966672
121.36748 1354.6018 -624.51459 4294966672
127.33104 1353.7258 -624.67737 4294966672
129.40836 1353.2936 -624.83923 4294966672
131.52849 1353.1755 -624.79071 4294966672
137.51361 1353.0876 -624.59747 4294966672
141.40916 1353.0256 -624.46979 4294966672
143.40282 1353.0299 -624.35083 4294966672
85.268463 1357.0476 -624.02234 4294966672
87.389954 1357.0153 -624.05731 4294966672
221.4579 1328.335 -623.09583 4294966673
225.52757 1327.9415 -623.07294 4294966673
227.33656 1327.9097 -623.11774 4294966673
229.31975 1327.8286 -623.20868 4294966673
233.46806 1327.7533 -623.3584 4294966673
237.51866 1327.7244 -623.3114 4294966673
239.32492 1327.5447 -623.28888 4294966673
241.12651 1328.3397 -623.32135 4294966673
245.00478 1328.4401 -623.10925 4294966673
249.26106 1328.5812 -623.31171 4294966673
175.40186 1331.7218 -623.37225 4294966673
181.39429 1331.4297 -623.39807 4294966673
187.32814 1331.6151 -623.34668 4294966673
189.31696 1331.6532 -623.32727 4294966673
191.16731 1331.6799 -623.30829 4294966673
193.44754 1331.7784 -623.3045 4294966673
195.50572 1331.6846 -623.20203 4294966673
197.40303 1331.8411 -623.25842 4294966673
199.37311 1331.6571 -623.23102 4294966673
201.50577 1331.708 -623.3045 4294966673
205.45459 1330.5354 -623.27264 4294966673
206.897 1331.5448 -623.74042 4294966673
207.16309 1329.6653 -623.05212 4294966673
209.27631 1330.6228 -623.53198 4294966673
211.33572 1330.8315 -623.64832 4294966673
213.37332 1330.699 -623.66168 4294966673
227.29762 1329.7262 -623.78864 4294966673
229.46504 1329.6985 -623.85712 4294966673
237.12726 1329.5775 -623.97388 4294966673
239.62817 1330.5948 -623.83813 4294966673
242.23264 1330.4624 -623.70093 4294966673
245.46291 1331.215 -623.80548 4294966673
246.85342 1329.3224 -623.42639 4294966673
247.70514 1331.0168 -623.82379 4294966673
249.3371 1331.1818 -623.93549 4294966673
251.36626 1330.4637 -623.97119 4294966673
113.4216 1334.907 -623.29724 4294966673
115.56769 1334.8569 -623.34625 4294966673
117.47289 1334.8575 -623.39978 4294966673
119.3517 1334.728 -623.43182 4294966673
121.54269 1334.9943 -623.58533 4294966673
125.31089 1334.4534 -623.00989 4294966673
135.21069 1334.4409 -623.27252 4294966673
137.45825 1334.5387 -623.36066 4294966673
141.44617 1334.4601 -623.48676 4294966673
143.43929 1334.4249 -623.57837 4294966673
147.32401 1333.9965 -623.61688 4294966673
151.46069 1333.8289 -623.74969 4294966673
155.30676 1333.6331 -623.78949 4294966673
161.45317 1332.0394 -623.11267 4294966673
163.39165 1333.7517 -623.89917 4294966673
165.29785 1333.7421 -623.867 4294966673
167.39658 1333.2184 -623.60876 4294966673
169.61674 1332.3157 -623.21887 4294966673
187.19977 1333.6649 -623.87054 4294966673
189.56778 1333.7231 -623.81598 4294966673
191.43523 1333.9097 -623.78815 4294966673
193.42404 1333.8104 -623.72559 4294966673
195.26707 1333.809 -623.79108 4294966673
197.44821 1334.2264 -623.75037 4294966673
201.12292 1334.0994 -623.75494 4294966673
95.347969 1337.4596 -623.50439 4294966673
97.416138 1336.6282 -623.07874 4294966673
101.4444 1336.2974 -623.32104 4294966673
105.50668 1336.0378 -623.41412 4294966673
107.43238 1335.9016 -623.76178 4294966673
109.52948 1335.4911 -623.50415 4294966673
111.38695 1335.2676 -623.47577 4294966673
187.31961 1336.4037 -623.99573 4294966673
189.20374 1336.3774 -623.92914 4294966673
191.41809 1336.7006 -623.88312 4294966673
193.38086 1336.5918 -623.85706 4294966673
195.52197 1336.7495 -623.84436 4294966673
197.49304 1336.671 -623.828 4294966673
69.511963 1340.8955 -623.01837 4294966673
75.011932 1339.5775 -623.22729 4294966673
77.518059 1339.7148 -623.43427 4294966673
79.414742 1338.7444 -623.22827 4294966673
81.612869 1339.7637 -623.89667 4294966673
83.644257 1338.3782 -623.29773 4294966673
87.454208 1338.5895 -623.59314 4294966673
89.423729 1338.4116 -623.60999 4294966673
91.253807 1338.3104 -623.69745 4294966673
189.35652 1338.9232 -623.99518 4294966673
193.09337 1338.9199 -623.93243 4294966673
69.003357 1343.782 -623.30823 4294966673
71.189735 1341.5771 -623.35791 4294966673
73.372673 1341.4884 -623.55914 4294966673
75.370964 1341.6096 -623.87384 4294966673
248.79732 1343.6572 -623.81366 4294966673
251.32787 1343.8962 -623.66998 4294966673
67.124138 1345.4202 -623.09259 4294966673
75.515205 1345.468 -623.81256 4294966673
77.444038 1344.3549 -623.97314 4294966673
227.34261 1346.9952 -623.7594 4294966673
231.15843 1346.9003 -623.51135 4294966673
235.5201 1346.8224 -623.26587 4294966673
237.5076 1346.5558 -623.38727 4294966673
239.3761 1346.5447 -623.16461 4294966673
241.46545 1345.9615 -623.4054 4294966673
243.82323 1344.8948 -623.36865 4294966673
246.5927 1345.0726 -623.13025 4294966673
249.62468 1345.2809 -623.45764 4294966673
251.41951 1345.1538 -623.17505 4294966673
77.341614 1347.0016 -623.97827 4294966673
197.15448 1349.9723 -623.0318 4294966673
199.5798 1349.3593 -623.39636 4294966673
201.43117 1348.9779 -623.55444 4294966673
205.62076 1348.8752 -623.3374 4294966673
207.46568 1348.7559 -623.34888 4294966673
209.5143 1348.6445 -623.37634 4294966673
211.39807 1348.6691 -623.26038 4294966673
213.50995 1348.5195 -623.29285 4294966673
215.25479 1348.545 -623.15515 4294966673
217.44757 1348.4066 -623.15839 4294966673
219.46812 1348.2491 -623.24341 4294966673
223.74341 1347.1404 -623.96088 4294966673
229.50096 1347.0587 -623.50629 4294966673
67.546234 1351.1078 -623.35986 4294966673
149.38116 1352.974 -623.81049 4294966673
151.33905 1352.6326 -623.95392 4294966673
153.61682 1352.7808 -623.58087 4294966673
157.38837 1352.5957 -623.54431 4294966673
161.42732 1352.4182 -623.44556 4294966673
163.60402 1352.3591 -623.30261 4294966673
165.59721 1352.2991 -623.36218 4294966673
169.30241 1352.0276 -623.03595 4294966673
171.42696 1350.9496 -623.9798 4294966673
173.35126 1351.1067 -623.68262 4294966673
175.35582 1351.0292 -623.60565 4294966673
181.43433 1350.7892 -623.37927 4294966673
183.43396 1350.6199 -623.33099 4294966673
187.38815 1350.3507 -623.31714 4294966673
193.47128 1350.0558 -623.58344 4294966673
61.391281 1353.5652 -623.08447 4294966673
63.390274 1353.6096 -623.28888 4294966673
65.52494 1353.7037 -623.54156 4294966673
67.255539 1354.8013 -623.55139 4294966673
117.35702 1355.9653 -623.26465 4294966673
121.39359 1355.6927 -623.28784 4294966673
123.81252 1355.5247 -623.23322 4294966673
125.36744 1354.8125 -623.9928 4294966673
127.61645 1355.2047 -623.14404 4294966673
129.24547 1354.6165 -623.784 4294966673
133.38237 1354.4426 -623.57983 4294966673
139.666 1354.2529 -623.22253 4294966673
143.53348 1354.071 -623.07672 4294966673
63.377888 1356.0709 -623.19031 4294966673
65.388618 1356.2051 -623.27856 4294966673
67.512459 1357.4159 -623.09357 4294966673
79.349823 1357.1044 -623.56958 4294966673
81.259605 1357.0442 -623.80298 4294966673
89.581566 1357.2632 -623.70953 4294966673
91.312218 1356.8577 -623.91949 4294966673
93.627876 1356.6123 -623.92603 4294966673
95.711937 1356.6858 -623.65967 4294966673
97.571144 1356.6887 -623.48138 4294966673
99.481018 1356.6093 -623.46283 4294966673
101.18585 1356.5511 -623.47974 4294966673
103.45361 1356.5494 -623.43921 4294966673
105.68164 1356.4349 -623.49518 4294966673
109.47005 1356.4469 -623.23145 4294966673
113.39104 1356.212 -623.2738 4294966673
115.27711 1356.1091 -623.25494 4294966673
238.44366 1325.9933 -622.35925 4294966674
205.57832 1328.5829 -622.25598 4294966674
207.43538 1328.5106 -622.40875 4294966674
209.4115 1328.4614 -622.52942 4294966674
213.46748 1328.2388 -622.56561 4294966674
217.55606 1327.9617 -622.52448 4294966674
223.37804 1326.8755 -622.0827 4294966674
227.45183 1326.6678 -622.18512 4294966674
229.49066 1326.7405 -622.49426 4294966674
231.4847 1326.7272 -622.66193 4294966674
233.32068 1326.5457 -622.65674 4294966674
235.41739 1326.5254 -622.71149 4294966674
239.42818 1326.374 -622.60718 4294966674
241.48378 1326.1892 -622.51617 4294966674
243.37161 1326.619 -622.58765 4294966674
246.82939 1327.3051 -622.74011 4294966674
251.05658 1326.2134 -622.54065 4294966674
165.84338 1331.6487 -622.66553 4294966674
167.24072 1331.2734 -622.38849 4294966674
169.51988 1331.364 -622.43298 4294966674
173.30313 1331.4149 -622.9024 4294966674
175.58408 1330.651 -622.42834 4294966674
177.36353 1330.8881 -622.94202 4294966674
183.36017 1330.291 -622.46655 4294966674
185.88414 1329.9298 -622.31128 4294966674
187.56953 1330.2648 -622.59052 4294966674
189.38982 1330.4531 -622.74335 4294966674
193.48909 1330.4312 -622.66479 4294966674
197.34538 1330.351 -622.60913 4294966674
199.54906 1330.1279 -622.59619 4294966674
203.08275 1329.8724 -622.75604 4294966674
129.46918 1334.2198 -622.92346 4294966674
133.50609 1333.2263 -622.02856 4294966674
137.67047 1333.0042 -622.09613 4294966674
141.65463 1333.2853 -622.63837 4294966674
143.5741 1333.1254 -622.66223 4294966674
145.25336 1332.9879 -622.70233 4294966674
147.55359 1332.8215 -622.75092 4294966674
149.53618 1332.7186 -622.81348 4294966674
151.52794 1332.6909 -622.948 4294966674
153.38754 1332.496 -622.93329 4294966674
155.40485 1332.3704 -622.96259 4294966674
157.32529 1332.2764 -622.99786 4294966674
81.191925 1337.9976 -622.70679 4294966674
87.662209 1337.2971 -622.68103 4294966674
91.612419 1337.0332 -622.82275 4294966674
93.287712 1337.0051 -622.98657 4294966674
67.41217 1339.8119 -622.32831 4294966674
71.307404 1339.6398 -622.8551 4294966674
75.408562 1338.4927 -622.65594 4294966674
77.468399 1338.1113 -622.5387 4294966674
53.395775 1343.6842 -622.0481 4294966674
55.309402 1343.6216 -622.29449 4294966674
57.409725 1343.7722 -622.36328 4294966674
59.173122 1341.701 -622.02081 4294966674
61.312294 1342.8066 -622.49121 4294966674
64.878899 1341.7026 -622.7182 4294966674
65.389153 1343.8842 -622.98737 4294966674
67.135315 1341.6138 -622.88208 4294966674
51.156128 1346.2173 -622.03693 4294966674
53.258221 1346.1863 -622.11414 4294966674
57.278111 1346.5248 -622.24231 4294966674
59.062477 1346.5442 -622.35651 4294966674
61.654968 1346.447 -622.57574 4294966674
65.729912 1346.8573 -622.93048 4294966674
53.558071 1348.7406 -622.05676 4294966674
63.391281 1348.7694 -622.78113 4294966674
217.18832 1349.0061 -622.18188 4294966674
223.51196 1348.5808 -622.08258 4294966674
55.147083 1350.8611 -622.27875 4294966674
63.354904 1351.0917 -622.93933 4294966674
171.42885 1352.3486 -622.02533 4294966674
191.39807 1350.851 -622.13922 4294966674
195.5266 1350.6215 -622.0564 4294966674
199.38852 1350.2589 -622.06378 4294966674
49.541477 1354.7114 -622.29791 4294966674
51.348907 1354.7043 -622.40381 4294966674
55.351521 1353.808 -622.69293 4294966674
59.541679 1353.5981 -622.9425 4294966674
124.46384 1355.981 -622.01355 4294966674
127.53491 1355.7336 -622.0293 4294966674
139.64413 1354.7429 -622.1369 4294966674
141.36325 1354.6649 -622.0376 4294966674
143.62611 1354.5127 -622.06525 4294966674
145.55161 1354.1797 -622.53003 4294966674
149.24301 1354.0669 -622.02148 4294966674
153.48193 1353.7307 -622.08136 4294966674
161.75276 1353.1494 -622.04041 4294966674
51.669582 1357.8375 -622.24567 4294966674
55.588623 1357.3662 -622.65466 4294966674
57.38287 1357.5332 -622.76001 4294966674
59.641582 1357.0121 -622.88196 4294966674
61.653885 1357.8616 -622.76605 4294966674
63.720413 1357.7068 -622.72845 4294966674
67.131294 1358.8794 -622.00598 4294966674
69.18074 1358.7905 -622.07086 4294966674
83.049484 1358.1471 -622.99469 4294966674
86.873833 1358.0515 -622.8927 4294966674
107.15006 1357.0846 -622.04553 4294966674
114.94254 1356.5536 -622.20618 4294966674
117.85911 1356.4398 -622.03455 4294966674
121.41412 1356.2097 -622.12836 4294966674
59.433819 1359.0745 -622.09174 4294966674
61.387146 1359.101 -622.16577 4294966674
229.3737 1325.7828 -621.18616 4294966675
231.73605 1325.5659 -621.06409 4294966675
233.40099 1325.5454 -621.38531 4294966675
235.54227 1325.2668 -621.0683 4294966675
237.31456 1325.2292 -621.17383 4294966675
239.57776 1325.1371 -621.15399 4294966675
245.47232 1325.1051 -621.82104 4294966675
247.53667 1325.1007 -621.82373 4294966675
251.52354 1324.1979 -621.01355 4294966675
187.57747 1328.9581 -621.12073 4294966675
197.60735 1328.906 -621.69934 4294966675
199.57222 1328.7986 -621.65582 4294966675
201.34494 1328.814 -621.88495 4294966675
202.10808 1328.0188 -621.06415 4294966675
205.08755 1327.7231 -621.15833 4294966675
207.69069 1327.4371 -621.14258 4294966675
209.59271 1327.3453 -621.23651 4294966675
211.46049 1327.1986 -621.23004 4294966675
213.3642 1327.1947 -621.44397 4294966675
219.30952 1326.974 -621.90356 4294966675
145.5108 1331.8881 -621.18567 4294966675
147.50255 1331.7572 -621.15594 4294966675
151.39671 1331.5035 -621.18896 4294966675
153.5125 1331.3049 -621.13647 4294966675
155.33333 1331.2162 -621.29163 4294966675
157.66763 1331.0165 -621.28265 4294966675
159.83878 1330.8613 -621.27484 4294966675
163.35963 1330.5482 -621.24329 4294966675
165.202 1330.4971 -621.24176 4294966675
171.33028 1330.2224 -621.04407 4294966675
179.24745 1329.4315 -621.11316 4294966675
183.27681 1329.2919 -621.11481 4294966675
189.29152 1329.3215 -621.79694 4294966675
191.39221 1329.1774 -621.66718 4294966675
193.4686 1329.1169 -621.6546 4294966675
105.15255 1334.6925 -621.69641 4294966675
109.53495 1334.3927 -621.78333 4294966675
111.29556 1334.2483 -621.8902 4294966675
113.28129 1334.0999 -621.94775 4294966675
117.13871 1333.8351 -621.79865 4294966675
119.57835 1333.6147 -621.42438 4294966675
123.56087 1333.3661 -621.34601 4294966675
139.66217 1332.3542 -621.1485 4294966675
141.50616 1332.163 -621.05994 4294966675
143.63333 1332.0308 -621.16241 4294966675
73.677338 1337.381 -621.08789 4294966675
75.010437 1337.3436 -621.31439 4294966675
79.887306 1336.9445 -621.11798 4294966675
81.004265 1336.7864 -621.26019 4294966675
85.700455 1336.3988 -621.20972 4294966675
87.219231 1336.4193 -621.29657 4294966675
89.371857 1336.59 -621.95532 4294966675
91.43708 1336.0161 -621.2771 4294966675
93.257942 1335.8618 -621.33942 4294966675
97.567917 1335.4802 -621.21277 4294966675
101.4342 1335.0618 -621.49414 4294966675
57.555393 1340.2537 -621.0647 4294966675
61.502968 1339.7329 -621.16925 4294966675
63.078011 1340.4552 -621.86304 4294966675
67.334229 1338.6136 -621.47626 4294966675
70.090866 1338.0597 -621.63129 4294966675
41.357674 1342.7168 -621.1424 4294966675
43.217491 1342.6042 -621.4104 4294966675
45.246239 1342.7607 -621.71289 4294966675
47.491997 1342.2111 -621.70764 4294966675
49.303299 1342.5541 -621.75452 4294966675
51.65173 1343.5515 -621.9834 4294966675
53.326672 1341.6705 -621.61023 4294966675
41.675724 1346.318 -621.34888 4294966675
43.023026 1345.9727 -621.57574 4294966675
45.366966 1346.3096 -621.72583 4294966675
47.43858 1346.2937 -621.85394 4294966675
49.418339 1345.9907 -621.97729 4294966675
247.36575 1346.7197 -621.70355 4294966675
41.273312 1348.5924 -621.02313 4294966675
43.656139 1348.9437 -621.37433 4294966675
49.619984 1348.7338 -621.86694 4294966675
51.354546 1348.7572 -621.94952 4294966675
203.25229 1349.9742 -621.91376 4294966675
205.35016 1349.8682 -621.87592 4294966675
207.20871 1349.7457 -621.91345 4294966675
209.76489 1349.6262 -621.85211 4294966675
213.4398 1349.3604 -621.9007 4294966675
219.65364 1348.9229 -621.99512 4294966675
225.31873 1348.4672 -621.98773 4294966675
229.50845 1348.0872 -621.97589 4294966675
231.16045 1347.9685 -621.91638 4294966675
233.55292 1347.8285 -621.9538 4294966675
235.64023 1347.6851 -621.94897 4294966675
237.56612 1347.5454 -621.93066 4294966675
239.36877 1347.4238 -621.80035 4294966675
243.3147 1347.046 -621.90137 4294966675
45.466953 1350.8658 -621.57574 4294966675
167.22279 1352.7041 -621.97754 4294966675
175.36536 1352.2526 -621.87622 4294966675
177.46732 1352.2665 -621.99164 4294966675
179.57066 1352.2808 -621.7998 4294966675
181.49814 1351.9764 -621.92468 4294966675
185.51764 1351.4546 -621.90424 4294966675
189.52649 1351.0647 -621.9259 4294966675
39.712044 1355.8763 -621.07751 4294966675
41.386688 1355.9089 -621.37024 4294966675
45.22401 1355.9545 -621.79279 4294966675
131.86876 1355.3652 -621.87823 4294966675
135.56912 1355.078 -621.97052 4294966675
147.6844 1354.2329 -621.96027 4294966675
151.62024 1353.9615 -621.7796 4294966675
155.62292 1353.6123 -621.97614 4294966675
159.4366 1353.3066 -621.98792 4294966675
45.414116 1358.8416 -621.4325 4294966675
47.296738 1357.8879 -621.76855 4294966675
53.297832 1358.9596 -621.92529 4294966675
63.64793 1358.9624 -621.97137 4294966675
65.058067 1358.933 -621.97858 4294966675
83.256683 1358.5826 -621.85413 4294966675
85.516739 1358.5565 -621.96088 4294966675
93.45752 1357.9906 -621.90375 4294966675
97.50547 1357.6661 -621.87225 4294966675
99.589546 1357.4919 -621.93091 4294966675
101.43985 1357.3816 -621.99591 4294966675
103.26289 1357.2958 -621.98657 4294966675
105.59499 1357.1898 -621.96716 4294966675
111.50526 1356.8445 -621.99219 4294966675
49.423763 1359.5027 -621.1886 4294966675
51.128933 1359.0654 -621.6413 4294966675
53.322067 1360.0594 -621.00128 4294966675
54.724289 1360.0092 -621.28381 4294966675
55.227203 1359.1165 -621.99323 4294966675
64.611816 1359.7499 -621.0105 4294966675
225.53638 1325.6072 -620.45618 4294966676
227.24913 1325.5117 -620.57867 4294966676
238.92775 1324.7435 -620.09436 4294966676
211.19408 1326.7809 -620.06592 4294966676
215.31277 1326.4806 -620.15924 4294966676
157.45384 1330.6176 -620.07104 4294966676
161.43401 1330.3282 -620.04126 4294966676
167.26672 1330.4106 -620.96454 4294966676
169.68581 1330.2861 -620.98633 4294966676
173.5484 1329.8717 -620.90295 4294966676
99.263771 1334.9987 -620.14703 4294966676
103.39806 1334.5121 -620.03235 4294966676
109.42853 1334.0605 -620.15668 4294966676
111.28686 1333.8682 -620.23999 4294966676
113.51946 1333.7054 -620.20209 4294966676
119.12458 1333.3452 -620.20447 4294966676
121.52626 1333.2126 -620.11084 4294966676
69.160973 1337.4423 -620.04456 4294966676
73.442635 1337.0305 -620.18738 4294966676
75.257217 1336.9159 -620.23944 4294966676
77.194954 1336.7343 -620.11475 4294966676
79.345459 1336.5885 -620.05341 4294966676
43.742008 1339.4354 -620.26331 4294966676
45.25285 1339.1779 -620.00397 4294966676
47.534164 1339.7006 -620.69934 4294966676
49.317787 1340.1755 -620.94873 4294966676
51.349514 1339.9281 -620.68658 4294966676
55.225349 1340.2235 -620.87335 4294966676
63.694962 1339.0465 -620.96753 4294966676
37.229084 1343.9711 -620.30627 4294966676
39.428841 1342.0734 -620.5448 4294966676
37.174961 1345.9386 -620.37384 4294966676
39.075012 1345.5657 -620.83331 4294966676
211.51535 1349.9542 -620.03687 4294966676
215.21747 1349.8113 -620.25549 4294966676
217.69753 1349.4872 -620.01038 4294966676
219.58661 1349.3463 -620.08215 4294966676
221.25783 1349.0594 -620.86627 4294966676
223.60828 1349.0229 -620.224 4294966676
225.46742 1349.0051 -620.0661 4294966676
229.66748 1348.5381 -620.31116 4294966676
231.57504 1348.5765 -620.13599 4294966676
233.28928 1348.4779 -620.25769 4294966676
235.47783 1348.1794 -620.19983 4294966676
237.50784 1348.0583 -620.16248 4294966676
241.37312 1347.8521 -620.12366 4294966676
39.286568 1350.5817 -620.59576 4294966676
171.49388 1352.8597 -620.03174 4294966676
173.46884 1352.8699 -620.24274 4294966676
185.58595 1352.0748 -620.02985 4294966676
187.71321 1351.7308 -620.09985 4294966676
191.52895 1351.3313 -620.2215 4294966676
193.43701 1351.1075 -620.75403 4294966676
197.13773 1350.8969 -620.4458 4294966676
199.74544 1350.7419 -620.04816 4294966676
203.3132 1350.4836 -620.12805 4294966676
207.29851 1350.2371 -620.00787 4294966676
35.572063 1355.8218 -620.31586 4294966676
131.63214 1355.8782 -620.01147 4294966676
137.27263 1355.2792 -620.12244 4294966676
143.26076 1354.8898 -620.08417 4294966676
151.28223 1354.4943 -620.35907 4294966676
157.46265 1353.8862 -620.10352 4294966676
163.55 1353.4453 -620.01532 4294966676
169.33078 1353.0808 -620.23651 4294966676
35.244034 1358.2845 -620.00366 4294966676
37.735249 1357.1044 -620.59558 4294966676
41.472145 1358.1305 -620.99945 4294966676
85.395218 1358.9801 -620.11597 4294966676
87.404274 1358.6707 -620.93231 4294966676
91.308426 1358.6641 -620.17932 4294966676
95.495163 1358.391 -620.09692 4294966676
97.596535 1358.2275 -620.02936 4294966676
99.393784 1357.9484 -620.13104 4294966676
101.55077 1357.9681 -620.1424 4294966676
105.38174 1357.5774 -620.12646 4294966676
109.55843 1357.3035 -620.05829 4294966676
113.62596 1357.1376 -620.11896 4294966676
115.28767 1356.8806 -620.11829 4294966676
119.49013 1356.6331 -620.15106 4294966676
121.32571 1356.6774 -620.276 4294966676
123.58198 1356.5288 -620.24091 4294966676
125.43674 1356.3708 -620.11914 4294966676
127.05972 1356.2549 -620.22162 4294966676
129.52046 1356.0613 -620.07788 4294966676
39.748211 1359.3137 -620.34064 4294966676
41.181259 1360.2283 -620.02997 4294966676
43.328617 1359.3871 -620.94495 4294966676
47.44331 1360.405 -620.40582 4294966676
58.089119 1360.2598 -620.97064 4294966676
59.104237 1360.4288 -620.07416 4294966676
61.149574 1360.2648 -620.12659 4294966676
65.690254 1360.0305 -620.05341 4294966676
67.154427 1359.9929 -620.08197 4294966676
81.629295 1359.1989 -620.263 4294966676
83.038712 1359.0385 -620.01093 4294966676
235.17854 1324.9563 -619.97528 4294966677
243.22972 1324.2552 -619.86676 4294966677
247.43167 1323.8842 -619.84833 4294966677
181.31764 1328.9812 -619.78796 4294966677
185.29381 1328.663 -619.9198 4294966677
187.616 1328.5121 -619.95251 4294966677
189.45128 1328.3977 -619.92261 4294966677
191.42116 1328.3412 -619.99164 4294966677
197.71124 1327.8748 -619.58569 4294966677
199.19492 1327.8651 -619.94531 4294966677
201.54494 1327.5599 -619.7395 4294966677
203.06525 1327.4264 -619.81049 4294966677
207.3127 1327.0408 -619.97717 4294966677
209.41487 1326.8536 -619.92059 4294966677
213.91891 1326.5018 -619.65393 4294966677
217.30592 1326.101 -619.95941 4294966677
137.43132 1331.8877 -619.86877 4294966677
141.28656 1331.772 -619.87555 4294966677
143.67154 1331.5479 -619.73077 4294966677
145.25658 1331.4857 -619.909 4294966677
147.33882 1331.3776 -619.95581 4294966677
149.39024 1331.2263 -619.89325 4294966677
155.26398 1330.7927 -619.99615 4294966677
159.65739 1330.4308 -619.89246 4294966677
163.43927 1330.1498 -619.83588 4294966677
167.06841 1330.0023 -619.82355 4294966677
169.55174 1329.8318 -619.68781 4294966677
171.37016 1329.7131 -619.66577 4294966677
173.60666 1329.541 -619.50977 4294966677
175.30875 1329.2588 -619.69019 4294966677
177.48952 1329.1146 -619.64368 4294966677
179.58685 1329.046 -619.49982 4294966677
101.55803 1334.6498 -619.86145 4294966677
105.16903 1334.3003 -619.86322 4294966677
123.39227 1332.9426 -619.78229 4294966677
125.55946 1332.9567 -619.91412 4294966677
63.843632 1337.9833 -619.08966 4294966677
65.284943 1337.9197 -619.6543 4294966677
67.603561 1337.5886 -619.73596 4294966677
71.400566 1337.1718 -619.96881 4294966677
80.669014 1336.4808 -619.73804 4294966677
83.576988 1336.0156 -619.62744 4294966677
87.704758 1335.7131 -619.85962 4294966677
93.3545 1335.2301 -619.90796 4294966677
40.29612 1340.0212 -619.72144 4294966677
48.646767 1339.1829 -619.69482 4294966677
51.26329 1339.0602 -619.29346 4294966677
55.260246 1338.9388 -619.27466 4294966677
61.127735 1338.4113 -619.15222 4294966677
33.16893 1342.5447 -619.02118 4294966677
35.17078 1343.8221 -619.83972 4294966677
37.449589 1342.0798 -619.79626 4294966677
30.796556 1345.7007 -619.19019 4294966677
31.624363 1344.2081 -619.15869 4294966677
33.41 1345.8258 -619.64331 4294966677
33.17009 1347.4111 -619.57971 4294966677
35.407532 1348.7041 -619.88062 4294966677
239.57443 1347.9159 -619.94525 4294966677
243.47282 1347.6359 -619.95764 4294966677
245.85712 1347.425 -619.78925 4294966677
249.78847 1347.1552 -619.64935 4294966677
183.53461 1352.5691 -619.89056 4294966677
195.80748 1351.0983 -619.89111 4294966677
29.374956 1355.9644 -619.06946 4294966677
31.26189 1354.4355 -619.26953 4294966677
33.478626 1354.4463 -619.70325 4294966677
133.30757 1355.7505 -619.98303 4294966677
135.44797 1355.5706 -619.83704 4294966677
139.72095 1355.2688 -619.84045 4294966677
141.35754 1355.0393 -619.84735 4294966677
145.38191 1354.7738 -619.90668 4294966677
149.5359 1354.6233 -619.99255 4294966677
153.47942 1354.3733 -619.90179 4294966677
159.42378 1353.902 -619.97418 4294966677
161.49956 1353.6013 -619.99243 4294966677
167.39061 1353.121 -619.89844 4294966677
177.66925 1353.0525 -619.75958 4294966677
29.328798 1358.1726 -619.08691 4294966677
31.346235 1358.2019 -619.4248 4294966677
33.547855 1358.1267 -619.7804 4294966677
89.510666 1358.6942 -619.98566 4294966677
103.38785 1357.8513 -619.95923 4294966677
117.4868 1356.7498 -619.91498 4294966677
31.583752 1359.9135 -619.06207 4294966677
35.427406 1359.7921 -619.60773 4294966677
37.349121 1360.1425 -619.50928 4294966677
39.343678 1360.6049 -619.50641 4294966677
43.974293 1360.6949 -619.72559 4294966677
45.617176 1360.5828 -619.92157 4294966677
49.276989 1360.9678 -619.48834 4294966677
54.552002 1360.5876 -619.94855 4294966677
63.281673 1360.4307 -619.06573 4294966677
185.27844 1328.4962 -618.18689 4294966678
189.40442 1328.036 -618.05054 4294966678
191.44083 1327.915 -618.13837 4294966678
193.09523 1327.8011 -618.13684 4294966678
197.36639 1327.4937 -618.12848 4294966678
199.36852 1327.5114 -618.06958 4294966678
203.18939 1327.173 -618.10132 4294966678
205.01717 1327.0297 -618.1709 4294966678
207.58798 1326.824 -618.04443 4294966678
213.43922 1326.3436 -618.07343 4294966678
215.44272 1326.0284 -618.02753 4294966678
169.5755 1329.6196 -618.01874 4294966678
67.140144 1337.3406 -618.28528 4294966678
71.567879 1336.9189 -618.11292 4294966678
73.218094 1336.8125 -618.25488 4294966678
76.724892 1336.608 -618.495 4294966678
42.993519 1339.1152 -618.20398 4294966678
51.25605 1338.6833 -618.17041 4294966678
27.222218 1343.5222 -618.15674 4294966678
29.643513 1342.9988 -618.34509 4294966678
30.580086 1343.0155 -618.56934 4294966678
32.054729 1341.4865 -618.17401 4294966678
35.202736 1341.6105 -618.88483 4294966678
24.946955 1345.6843 -618.11169 4294966678
26.612967 1346.6479 -618.3808 4294966678
28.523335 1345.7297 -618.72559 4294966678
25.214314 1348.343 -618.1264 4294966678
27.296705 1348.5172 -618.41339 4294966678
29.107731 1348.6772 -618.6936 4294966678
23.600376 1355.2601 -618.0332 4294966678
25.491827 1355.2889 -618.29767 4294966678
27.292553 1355.5809 -618.62689 4294966678
20.985537 1358.2682 -618.08801 4294966678
23.782591 1357.923 -618.4408 4294966678
25.370239 1357.9086 -618.46997 4294966678
27.316759 1358.8512 -618.64063 4294966678
22.971422 1359.7217 -618.14178 4294966678
25.410595 1359.7563 -618.22467 4294966678
28.939943 1360.9117 -618.20135 4294966678
29.670719 1359.9083 -618.78571 4294966678
31.826439 1360.943 -618.54144 4294966678
33.347965 1360.9139 -618.69989 4294966678
41.86129 1361.222 -618.87463 4294966678
43.420174 1361.5736 -618.16943 4294966678
45.197857 1361.5081 -618.25604 4294966678
57.323109 1360.7792 -618.87469 4294966678
67.018845 1360.4469 -618.82404 4294966678
71.278008 1360.2213 -618.16931 4294966678
217.49586 1325.9147 -617.86444 4294966679
227.20958 1325.391 -617.83173 4294966679
229.42511 1325.1851 -617.95996 4294966679
231.55141 1325.0963 -617.98224 4294966679
233.54083 1324.9205 -617.89136 4294966679
235.55032 1324.7367 -617.93872 4294966679
239.38173 1324.4701 -617.90637 4294966679
241.24196 1324.3339 -617.89746 4294966679
243.31783 1324.0281 -617.91626 4294966679
245.16685 1323.8843 -617.99084 4294966679
249.36195 1323.5684 -617.90588 4294966679
179.52924 1328.9053 -617.72003 4294966679
187.7812 1328.2556 -617.9364 4294966679
201.41344 1327.3497 -617.87964 4294966679
209.21465 1326.6863 -617.88757 4294966679
211.16864 1326.5593 -617.98975 4294966679
134.75122 1331.9524 -617.98523 4294966679
139.31744 1331.5221 -617.99579 4294966679
141.68507 1331.3849 -617.71619 4294966679
143.44177 1331.4363 -617.80798 4294966679
145.24911 1331.3162 -617.90265 4294966679
147.57146 1331.0634 -617.80597 4294966679
149.29291 1331.0876 -617.88269 4294966679
151.52168 1330.8311 -617.82123 4294966679
153.21191 1330.6958 -617.89435 4294966679
155.2164 1330.5695 -617.60669 4294966679
157.5775 1330.4635 -617.8136 4294966679
159.34383 1330.3387 -617.90363 4294966679
161.50043 1330.153 -617.93628 4294966679
163.61903 1330.0123 -617.90295 4294966679
167.15511 1329.8143 -617.78192 4294966679
171.51366 1329.5028 -617.62555 4294966679
173.27187 1329.3699 -617.83496 4294966679
175.39328 1329.1066 -617.64941 4294966679
107.27065 1334.203 -617.6264 4294966679
111.1066 1333.8872 -617.69635 4294966679
113.42519 1333.6499 -617.92279 4294966679
115.34026 1333.4932 -617.92804 4294966679
123.15097 1332.9027 -617.59357 4294966679
125.5302 1332.6765 -617.88605 4294966679
127.2898 1332.5575 -617.73138 4294966679
131.33311 1332.2217 -617.93909 4294966679
63.520603 1337.5659 -617.87476 4294966679
69.343086 1337.1322 -617.9928 4294966679
75.782845 1336.6134 -617.85358 4294966679
79.336723 1336.2279 -617.77936 4294966679
81.27076 1336.0886 -617.77167 4294966679
85.703812 1335.7415 -617.62732 4294966679
88.92878 1335.5081 -617.95081 4294966679
91.106796 1335.2811 -617.8291 4294966679
93.278 1335.1085 -617.59125 4294966679
33.614925 1340.9321 -617.8786 4294966679
46.358776 1338.9531 -617.63123 4294966679
47.202087 1338.8092 -617.44995 4294966679
59.671551 1338.0139 -617.64233 4294966679
23.260185 1343.9705 -617.5816 4294966679
25.022636 1343.553 -617.77521 4294966679
27.137262 1342.5216 -617.66541 4294966679
29.132832 1341.3658 -617.15588 4294966679
19.071726 1345.4589 -617.29633 4294966679
21.286089 1345.53 -617.64313 4294966679
17.199141 1347.9327 -617.09503 4294966679
19.08148 1347.9253 -617.3985 4294966679
21.75849 1348.3323 -617.66559 4294966679
213.28433 1349.9063 -617.80518 4294966679
215.38805 1349.6913 -617.40125 4294966679
219.28297 1349.4268 -617.74536 4294966679
221.4883 1349.2469 -617.6015 4294966679
227.34715 1348.7937 -617.64899 4294966679
229.74583 1348.6177 -617.2724 4294966679
233.53342 1348.4156 -617.46271 4294966679
235.78702 1348.2681 -617.56818 4294966679
239.47575 1348.0431 -617.67004 4294966679
241.45883 1347.9082 -617.61298 4294966679
243.31314 1347.7638 -617.68506 4294966679
251.49789 1347.2108 -617.63361 4294966679
169.57814 1352.9454 -617.01788 4294966679
171.35864 1352.9386 -617.69702 4294966679
187.61536 1351.8817 -617.7569 4294966679
189.24445 1351.6536 -617.66302 4294966679
195.23114 1351.1732 -617.68164 4294966679
199.45454 1350.8434 -617.58124 4294966679
203.42073 1350.5774 -617.47437 4294966679
205.32996 1350.4406 -617.16687 4294966679
209.67912 1350.1589 -617.43384 4294966679
17.427948 1355.0431 -617.09485 4294966679
129.29657 1355.8397 -617.24475 4294966679
131.4621 1355.6781 -617.05847 4294966679
135.38301 1355.4272 -617.19727 4294966679
136.98927 1355.308 -617.28815 4294966679
141.15271 1355.0319 -617.66833 4294966679
143.33496 1354.8566 -617.01166 4294966679
145.0598 1354.7828 -617.66071 4294966679
147.4847 1354.613 -617.33948 4294966679
153.44107 1354.2354 -617.39404 4294966679
159.10379 1353.7979 -617.41901 4294966679
163.66882 1353.4292 -617.36102 4294966679
165.44997 1353.2861 -617.39899 4294966679
175.31352 1353.0133 -617.17365 4294966679
16.729303 1357.5455 -617.19336 4294966679
19.913193 1357.8524 -617.87866 4294966679
87.764198 1358.8256 -617.31464 4294966679
89.358162 1358.7179 -617.52264 4294966679
93.650497 1358.4323 -617.57214 4294966679
103.51951 1357.7076 -617.46552 4294966679
105.16052 1357.563 -617.15753 4294966679
109.16086 1357.2959 -617.68927 4294966679
117.28064 1356.6409 -617.13763 4294966679
119.4576 1356.4923 -617.21771 4294966679
123.25662 1356.2703 -617.5127 4294966679
125.50568 1356.1212 -617.22009 4294966679
17.545925 1360.0421 -617.03156 4294966679
18.842436 1360.6283 -617.16522 4294966679
20.970036 1360.9648 -617.52332 4294966679
25.429993 1361.2638 -617.52234 4294966679
35.676521 1361.9343 -617.3219 4294966679
41.589687 1361.7142 -617.78876 4294966679
53.864151 1361.2751 -617.94 4294966679
55.967007 1361.1722 -617.2276 4294966679
61.951805 1360.6094 -617.98315 4294966679
69.887238 1360.1926 -617.41022 4294966679
83.911659 1359.1492 -617.49231 4294966679
85.371941 1359.0345 -617.66425 4294966679
29.312403 1362.0613 -617.14398 4294966679
31.388243 1362.0194 -617.24445 4294966679
33.418373 1362.0354 -617.21399 4294966679
57.503788 1337.9899 -616.03192 4294966680
51.695042 1338.3512 -616.01172 4294966680
17.504263 1343.291 -616.3623 4294966680
19.422104 1343.684 -616.94708 4294966680
21.437187 1342.567 -616.63971 4294966680
23.029646 1342.4424 -616.8028 4294966680
25.770205 1341.5033 -616.55066 4294966680
13.236836 1345.9271 -616.19177 4294966680
15.622434 1345.2642 -616.63806 4294966680
13.441208 1347.7614 -616.39777 4294966680
15.240912 1348.5403 -616.66718 4294966680
13.338375 1351.0092 -616.16486 4294966680
15.32929 1350.7167 -616.5174 4294966680
12.768465 1357.9291 -616.31732 4294966680
101.50148 1357.8064 -616.9541 4294966680
113.75624 1356.8788 -616.83441 4294966680
121.73305 1356.3052 -616.92444 4294966680
13.459744 1360.2664 -616.0946 4294966680
14.983586 1359.6433 -616.52472 4294966680
17.145124 1361.4052 -616.41351 4294966680
19.513027 1362.1804 -616.46533 4294966680
21.042906 1362.5034 -616.19769 4294966680
31.093151 1362.4856 -616.211 4294966680
35.311813 1362.3483 -616.15491 4294966680
43.429077 1362.0371 -616.33917 4294966680
225.41444 1325.7581 -615.44958 4294966681
227.47447 1325.6842 -615.04309 4294966681
229.42514 1325.5313 -615.19397 4294966681
231.4756 1325.4222 -615.05109 4294966681
237.29396 1324.9144 -615.29651 4294966681
241.42938 1324.658 -615.05377 4294966681
245.35732 1324.2738 -615.36682 4294966681
247.45216 1324.0682 -615.61609 4294966681
249.38022 1323.9512 -615.44415 4294966681
251.48074 1323.7615 -615.67786 4294966681
183.06316 1328.8735 -615.52649 4294966681
189.36151 1328.3749 -615.62488 4294966681
191.63844 1328.3021 -615.13678 4294966681
193.4597 1328.1835 -615.08142 4294966681
195.63426 1328.0138 -615.07776 4294966681
199.51881 1327.6869 -615.3205 4294966681
201.21819 1327.5347 -615.44006 4294966681
203.54951 1327.3157 -615.56 4294966681
205.57053 1327.1509 -615.57391 4294966681
207.46042 1327.0361 -615.40466 4294966681
209.08626 1326.9224 -615.44928 4294966681
211.2748 1326.8544 -615.07941 4294966681
141.51433 1331.9095 -615.12341 4294966681
145.02309 1331.6626 -615.17566 4294966681
147.47217 1331.5464 -615.05591 4294966681
151.39091 1331.2996 -615.05841 4294966681
153.39909 1331.1561 -615.09381 4294966681
157.4807 1330.8754 -615.07556 4294966681
159.28055 1330.7383 -615.02686 4294966681
161.53447 1330.5353 -615.19543 4294966681
163.4734 1330.4191 -615.07996 4294966681
166.82487 1330.0955 -615.33514 4294966681
171.40039 1329.752 -615.42078 4294966681
173.39388 1329.6652 -615.09528 4294966681
175.63753 1329.5195 -615.04913 4294966681
177.40593 1329.3958 -615.05011 4294966681
107.1711 1334.6208 -615.00684 4294966681
113.03727 1334.1328 -615.10138 4294966681
59.801601 1337.906 -615.45044 4294966681
63.3479 1337.6024 -615.56476 4294966681
65.183228 1337.4171 -615.81061 4294966681
67.240562 1337.3387 -615.66901 4294966681
69.378662 1337.224 -615.6402 4294966681
71.064041 1337.1072 -615.73193 4294966681
73.131142 1337.0073 -615.48505 4294966681
75.644531 1336.9008 -615.17633 4294966681
81.205734 1336.4327 -615.56622 4294966681
91.067184 1335.7389 -615.07922 4294966681
101.26702 1335.0336 -615.01929 4294966681
25.450174 1340.9688 -615.49792 4294966681
27.393595 1340.7491 -615.82397 4294966681
55.767006 1338.1244 -615.57825 4294966681
12.91807 1343.8632 -615.4776 4294966681
15.242437 1342.4647 -615.29242 4294966681
19.246014 1341.618 -615.15192 4294966681
20.839994 1341.5162 -615.35046 4294966681
9.2217741 1346.0212 -615.27594 4294966681
11.430801 1345.1473 -615.7356 4294966681
8.9953203 1348.0771 -615.30084 4294966681
11.42538 1348.6616 -615.88611 4294966681
217.32755 1349.3146 -615.02405 4294966681
243.42093 1347.4988 -615.04205 4294966681
11.309465 1350.8184 -615.72308 4294966681
169.26218 1352.8105 -615.00305 4294966681
139.60568 1354.9709 -615.03033 4294966681
93.541679 1358.2733 -615.00189 4294966681
101.67105 1357.6906 -615.0116 4294966681
123.17792 1356.1287 -615.01898 4294966681
9.3321753 1359.6779 -615.75562 4294966681
48.67086 1361.7747 -615.99652 4294966681
57.371223 1361.0051 -615.65094 4294966681
61.600452 1360.5687 -615.47998 4294966681
63.561382 1360.4449 -615.52307 4294966681
65.230438 1360.3175 -615.46942 4294966681
67.394394 1360.2065 -615.39038 4294966681
69.433144 1360.1536 -615.48071 4294966681
71.053085 1360.0278 -615.15924 4294966681
17.558296 1362.7943 -615.47528 4294966681
19.614784 1363.3593 -615.20831 4294966681
22.850426 1362.7941 -615.76624 4294966681
25.410851 1362.6405 -615.87744 4294966681
27.441233 1362.8077 -615.83801 4294966681
29.593296 1362.5763 -615.97864 4294966681
33.437923 1362.4678 -615.94421 4294966681
37.951611 1362.3054 -615.93085 4294966681
39.474232 1362.2133 -615.83368 4294966681
45.210793 1362.0457 -615.9245 4294966681
235.92548 1325.0688 -614.99219 4294966682
