# .PCD v0.7 - Point Cloud Data file format
VERSION 0.7
FIELDS x y z rgba
SIZE 4 4 4 4
TYPE F F F U
COUNT 1 1 1 1
WIDTH 1341
HEIGHT 1
VIEWPOINT 0 0 0 1 0 0 0
POINTS 1341
DATA ascii
361.54309 -623.02954 -222.73074 367
368.20969 -639.80774 -221.12793 367
349.19052 -641.28448 -220.0016 367
363.97839 -639.08344 -220.37268 367
353.46936 -637.36597 -220.54008 367
362.72119 -625.50623 -220.99614 367
365.84573 -626.7146 -220.38795 367
361.49466 -622.18909 -220.73907 367
351.10382 -637.79004 -219.14102 367
361.78546 -623.54218 -218.67831 367
361.43484 -619.91266 -218.9534 367
353.63568 -637.20251 -217.02983 367
362.89969 -625.30286 -217.57407 367
364.73517 -626.03723 -217.10738 367
361.49051 -620.21448 -217.04034 367
349.12796 -640.88715 -216.15959 367
350.11856 -638.01007 -216.75972 367
357.08182 -637.74292 -216.63414 367
367.36938 -626.534 -216.90144 367
361.59686 -622.92328 -216.82198 367
349.13184 -640.74255 -215.0799 367
349.90445 -638.16785 -215.01981 367
352.29715 -637.30035 -215.19321 367
361.07584 -638.39594 -215.34233 367
362.6304 -624.84589 -215.02847 367
366.61905 -626.44019 -215.19701 367
361.36127 -620.06586 -215.06003 367
370.64221 -639.34735 -214.83862 367
354.51169 -637.23737 -214.37189 367
356.97931 -637.62933 -214.59581 367
364.91061 -625.87378 -214.76749 367
369.57925 -626.57306 -214.95248 367
361.53677 -622.23694 -214.5692 367
365.44635 -639.06738 -213.3197 367
352.14377 -637.24805 -213.28482 367
357.02704 -637.56372 -213.00618 367
372.07132 -638.67316 -213.11987 367
369.10764 -639.625 -212.95195 367
350.25879 -637.96387 -212.08568 367
353.80838 -637.15802 -212.68237 367
358.85373 -637.87158 -212.9791 367
363.8447 -638.78418 -212.59492 367
374.11002 -636.22839 -212.84047 367
363.09122 -625.06146 -212.53159 367
364.10455 -625.7337 -212.99066 367
367.21561 -626.21906 -212.85432 367
361.39108 -622.30121 -212.76079 367
361.5238 -620.12006 -212.51448 367
350.57864 -637.44659 -211.2569 367
353.39529 -636.86407 -211.19562 367
361.34418 -620.42303 -211.00641 367
349.00928 -644.27515 -210.43399 367
348.90967 -641.40668 -210.54596 367
349.49084 -639.22498 -210.52327 367
366.1936 -639.09491 -210.85393 367
369.40909 -639.33337 -210.92366 367
370.6199 -639.13525 -210.83719 367
356.70218 -637.40332 -210.75523 367
361.43652 -638.27716 -210.83202 367
363.34006 -638.60437 -210.96284 367
373.18787 -637.44482 -210.9552 367
374.09528 -635.98907 -210.89285 367
364.44855 -625.8136 -210.95442 367
367.1853 -626.06696 -210.71596 367
361.85568 -623.68774 -210.68761 367
349.42838 -639.38391 -209.35101 367
350.01132 -638.23431 -209.0975 367
353.32791 -637.02197 -209.40163 367
360.41711 -638.02209 -209.62067 367
374.32196 -635.82263 -209.07483 367
349.0275 -644.91003 -208.76788 367
348.90671 -641.63812 -208.95766 367
366.44778 -639.02106 -208.76897 367
369.31332 -639.37317 -208.94946 367
363.40634 -638.49457 -208.73398 367
372.07996 -638.50891 -208.70435 367
362.92529 -624.79877 -208.90588 367
361.87921 -623.33063 -208.63268 367
348.91623 -641.39185 -207.00165 367
369.52881 -639.10901 -207.13927 367
358.1622 -637.53131 -207.90619 367
365.64246 -638.77966 -207.22304 367
371.86838 -638.5614 -207.15575 367
362.89209 -624.77734 -207.36736 367
349.91388 -638.30182 -206.69693 367
356.47562 -637.15625 -206.66194 367
361.31961 -638.01624 -206.94037 367
363.51279 -638.38934 -206.81155 367
361.59879 -622.35046 -206.74994 367
349.59494 -638.99658 -205.15665 367
351.26239 -637.09705 -205.50536 367
352.21109 -636.8092 -205.14891 367
353.21176 -636.76672 -205.49701 367
354.1329 -636.85962 -205.97368 367
348.99783 -642.0863 -204.94032 367
349.04184 -644.74384 -204.89996 367
368.97906 -639.16956 -204.89261 367
361.7587 -637.95428 -204.33127 367
366.13251 -638.70044 -204.33543 367
361.94022 -623.49805 -204.91908 367
349.09485 -643.646 -203.3472 367
349.90338 -638.37164 -203.64384 367
371.71927 -638.40442 -203.27669 367
373.89081 -636.32324 -203.18481 367
350.89276 -636.974 -202.6846 367
353.85587 -636.42322 -202.68495 367
356.31018 -636.83978 -202.74661 367
359.4614 -637.42383 -202.67084 367
365.49289 -638.53149 -202.98868 367
370.05383 -638.80389 -202.61156 367
374.77264 -633.62524 -202.71341 367
349.11319 -641.26343 -201.00432 367
353.59207 -636.32745 -201.302 367
373.64233 -636.12 -201.08482 367
374.79266 -630.72748 -201.07487 367
350.38071 -637.32599 -200.77795 367
357.03937 -636.88544 -200.94879 367
369.30426 -638.7724 -200.61473 367
371.69879 -638.35358 -200.86609 367
374.15631 -627.79999 -200.54451 367
349.12756 -640.85052 -199.23077 367
366.13052 -638.43823 -199.02711 367
369.17462 -638.96436 -199.23958 367
374.68582 -630.5296 -199.15869 367
350.73636 -637.00317 -198.933 367
353.66293 -636.43201 -198.55414 367
356.79868 -636.71448 -198.34427 367
359.35944 -637.20404 -198.43855 367
370.87332 -638.78967 -198.94814 367
373.58698 -636.15552 -198.92055 367
374.39417 -628.08392 -198.90273 367
371.34161 -626.18542 -198.81035 367
349.61465 -638.58246 -197.327 367
372.86584 -637.48517 -197.17545 367
373.74597 -627.11377 -197.02455 367
348.93289 -642.26886 -196.8782 367
353.75125 -636.33368 -196.53062 367
370.21692 -638.89313 -196.68085 367
364.15121 -625.12262 -196.84047 367
370.39423 -625.56378 -196.6853 367
352.12802 -636.36823 -195.23016 367
369.0816 -638.76776 -195.53873 367
374.9826 -630.17188 -195.19551 367
349.1629 -639.96851 -194.67581 367
350.69388 -637.13251 -194.85146 367
356.22485 -636.42731 -194.92746 367
361.31741 -637.36749 -194.56175 367
373.68222 -636.20123 -194.6515 367
363.30832 -624.47443 -194.98953 367
367.44568 -625.24835 -194.94246 367
370.40936 -625.46735 -194.84471 367
373.61438 -626.93439 -194.64801 367
361.55453 -622.42017 -194.94801 367
361.39276 -620.22205 -194.9731 367
350.90579 -637.14337 -193.20197 367
356.53226 -636.38928 -193.26566 367
358.61975 -636.69275 -193.27458 367
373.8089 -636.08069 -193.11369 367
353.50378 -635.98944 -193.40645 367
374.49072 -628.27203 -193.25938 367
364.16684 -624.63397 -193.01257 367
349.10022 -640.38287 -192.9989 367
375.10101 -630.7901 -192.69713 367
366.98129 -625.17468 -192.80522 367
370.73346 -625.38196 -192.88782 367
361.6795 -622.24194 -192.77213 367
349.29071 -639.65375 -191.05797 367
364.89667 -624.71942 -191.07147 367
361.38165 -620.83508 -191.0085 367
351.45776 -636.57373 -190.67238 367
359.58792 -636.70929 -190.81601 367
371.19333 -638.29626 -190.46071 367
373.71567 -635.78387 -190.91653 367
375.12512 -630.85944 -190.80365 367
367.13412 -625.04633 -190.86571 367
370.401 -625.1665 -190.71773 367
373.49396 -626.75964 -190.93021 367
362.11926 -623.52368 -190.99849 367
350.55823 -637.20215 -189.17215 367
362.23792 -637.30719 -189.63956 367
352.49762 -635.97424 -189.63434 367
375.15591 -631.06628 -189.06389 367
369.68045 -624.94537 -189.04666 367
371.68866 -625.51526 -189.21552 367
373.6239 -626.85504 -189.29686 367
349.09723 -639.88037 -188.76917 367
370.95065 -638.27716 -188.96045 367
372.70755 -637.18695 -188.87531 367
373.59781 -635.84265 -188.92831 367
363.0928 -624.31195 -188.96495 367
364.27902 -624.47766 -188.93822 367
361.68329 -622.19806 -188.7308 367
349.53668 -638.65741 -187.07433 367
361.12823 -636.93573 -187.30637 367
368.73239 -638.13849 -187.33313 367
372.54578 -637.21735 -187.08986 367
350.91138 -636.64117 -186.61014 367
353.34708 -635.57843 -186.88382 367
374.6358 -633.85724 -186.85664 367
375.23004 -630.82404 -186.88666 367
373.87442 -627.11676 -186.67326 367
364.26935 -624.33539 -186.76958 367
367.3291 -624.79236 -186.97064 367
370.25543 -624.93396 -186.92313 367
362.15231 -623.3642 -186.88434 367
361.36981 -620.33142 -186.64136 367
349.54843 -638.45416 -185.25986 367
364.94345 -637.58148 -185.46606 367
372.32761 -637.12982 -185.07355 367
373.62668 -635.54578 -185.28613 367
374.59229 -633.85468 -185.1067 367
375.3031 -630.92828 -185.01967 367
350.43161 -636.80127 -184.24008 367
359.90173 -636.57489 -184.83255 367
369.62949 -638.03369 -184.68802 367
370.7247 -637.8656 -184.90364 367
373.15384 -636.40289 -184.92715 367
374.78229 -628.62769 -184.62311 367
367.18655 -624.703 -184.88626 367
370.6424 -624.89813 -184.55334 367
373.52438 -626.55981 -184.89368 367
361.44379 -621.05054 -184.79213 367
363.01633 -623.91022 -184.83192 367
361.53873 -618.05585 -184.72961 367
363.65686 -637.20044 -183.08348 367
370.48074 -638.01727 -183.08829 367
351.98245 -635.64575 -183.01112 367
354.81097 -635.51996 -183.00417 367
364.31125 -624.07623 -183.03499 367
367.65668 -624.51379 -183.13599 367
361.50226 -618.17749 -183.01651 367
348.83524 -641.33813 -182.39598 367
349.80942 -637.65009 -182.87244 367
361.25153 -636.73267 -182.99724 367
366.36121 -637.6322 -182.34291 367
372.94101 -636.55762 -182.62276 367
373.69885 -635.50775 -182.85559 367
375.3819 -631.11597 -182.81519 367
373.51996 -626.46893 -182.92036 367
362.46466 -623.30951 -182.8111 367
361.46906 -620.87402 -182.86533 367
350.02017 -637.0528 -181.57277 367
365.52643 -637.41071 -181.06891 367
368.13507 -637.8916 -181.06172 367
352.49301 -635.68829 -181.11914 367
373.57297 -635.76361 -181.03227 367
370.0412 -624.60785 -181.12042 367
361.53561 -618.13928 -181.02951 367
349.05273 -639.21045 -180.38062 367
362.43121 -636.84332 -180.00038 367
363.82309 -637.10596 -180.52492 367
371.8895 -637.29169 -180.84264 367
356.88589 -635.8642 -180.99399 367
374.70914 -634.0722 -180.57117 367
375.44574 -630.91779 -180.70981 367
367.16232 -624.42603 -180.88287 367
373.80334 -626.76996 -180.9073 367
364.45618 -623.966 -180.82599 367
348.96722 -639.87073 -179.04527 367
365.04874 -637.18982 -179.18198 367
369.41785 -637.93872 -179.40048 367
373.16251 -636.60577 -179.01707 367
352.48022 -635.59174 -179.13103 367
375.52341 -631.19495 -179.02773 367
361.52075 -617.79547 -179.15182 367
349.37201 -638.53766 -178.70558 367
351.55811 -635.83185 -178.39148 367
374.88657 -633.79395 -178.96887 367
374.96436 -628.75189 -178.98715 367
367.25302 -624.37 -178.79205 367
369.87323 -624.48346 -178.8526 367
371.78152 -625.13702 -178.83072 367
373.61212 -626.48505 -178.95256 367
349.30219 -639.03442 -177.87222 367
362.91647 -636.72107 -177.05524 367
368.96475 -637.79736 -177.16171 367
353.92456 -635.23688 -177.17213 367
375.35507 -631.50592 -177.01218 367
350.01517 -636.71735 -176.64146 367
359.33771 -636.13257 -176.89105 367
366.49911 -637.29572 -176.18507 367
373.22083 -636.59937 -176.88002 367
366.81042 -624.34137 -176.83408 367
369.94989 -624.41553 -176.99254 367
373.38126 -626.16669 -176.99352 367
361.55164 -620.50549 -176.97697 367
361.43961 -617.992 -176.55269 367
349.01926 -639.20587 -175.32758 367
373.89294 -635.76068 -175.10306 367
367.10388 -624.20844 -175.12077 367
371.48337 -624.8877 -175.25797 367
361.33057 -636.37524 -174.94841 367
365.29584 -637.02643 -174.92618 367
370.7507 -637.44 -174.73758 367
350.51816 -635.77051 -174.9382 367
354.53387 -635.32355 -174.97194 367
375.51874 -631.57996 -174.84784 367
369.66547 -624.28021 -174.75056 367
361.73969 -621.68225 -174.85428 367
364.4487 -623.62909 -174.99649 367
361.35275 -618.39734 -174.7504 367
368.42438 -637.54327 -173.07375 367
359.28265 -635.94202 -173.28502 367
369.56738 -624.18256 -173.14104 367
361.51352 -617.9317 -173.08942 367
349.15219 -638.66174 -172.59833 367
361.44293 -636.26794 -172.7 367
365.72363 -636.99823 -172.75264 367
370.93793 -637.43909 -172.51256 367
351.64246 -635.44592 -172.28682 367
352.45773 -635.2384 -172.76784 367
354.57346 -635.14697 -172.92068 367
356.6937 -635.42401 -172.88661 367
373.70233 -635.88812 -172.62794 367
374.92621 -634.01294 -172.88115 367
367.06427 -624.04944 -172.68752 367
362.8407 -622.95453 -172.79951 367
361.55566 -620.4823 -172.66989 367
365.3638 -636.86005 -171.04381 367
359.58801 -635.88947 -171.05309 367
367.20575 -623.96472 -171.10188 367
361.44543 -618.45526 -171.05807 367
349.09146 -640.03729 -170.97244 367
350.00055 -636.50208 -170.2881 367
363.59375 -636.55011 -170.41277 367
368.60532 -637.41779 -170.58354 367
372.01834 -637.01611 -170.29562 367
351.34314 -635.45538 -170.74348 367
353.89883 -634.88361 -170.81218 367
356.55859 -635.32465 -170.7825 367
373.87793 -635.49854 -170.90015 367
375.24719 -631.53729 -170.66745 367
369.68256 -624.01221 -170.72729 367
361.81906 -621.47321 -170.86101 367
364.86298 -623.61456 -170.67358 367
361.48868 -620.28406 -170.87039 367
349.00748 -640.22241 -169.03383 367
349.39148 -637.56549 -169.04202 367
368.53708 -637.35663 -169.39716 367
367.69815 -623.78705 -169.21085 367
361.34061 -636.09259 -168.9686 367
365.5321 -636.76727 -168.83647 367
370.75763 -637.24451 -168.91054 367
372.97098 -636.40875 -168.83844 367
352.18747 -635.10602 -168.84676 367
357.38742 -635.40216 -168.83632 367
375.26309 -631.49701 -168.86707 367
362.95038 -622.87091 -168.83444 367
370.0181 -623.90967 -168.91072 367
361.42511 -618.22424 -168.78406 367
349.63388 -637.22925 -167.46063 367
351.26276 -635.31787 -167.14273 367
352.1138 -635.03723 -167.16953 367
353.58505 -634.98682 -167.74178 367
348.957 -640.10626 -166.95044 367
349.88608 -636.60822 -166.75414 367
361.35403 -636.00092 -166.69724 367
357.45535 -635.33331 -166.85899 367
374.06924 -635.01416 -166.93167 367
361.86496 -621.61365 -166.4906 367
364.19247 -623.44397 -166.50151 367
367.2702 -623.69769 -166.81418 367
361.46936 -619.26929 -166.54129 367
349.42188 -637.78967 -165.05469 367
351.15237 -635.26404 -165.04326 367
356.52472 -635.12689 -165.45334 367
359.20493 -635.56677 -165.25679 367
361.53934 -635.97833 -165.05476 367
375.31503 -628.63202 -165.10121 367
367.30789 -623.6311 -165.08241 367
370.17249 -623.62909 -165.02391 367
361.37885 -619.34064 -165.04092 367
349.8118 -636.6012 -164.75461 367
353.40891 -634.57245 -164.93358 367
362.70633 -622.63715 -164.65025 367
364.198 -623.41156 -164.98428 367
361.78909 -615.76447 -164.7077 367
348.88367 -640.28827 -163.35938 367
352.7944 -634.69739 -163.05536 367
361.48483 -635.89136 -163.08221 367
372.04382 -624.138 -163.01253 367
361.55783 -620.47705 -163.12596 367
349.10718 -637.70447 -162.63538 367
350.78442 -635.31104 -162.66377 367
357.10257 -634.95355 -162.65359 367
361.81812 -621.32245 -162.43382 367
362.53275 -622.46655 -162.91447 367
364.50781 -623.15228 -162.69971 367
367.57935 -623.46936 -162.78654 367
361.43735 -618.19073 -162.85536 367
361.81433 -615.60114 -162.50862 367
348.86749 -640.23773 -161.31561 367
356.83264 -634.87012 -161.1758 367
369.60452 -623.47461 -161.7587 367
348.86487 -642.62073 -160.74191 367
349.18326 -637.60565 -160.68187 367
350.48441 -635.21454 -160.82326 367
353.57919 -634.37543 -160.71111 367
361.37085 -635.76569 -160.76134 367
373.04019 -635.45563 -160.74118 367
373.59259 -625.14893 -160.80788 367
362.6286 -622.44495 -160.77576 367
364.20282 -623.00952 -160.4982 367
367.55698 -623.39044 -160.69478 367
361.48743 -619.56293 -160.92184 367
361.87628 -615.23853 -160.94218 367
348.84436 -639.80237 -159.41191 367
349.36475 -637.21313 -159.40094 367
372.08682 -624.03082 -159.71817 367
361.72998 -616.04425 -159.07658 367
372.12213 -636.05591 -158.39958 367
350.97995 -634.961 -158.44138 367
353.68124 -634.20178 -158.37885 367
356.87073 -634.78772 -158.41151 367
359.29813 -635.24854 -158.91315 367
374.84048 -626.63306 -158.77341 367
361.86646 -621.33887 -158.72307 367
362.9288 -622.55304 -158.92299 367
364.39316 -622.93658 -158.81395 367
366.03711 -623.37793 -158.6039 367
370.72507 -623.53998 -158.84721 367
361.4541 -619.6297 -158.76236 367
370.1683 -636.7771 -157.32065 367
357.35269 -634.81708 -157.12468 367
372.08322 -623.9577 -157.55798 367
348.77802 -643.09747 -156.52031 367
349.28635 -637.5224 -156.8158 367
351.68646 -634.61261 -156.96567 367
353.87704 -634.12695 -156.04688 367
359.56439 -635.19391 -156.35443 367
373.57843 -634.39008 -156.78329 367
361.90384 -621.69318 -156.77834 367
363.95932 -622.72644 -156.84801 367
367.44653 -623.12421 -156.81161 367
369.41177 -623.26178 -156.95956 367
361.46506 -618.73151 -156.70874 367
361.71732 -616.06104 -156.94844 367
348.79456 -642.263 -155.42111 367
348.87582 -640.11194 -155.96861 367
365.31155 -636.17261 -155.2934 367
350.71729 -635.21582 -155.08742 367
373.71494 -625.14954 -155.0186 367
361.45865 -619.39917 -155.23985 367
348.82922 -640.38696 -154.88174 367
349.97513 -636.22913 -154.55322 367
353.73959 -634.06549 -154.81752 367
359.20309 -635.04114 -154.7628 367
361.45303 -635.47882 -154.98753 367
363.38727 -635.84576 -154.84921 367
366.34677 -623.12402 -154.90863 367
370.13943 -623.30859 -154.67467 367
361.58746 -620.61316 -154.63498 367
367.41 -622.96716 -153.0108 367
371.69315 -623.84882 -153.16397 367
348.94965 -639.86029 -152.63474 367
349.17807 -637.88263 -152.98003 367
366.21445 -636.17688 -152.86632 367
351.80536 -634.5755 -152.39664 367
352.38873 -634.36621 -152.49698 367
354.39728 -634.15369 -152.53352 367
356.90222 -634.4837 -152.60587 367
359.36142 -634.97253 -152.70331 367
363.52011 -635.73871 -152.62537 367
372.72366 -635.10907 -152.85899 367
374.18246 -626.02765 -152.7049 367
361.83206 -621.57776 -152.82846 367
363.98434 -622.53027 -152.96927 367
369.73706 -623.35486 -152.26884 367
361.46588 -619.62964 -152.87024 367
361.68546 -616.10681 -152.9557 367
349.89368 -636.35541 -151.21542 367
367.9931 -636.3429 -151.14928 367
353.68521 -634.11395 -151.0365 367
359.38602 -634.89722 -151.01585 367
363.43509 -635.6377 -151.19539 367
361.42203 -619.63684 -151.03908 367
361.82663 -615.15094 -151.03221 367
348.9848 -638.69897 -150.87419 367
350.73083 -635.14948 -150.8754 367
352.547 -634.24097 -150.87218 367
356.41324 -634.3186 -150.91286 367
361.9436 -621.66064 -150.80515 367
366.79865 -622.90356 -150.91612 367
369.64133 -623.14087 -150.86804 367
349.32941 -637.89563 -149.18663 367
351.55972 -634.60468 -149.0079 367
356.69461 -634.2962 -149.095 367
361.38 -635.18689 -149.2588 367
366.59106 -622.87872 -149.10268 367
349.78949 -636.68433 -148.84718 367
365.35052 -635.75262 -148.50008 367
362.91388 -622.1701 -148.87799 367
364.12744 -622.46613 -148.88126 367
371.64142 -623.66003 -148.99338 367
361.31 -619.58447 -148.95032 367
361.64944 -615.87415 -148.83954 367
353.57864 -633.68958 -147.00252 367
363.14868 -622.23511 -147.01886 367
361.48431 -620.58435 -147.4305 367
361.59351 -615.91742 -147.00558 367
348.83899 -640.50287 -146.95445 367
349.60162 -637.13812 -146.59079 367
361.9978 -621.2774 -146.41507 367
364.00827 -622.36334 -146.88326 367
366.69565 -622.72156 -146.8089 367
361.41071 -619.12494 -146.53139 367
349.24054 -637.97876 -145.00554 367
361.39398 -617.04126 -145.80925 367
348.79669 -640.51471 -144.9749 367
351.20755 -634.27563 -144.90483 367
362.13565 -621.59222 -144.94962 367
363.65405 -622.14539 -144.8782 367
366.74872 -622.59064 -144.79185 367
361.38724 -619.13513 -144.59256 367
348.75671 -640.41736 -143.07391 367
349.24832 -637.88867 -143.34912 367
352.26944 -633.66895 -143.21948 367
363.24704 -622.09631 -143.39941 367
349.61804 -636.40863 -142.73587 367
351.44702 -634.09613 -142.75739 367
364.08087 -622.289 -142.59915 367
361.4581 -620.25739 -142.99573 367
361.52841 -615.9436 -142.94446 367
348.81339 -639.4834 -141.36894 367
361.4469 -619.08801 -141.39268 367
349.9292 -635.3999 -140.82323 367
351.3356 -634.00201 -140.90436 367
353.20663 -633.50397 -140.24323 367
362.25958 -621.29639 -140.91803 367
366.392 -622.5166 -140.91989 367
361.48856 -615.9173 -140.73033 367
349.18549 -637.52686 -139.17493 367
361.68002 -619.80078 -139.2693 367
348.75641 -640.39508 -138.80756 367
349.6199 -635.9046 -138.8864 367
350.70871 -633.97235 -138.82082 367
352.36798 -633.45618 -138.48425 367
353.95126 -633.4231 -138.6031 367
356.83582 -633.73138 -138.43555 367
362.43408 -621.26062 -138.8981 367
361.40356 -618.18378 -138.34227 367
361.36212 -616.19678 -138.51749 367
348.76306 -640.5802 -137.1293 367
356.5105 -633.59753 -137.08353 367
361.26828 -634.48187 -137.11504 367
348.85382 -638.07892 -136.89194 367
349.53992 -635.80426 -136.83319 367
351.39291 -633.69519 -136.86623 367
353.62839 -633.30219 -136.90549 367
363.57361 -634.86169 -136.82021 367
361.4491 -618.12195 -136.53801 367
362.16769 -620.78021 -136.71019 367
361.47971 -615.62061 -136.61255 367
361.91083 -613.51721 -136.83502 367
349.01468 -637.74713 -135.13261 367
349.88602 -634.73053 -135.27281 367
365.4541 -635.05518 -135.06442 367
368.73233 -635.43085 -135.17688 367
364.29382 -621.99573 -135.00128 367
361.66425 -619.33313 -135.00766 367
361.34265 -616.35175 -135.39671 367
348.75836 -641.06042 -134.96663 367
349.42999 -636.10132 -134.58698 367
351.13055 -633.54956 -134.90959 367
353.34619 -633.24915 -134.9225 367
356.72836 -633.55438 -134.65254 367
359.38177 -634.07367 -134.58156 367
361.27356 -634.42847 -134.94943 367
369.61667 -622.42242 -134.68781 367
361.487 -618.32275 -134.28433 367
361.97882 -613.09094 -134.93964 367
363.79459 -596.99091 -134.63901 367
364.09839 -594.93903 -134.24475 367
364.29514 -592.78162 -134.28699 367
364.35193 -585.14478 -134.57361 367
349.49487 -635.87134 -133.51833 367
351.35287 -633.55701 -133.01498 367
356.52139 -633.47162 -133.19089 367
374.06915 -631.9762 -133.09081 367
361.67828 -619.48529 -133.32944 367
361.88943 -613.52991 -133.25615 367
364.3873 -590.67908 -133.98694 367
363.68414 -587.09436 -133.11963 367
364.3103 -579.82715 -133.15712 367
348.7858 -640.79285 -132.43005 367
348.97369 -638.14752 -132.70392 367
353.49036 -633.18921 -132.99095 367
363.44437 -634.67432 -132.94789 367
366.30798 -635.06836 -132.54843 367
368.47992 -635.3161 -132.21503 367
370.72238 -635.15588 -132.81799 367
372.85843 -633.56165 -132.94026 367
374.18884 -626.36188 -132.46037 367
364.26056 -621.87689 -132.58333 367
370.03735 -622.45667 -132.92786 367
361.36368 -615.96844 -132.82881 367
362.34973 -610.64764 -132.69843 367
363.8746 -595.40442 -132.22929 367
361.59573 -584.96637 -132.27972 367
362.90359 -582.02765 -132.5632 367
363.40598 -583.39294 -132.94131 367
349.49506 -635.87866 -131.33728 367
350.15924 -634.39203 -131.1143 367
361.16766 -634.237 -131.1257 367
362.92627 -634.5968 -131.84207 367
371.98013 -634.40698 -131.05211 367
361.43787 -616.16699 -131.00424 367
362.55557 -609.00073 -131.09479 367
363.20319 -591.12677 -131.37175 367
362.92157 -589.24768 -131.67023 367
359.54199 -583.90704 -131.38565 367
361.03122 -582.83606 -131.98227 367
359.86295 -581.34473 -131.44261 367
360.35989 -579.16809 -131.13788 367
361.44293 -581.11316 -131.93791 367
362.52011 -578.95447 -131.72791 367
348.76108 -640.88635 -130.74232 367
348.88174 -638.09344 -130.75037 367
353.43567 -633.11646 -130.90973 367
356.54956 -633.38953 -130.95943 367
359.37299 -633.91718 -130.87424 367
369.6282 -635.2608 -130.97792 367
373.55707 -632.28528 -130.72548 367
374.47757 -629.41864 -130.93773 367
373.60587 -624.84314 -130.88222 367
369.62265 -622.1286 -130.71899 367
372.03732 -623.06384 -130.5845 367
361.61948 -619.49207 -130.66107 367
361.94003 -613.11151 -130.43213 367
362.22888 -611.3028 -130.94183 367
363.24603 -603.16846 -130.69432 367
363.52454 -600.46655 -130.2263 367
363.68091 -598.50458 -130.40698 367
362.85742 -594.4751 -130.04166 367
363.66776 -595.92419 -130.65628 367
361.66144 -591.09583 -130.3833 367
363.39972 -592.9903 -130.94237 367
359.6568 -588.73669 -130.90758 367
357.47925 -583.32471 -130.53741 367
357.72665 -579.96765 -130.42195 367
360.14352 -577.6142 -130.67677 367
367.95078 -621.72247 -129.38802 367
369.92728 -622.03625 -129.07727 367
361.89383 -613.30475 -129.0435 367
363.05475 -605.12537 -129.15817 367
363.17899 -594.77966 -129.71989 367
356.21613 -582.96478 -129.61008 367
356.25629 -580.97491 -129.27672 367
357.28778 -577.13135 -129.57518 367
348.74893 -640.76105 -128.61539 367
348.89398 -638.0932 -128.55913 367
349.96136 -634.79718 -128.98199 367
352.49991 -633.13593 -128.98228 367
356.49689 -633.2804 -128.82932 367
359.55399 -633.85565 -128.84006 367
361.38409 -634.1225 -128.59772 367
367.48022 -635.04407 -128.22772 367
370.23386 -634.90112 -128.49312 367
372.5986 -633.46112 -128.56552 367
373.5239 -632.20941 -128.76936 367
374.14944 -629.92267 -128.9476 367
374.1409 -626.60876 -128.64577 367
372.45972 -623.1781 -128.34047 367
361.44214 -618.59412 -128.65611 367
361.39615 -615.922 -128.57686 367
362.24393 -611.14362 -128.91321 367
362.81445 -607.12384 -128.73216 367
363.48175 -601.65137 -128.61723 367
363.49551 -598.7287 -128.35983 367
362.58243 -595.85516 -128.03554 367
363.44778 -596.96936 -128.70053 367
359.60101 -593.00183 -128.69128 367
355.64087 -583.18915 -128.50323 367
356.01962 -578.51489 -128.16789 367
356.76108 -633.28351 -127.0047 367
374.11502 -626.46771 -127.15222 367
361.80701 -619.79065 -127.03252 367
362.5647 -609.2005 -127.25415 367
362.85043 -607.13043 -127.13748 367
363.00494 -597.05481 -127.18253 367
355.55438 -580.64026 -127.72554 367
348.39325 -642.94525 -126.80724 367
348.88742 -638.07104 -126.98102 367
349.36346 -636.35706 -126.94619 367
350.14212 -634.33966 -126.78256 367
352.59042 -633.04236 -126.87616 367
359.21323 -633.70618 -126.13435 367
370.19968 -634.93103 -126.91122 367
373.65497 -631.40149 -126.58871 367
364.19293 -621.20392 -126.67186 367
366.77655 -621.70795 -126.62357 367
369.81342 -621.81799 -126.66026 367
373.09564 -623.71881 -126.07326 367
361.4231 -618.15259 -126.83105 367
361.39999 -616.15765 -126.79762 367
361.87628 -613.33606 -126.95992 367
362.22424 -611.31738 -126.69545 367
363.47424 -601.49817 -126.40082 367
360.25809 -571.46295 -126.37484 367
348.20764 -643.69446 -125.26297 367
348.85101 -638.33606 -125.41743 367
350.18561 -634.40912 -125.17412 367
357.29971 -633.33246 -125.0204 367
372.20914 -634.09576 -125.06709 367
361.36276 -616.98584 -125.13131 367
361.88644 -613.32874 -125.54445 367
362.27432 -598.15381 -125.38771 367
355.233 -593.59271 -125.26495 367
355.88394 -576.70874 -125.92847 367
348.68799 -640.64435 -124.898 367
349.39847 -636.05115 -124.67879 367
351.15402 -633.53076 -124.90249 367
369.25766 -634.79828 -124.81049 367
353.63416 -632.93018 -124.78429 367
373.95413 -630.2525 -124.7879 367
374.08569 -626.42755 -124.76415 367
364.31262 -621.45258 -124.88222 367
367.01929 -621.65582 -124.66012 367
369.81412 -621.79791 -124.7749 367
372.25247 -622.98877 -124.96103 367
363.01416 -620.94275 -124.90635 367
362.47391 -609.9176 -124.9304 367
362.92288 -607.13165 -124.69516 367
363.39819 -604.58167 -124.47827 367
363.35196 -601.57202 -124.62869 367
359.51816 -597.01172 -124.90713 367
361.63116 -598.69391 -124.04472 367
362.92493 -599.28912 -124.78115 367
358.09424 -596.52429 -124.614 367
348.47144 -641.74628 -123.11086 367
356.50574 -633.0965 -123.10585 367
372.30615 -634.01538 -123.36936 367
374.01157 -627.00757 -123.09433 367
373.57217 -624.51196 -123.16479 367
367.67502 -621.64233 -123.3652 367
372.20547 -622.745 -123.11472 367
361.51398 -618.57013 -123.32258 367
363.104 -601.1582 -123.11002 367
358.38287 -597.59119 -123.3903 367
362.35815 -599.64984 -123.34224 367
355.13446 -595.50525 -123.15176 367
354.81363 -593.94714 -123.73577 367
349.50089 -635.74225 -122.65965 367
351.1015 -633.52173 -122.86055 367
359.30334 -633.62964 -122.86729 367
361.36713 -633.9812 -122.67614 367
367.18491 -634.61322 -122.93859 367
372.15649 -634.19708 -122.79948 367
354.1058 -632.87421 -122.80386 367
373.80667 -630.61304 -122.8504 367
364.07953 -621.28906 -122.85577 367
370.50272 -621.96423 -122.05581 367
361.81061 -619.39978 -122.69114 367
361.91837 -613.00104 -122.32398 367
362.22864 -611.37323 -122.97077 367
363.04453 -606.83289 -122.83871 367
363.37134 -604.33777 -122.53403 367
363.33234 -602.62402 -122.68842 367
348.57877 -640.85748 -121.21504 367
348.76651 -638.87708 -121.76931 367
373.82419 -630.18854 -121.15121 367
373.88187 -626.46838 -121.17913 367
362.70975 -620.50543 -121.19015 367
361.45935 -615.67969 -121.46705 367
362.68011 -609.09161 -121.02306 367
357.69604 -598.48199 -121.24754 367
359.70926 -599.34045 -121.03046 367
350.02634 -634.38953 -120.96408 367
356.97626 -633.08044 -120.69151 367
366.35406 -634.63965 -120.12056 367
369.52252 -634.68646 -120.57692 367
371.81418 -634.23505 -120.422 367
372.0054 -634.05664 -120.93077 367
352.36774 -632.84149 -120.90643 367
355.03952 -632.84564 -120.9951 367
366.72769 -621.57593 -120.47789 367
370.62103 -621.98444 -120.85619 367
372.82874 -623.32831 -120.68131 367
361.63977 -618.77142 -120.68752 367
363.15201 -606.64752 -120.83818 367
363.34149 -604.33929 -120.96163 367
362.64404 -601.32056 -120.83625 367
348.10269 -643.24249 -119.69457 367
348.60626 -640.39313 -119.18834 367
349.47336 -634.88397 -119.63438 367
373.47803 -631.39136 -119.21664 367
373.63132 -627.19543 -119.65336 367
367.98132 -621.59174 -119.27433 367
361.78665 -619.20483 -119.11122 367
361.75684 -613.67542 -119.11594 367
363.26331 -604.42334 -119.13647 367
362.55045 -601.59076 -119.30596 367
359.69263 -599.9212 -119.47983 367
361.2981 -633.82532 -118.78229 367
363.41696 -634.15735 -118.59808 367
366.46899 -634.68195 -118.79349 367
370.50781 -634.43524 -118.60471 367
372.32681 -633.50739 -118.58902 367
353.59604 -632.64435 -118.12813 367
369.08398 -621.71716 -118.34451 367
372.36859 -622.91565 -118.81893 367
363.53662 -620.87482 -118.92884 367
361.35782 -616.11078 -118.63637 367
362.51685 -610.07001 -118.69176 367
363.12653 -606.70667 -118.71307 367
362.9313 -602.87628 -118.6157 367
348.64734 -640.16754 -117.01681 367
359.64462 -633.44513 -117.16646 367
368.82516 -634.65082 -116.37777 367
370.25699 -634.52911 -116.70244 367
370.31619 -621.9917 -116.99215 367
372.38522 -623.08081 -116.80049 367
361.45416 -618.17761 -116.71855 367
362.698 -620.3667 -116.86023 367
364.36493 -620.88104 -116.64371 367
361.34152 -616.49561 -116.98407 367
361.78494 -613.49292 -116.88902 367
362.7384 -609.10364 -116.96958 367
363.23413 -606.26697 -116.50986 367
363.19418 -604.62372 -116.75379 367
362.03055 -601.96619 -116.93113 367
371.41736 -633.62177 -115.34688 367
369.53815 -621.81665 -115.46752 367
361.49176 -617.97339 -115.04414 367
362.15872 -611.89545 -115.58112 367
348.69165 -641.1181 -114.96252 367
359.4115 -633.19513 -114.71963 367
363.40747 -634.03589 -114.95975 367
367.25531 -634.63989 -114.52607 367
368.64645 -634.64246 -114.7621 367
354.46335 -632.1767 -114.71688 367
372.87427 -631.48724 -114.55013 367
364.58157 -621.11499 -114.62377 367
367.23114 -621.42737 -114.76152 367
372.686 -623.7005 -114.67321 367
361.42551 -616.81219 -114.48022 367
361.6394 -614.17401 -114.81873 367
362.85483 -608.91272 -114.57572 367
363.22708 -606.5014 -114.93534 367
362.91174 -603.30109 -114.91276 367
356.46106 -570.07068 -114.75012 367
363.33469 -565.17676 -114.72137 367
366.35028 -561.5625 -114.77396 367
368.20554 -621.5105 -113.08352 367
372.19455 -623.4104 -113.35062 367
361.43356 -616.61975 -113.21464 367
363.27673 -606.44812 -113.29688 367
363.31036 -604.40479 -113.00539 367
361.82178 -602.00446 -113.18919 367
356.22214 -572.6734 -113.11411 367
358.26678 -567.0379 -113.17402 367
348.34067 -642.25214 -112.34402 367
348.72803 -639.65649 -112.42892 367
350.07394 -633.41528 -112.48134 367
363.23224 -633.96631 -112.91076 367
367.20941 -634.55042 -112.9709 367
369.78534 -634.25916 -112.58478 367
371.10962 -633.38867 -112.99065 367
351.24023 -632.71661 -112.64988 367
354.26859 -632.18152 -112.6301 367
358.85406 -632.94934 -112.92438 367
362.14023 -619.55115 -112.90446 367
361.82388 -613.63635 -112.55564 367
362.87515 -608.995 -112.70898 367
366.62811 -559.50507 -112.52706 367
348.58652 -640.56189 -111.14909 367
368.5871 -634.41028 -111.07758 367
354.4953 -632.09027 -111.01691 367
356.186 -632.25696 -111.1077 367
370.07806 -621.88348 -111.04729 367
362.5871 -610.28333 -111.28758 367
363.173 -604.23004 -111.16891 367
356.24994 -571.51746 -111.02493 367
348.8718 -638.49799 -110.7472 367
349.45868 -634.48145 -110.45345 367
359.60938 -633.05414 -110.59267 367
364.07431 -634.10187 -110.81955 367
352.6304 -632.1712 -110.70839 367
371.79095 -632.35236 -110.85452 367
371.38156 -622.67847 -110.94851 367
361.60056 -617.83521 -110.44959 367
361.89597 -613.15802 -110.51492 367
363.37634 -606.30371 -110.27073 367
364.13123 -564.04742 -110.71514 367
366.0459 -561.46478 -110.75909 367
350.30228 -633.20874 -109.18667 367
361.29086 -633.40894 -109.11759 367
364.73999 -634.20355 -109.77776 367
353.60376 -631.96674 -109.21905 367
363.22247 -606.69342 -109.14085 367
349.38568 -635.48871 -108.77504 367
351.64349 -632.242 -108.6179 367
356.65024 -632.33716 -108.44962 367
359.27728 -632.87366 -108.8358 367
371.68546 -631.91412 -108.7879 367
373.32516 -626.94867 -108.98654 367
369.11224 -621.66077 -108.87611 367
372.15231 -623.58093 -108.74078 367
366.23532 -620.76025 -108.96281 367
361.36957 -615.97437 -108.80615 367
361.64651 -614.05573 -108.94859 367
362.83264 -608.69781 -108.43436 367
363.05991 -604.09204 -108.66991 367
356.26031 -570.31207 -108.79249 367
364.8158 -563.02539 -108.90144 367
348.70514 -638.47162 -107.19759 367
352.70575 -632.01385 -107.36567 367
353.36465 -631.93256 -107.13522 367
371.60321 -622.87207 -107.01463 367
361.54413 -617.54266 -107.23599 367
361.54272 -613.58459 -107.08324 367
356.29642 -572.61194 -107.75934 367
361.51016 -565.30072 -107.2057 367
348.36963 -641.02435 -106.78073 367
349.54752 -635.14264 -106.902 367
350.53351 -633.03595 -106.83631 367
356.72186 -632.3197 -106.95028 367
358.51941 -632.69135 -106.95643 367
372.61273 -630.05957 -106.71662 367
369.62326 -621.6134 -106.8137 367
362.2662 -609.55627 -106.58974 367
365.31274 -559.90033 -106.7673 367
348.70291 -638.52985 -105.02472 367
362.91415 -619.7359 -105.01508 367
365.70346 -620.54535 -105.16864 367
361.43771 -617.82935 -105.37596 367
363.24673 -564.54492 -105.2211 367
364.53214 -561.97516 -105.23844 367
349.12747 -636.02026 -104.96919 367
350.0914 -633.6875 -104.92232 367
352.71414 -631.80603 -104.76466 367
357.349 -632.34052 -104.84351 367
359.5621 -632.87451 -104.85379 367
372.44653 -630.13086 -104.76902 367
372.76862 -624.57159 -104.85667 367
371.52756 -622.69861 -104.78293 367
367.76804 -620.99304 -104.90955 367
360.83664 -615.76111 -104.42361 367
361.06348 -613.35028 -104.90591 367
359.24854 -566.35889 -104.04408 367
349.12769 -636.03973 -103.25864 367
355.25314 -631.83099 -103.84068 367
371.36511 -631.51331 -103.27013 367
369.63187 -621.47888 -103.06927 367
363.76511 -620.26917 -103.13574 367
360.4053 -614.27612 -103.43391 367
361.43741 -564.88342 -103.70671 367
363.86261 -563.23407 -103.52452 367
364.11319 -559.80682 -103.14734 367
348.703 -638.63678 -102.96079 367
350.04074 -633.40686 -102.56681 367
352.60153 -631.88055 -102.9115 367
372.45163 -629.59552 -102.65043 367
361.92841 -619.3443 -102.79686 367
365.43777 -620.58875 -102.9373 367
367.94696 -620.99506 -102.67039 367
360.41919 -616.87677 -102.74723 367
362.82376 -564.47314 -102.57297 367
357.41699 -632.14313 -101.11932 367
369.73138 -621.42224 -101.02245 367
365.97589 -620.60925 -101.37305 367
357.49298 -568.5943 -101.12462 367
358.4664 -567.77509 -101.82121 367
359.96222 -566.46753 -101.67139 367
371.96033 -630.18286 -100.88444 367
371.685 -622.98877 -100.78857 367
361.3522 -619.31323 -100.44308 367
362.81708 -620.15369 -100.88506 367
367.7529 -620.82275 -100.52378 367
359.59714 -616.48151 -100.85628 367
359.34143 -613.05762 -100.28828 367
361.19931 -566.10968 -100.11399 367
363.03345 -563.28253 -100.99554 367
349.68079 -633.85492 -99.149155 367
370.57727 -633.27594 -99.244286 367
371.82721 -630.29938 -99.027977 367
370.70883 -622.19153 -99.564262 367
358.83859 -615.80945 -99.222618 367
359.71387 -566.7644 -99.005791 367
370.11401 -633.75177 -98.614632 367
352.54395 -631.61151 -98.774811 367
369.13126 -621.15186 -98.281357 367
364.64029 -620.37683 -98.254974 367
360.37036 -597.72125 -98.21566 367
357.54895 -570.03827 -98.435463 367
359.65601 -567.42377 -98.307922 367
360.3248 -568.02423 -98.932312 367
360.38168 -566.76245 -98.813812 367
362.40878 -563.48633 -98.790527 367
368.59412 -633.60651 -97.521469 367
370.41763 -633.94165 -97.273331 367
354.42996 -631.46014 -97.3284 367
356.96344 -631.81525 -97.604027 367
358.84595 -617.78693 -97.232147 367
357.93912 -613.93213 -97.175301 367
359.3349 -599.98877 -97.37735 367
355.87692 -578.87787 -97.246063 367
359.53979 -568.79846 -97.297562 367
361.60852 -563.65308 -97.168961 367
349.76285 -633.31989 -96.856339 367
351.20892 -631.81555 -96.867142 367
371.47479 -631.20935 -96.959229 367
369.72134 -621.29211 -96.859161 367
365.48727 -620.52875 -96.965019 367
359.17053 -604.12976 -96.758667 367
359.0903 -599.84839 -96.422928 367
355.79654 -581.09149 -96.750732 367
359.60535 -569.48682 -96.65213 367
348.82327 -635.8006 -95.01236 367
370.49686 -634.11523 -95.821159 367
371.87024 -629.77924 -95.15361 367
372.15939 -624.13647 -95.007919 367
370.69339 -621.83093 -95.168854 367
367.6236 -620.52576 -95.002563 367
357.21365 -613.22211 -95.033295 367
358.0795 -598.39105 -95.820114 367
359.33273 -595.7309 -95.158455 367
360.25006 -596.31464 -95.970093 367
355.72253 -583.19861 -95.029228 367
355.70325 -581.19489 -95.085587 367
359.8653 -570.74225 -95.345848 367
359.97223 -567.74292 -95.144562 367
360.3667 -566.15955 -95.066658 367
349.92532 -632.83118 -94.692528 367
351.43564 -631.65558 -94.894836 367
356.9133 -631.59045 -94.878525 367
371.30484 -631.96716 -94.852676 367
357.43115 -611.4682 -94.901253 367
357.89258 -608.89191 -94.990723 367
358.93207 -601.08057 -94.703979 367
358.62891 -597.21387 -94.085159 367
359.1127 -597.24878 -94.682503 367
360.49026 -572.05121 -94.972816 367
359.31699 -569.23309 -94.31485 367
350.19974 -632.46454 -93.057228 367
352.60757 -631.32306 -93.150429 367
356.7319 -631.43439 -93.098869 367
357.52832 -617.60553 -93.406273 367
357.04031 -609.35242 -93.00428 367
357.75812 -605.18237 -93.392662 367
358.78867 -595.59033 -93.380966 367
358.64536 -571.24286 -93.301285 367
359.66602 -569.94055 -93.835136 367
351.25351 -631.69568 -92.933792 367
359.17288 -631.73279 -92.182198 367
367.13101 -620.245 -92.049416 367
356.52383 -615.59985 -92.910759 367
356.33853 -614.23462 -92.872749 367
358.19952 -601.0813 -92.862808 367
358.75522 -598.9295 -92.831116 367
359.47311 -595.94568 -92.794052 367
359.50745 -593.49316 -92.340912 367
357.93686 -573.5033 -92.994186 367
359.0332 -571.31934 -92.135246 367
348.79752 -636.86029 -91.64241 367
349.77316 -633.64001 -91.124138 367
350.27628 -632.60107 -91.314972 367
359.36063 -631.70569 -91.210205 367
356.02499 -611.59692 -91.147827 367
358.98453 -596.60767 -91.150169 367
359.41959 -595.01764 -91.669662 367
358.98193 -591.55017 -91.455719 367
358.95773 -572.034 -91.543121 367
351.42282 -631.65845 -90.911362 367
352.5437 -631.2926 -90.848404 367
354.42386 -631.14545 -90.84594 367
356.98523 -631.3385 -90.833107 367
370.19016 -621.43152 -90.629898 367
356.37192 -616.92468 -90.972916 367
355.66074 -613.81232 -90.97596 367
356.2178 -609.36249 -90.846741 367
356.8559 -604.08264 -90.726601 367
357.89709 -599.10126 -90.710068 367
358.99313 -592.97754 -90.416519 367
359.31274 -568.47485 -90.746094 367
349.65298 -634.1756 -89.670799 367
351.60355 -631.57715 -89.041916 367
352.5538 -631.24188 -89.008911 367
358.31992 -619.18567 -89.184502 367
355.34482 -615.39874 -89.443893 367
355.18106 -611.78302 -89.095726 367
349.08932 -636.14166 -88.818275 367
354.60196 -631.09186 -88.744408 367
357.03876 -631.22253 -88.759323 367
370.9996 -629.53595 -88.970543 367
370.59015 -621.82031 -88.933716 367
371.28934 -623.86438 -88.604637 367
366.53564 -619.90173 -88.910431 367
368.41644 -620.2373 -88.757813 367
356.0463 -617.43005 -88.615089 367
354.90338 -613.55414 -88.786415 367
356.42496 -601.16138 -88.56823 367
357.09143 -598.74982 -88.822334 367
357.64136 -596.68298 -88.674744 367
358.19073 -594.67126 -88.678467 367
358.19891 -592.8103 -88.685493 367
354.31555 -630.96674 -87.055473 367
356.88641 -631.0907 -87.115631 367
363.23456 -619.93988 -87.339241 367
366.47272 -619.98145 -87.091614 367
368.6116 -620.42065 -87.22567 367
354.42044 -614.2951 -87.294922 367
357.20633 -594.8042 -87.223213 367
357.28525 -593.26752 -87.251335 367
350.44504 -632.58215 -86.234047 367
351.65189 -631.42578 -86.685051 367
371.30042 -626.43488 -86.585777 367
370.39301 -622.09985 -86.842728 367
356.61169 -618.44427 -86.985527 367
356.60583 -596.9267 -86.974396 367
356.93622 -630.93756 -85.096146 367
369.88037 -621.36414 -85.291496 367
367.62619 -619.91675 -85.513214 367
354.0636 -615.60321 -85.064125 367
355.25552 -617.5423 -85.422096 367
349.57977 -633.93207 -84.893028 367
352.55179 -630.88275 -84.918015 367
354.62741 -630.81641 -84.872391 367
371.12418 -626.91785 -84.646187 367
370.89496 -623.8418 -84.985146 367
370.48557 -630.11829 -83.457253 367
359.36682 -619.70837 -83.090309 367
366.88266 -619.6427 -83.197571 367
354.66476 -617.51709 -83.090401 367
350.34946 -632.23425 -82.52108 367
352.97614 -630.8136 -82.731987 367
354.47159 -630.59808 -82.677757 367
359.48883 -631.25922 -82.537132 367
371.10474 -626.15039 -82.887962 367
370.63934 -622.6004 -82.809921 367
356.82721 -619.16815 -82.345879 367
360.85162 -619.86713 -82.483688 367
369.31 -620.70642 -82.789268 367
354.44708 -630.41528 -81.002861 367
357.06714 -630.65448 -81.079659 367
361.04449 -619.96277 -81.054596 367
363.1344 -619.64594 -81.11274 367
349.49536 -633.46136 -80.734123 367
351.02789 -631.51422 -80.852318 367
359.41565 -631.35339 -80.714882 367
370.48343 -629.54517 -80.46125 367
370.96008 -625.52899 -80.747803 367
370.33459 -622.20337 -80.781601 367
354.88971 -618.14612 -80.865799 367
359.37143 -631.48431 -79.025139 367
358.92368 -619.72723 -79.194588 367
352.73291 -615.95276 -79.295341 367
351.28705 -631.14838 -78.627998 367
352.9317 -630.41333 -78.957565 367
354.4458 -630.09113 -78.866463 367
356.70963 -630.48517 -78.906532 367
370.85144 -624.47931 -78.708069 367
356.81903 -619.26105 -78.859093 367
360.93253 -619.71631 -78.880447 367
364.59238 -619.35645 -78.943459 367
366.80554 -619.44238 -78.017433 367
354.1507 -617.88477 -78.768204 367
351.18591 -631.14484 -77.068123 367
356.59097 -630.46393 -77.048241 367
358.88739 -631.39209 -77.374321 367
360.94101 -632.19446 -77.214462 367
357.41922 -619.42859 -77.772095 367
364.01724 -619.26239 -77.238609 367
353.65466 -617.70013 -77.027702 367
351.77106 -614.90436 -77.140182 367
349.6886 -633.12048 -76.629837 367
369.8985 -630.18634 -76.989952 367
354.25137 -629.92383 -76.415779 367
370.67654 -624.25568 -76.794678 367
369.5625 -621.02795 -76.626854 367
359.43582 -619.55975 -76.70459 367
361.33813 -619.47479 -76.814507 367
367.96475 -619.71875 -76.102173 367
369.45435 -628.72601 -75.159531 367
355.36209 -618.93164 -75.532341 367
362.08331 -619.19464 -75.318596 367
351.07376 -630.97241 -74.54039 367
356.47668 -630.54034 -74.666817 367
359.14926 -631.91168 -74.352348 367
368.02539 -631.81458 -74.963173 367
368.68918 -621.46558 -74.23983 367
369.97928 -622.15594 -74.920021 367
354.00797 -618.16534 -74.931656 367
364.31531 -619.54266 -74.137825 367
348.33606 -638.8974 -73.017929 367
349.71222 -633.88098 -73.120613 367
367.25223 -631.34662 -73.06292 367
368.39554 -629.29181 -73.263916 367
369.30579 -627.0755 -73.477692 367
369.33478 -624.54974 -73.673744 367
354.28525 -618.43774 -73.603333 367
357.40189 -619.20013 -73.421478 367
361.25659 -619.05829 -73.366203 367
366.83228 -620.12592 -73.465401 367
348.91409 -637.19781 -72.543678 367
362.79361 -633.4223 -72.069206 367
350.41708 -632.23566 -72.912666 367
352.57147 -630.05334 -72.631966 367
357.00052 -630.91626 -72.927383 367
359.46304 -632.18042 -72.665314 367
365.91772 -632.53876 -72.977516 367
352.93237 -629.98938 -72.852417 367
368.58902 -626.76001 -72.411781 367
367.3829 -621.50598 -72.187355 367
368.46518 -622.85748 -72.661163 367
365.50998 -619.99121 -72.320297 367
366.51151 -620.32355 -72.141144 367
351.36829 -615.98553 -72.735115 367
349.59225 -634.27441 -71.025391 367
351.36786 -630.6767 -71.252937 367
364.23276 -632.39673 -71.277084 367
366.15167 -630.54181 -71.292732 367
367.50995 -627.97693 -71.493568 367
365.79391 -620.56909 -71.401291 367
366.56958 -620.83716 -71.57457 367
351.38364 -616.31305 -71.415955 367
356.55627 -630.84009 -70.912079 367
358.57156 -631.87787 -70.591553 367
360.07675 -632.46338 -70.485435 367
361.98306 -632.47736 -70.872849 367
366.30499 -628.10229 -70.193954 367
367.103 -624.85193 -70.889526 367
363.90826 -621.07312 -70.206467 367
366.12775 -621.83228 -70.859421 367
352.46976 -617.47144 -70.726845 367
348.18527 -638.97308 -69.119804 367
363.59918 -631.30042 -69.652977 367
364.8508 -629.51379 -69.193329 367
365.21851 -623.27271 -69.383263 367
346.96271 -641.08319 -68.96064 367
349.01382 -636.42029 -68.969078 367
349.80164 -633.8053 -68.39476 367
351.62335 -630.48157 -68.576019 367
353.76727 -630.23206 -68.629341 367
357.47781 -631.47253 -68.271309 367
361.40845 -631.67706 -68.930428 367
365.07227 -627.33508 -68.631119 367
365.04236 -625.18066 -68.461731 367
348.98743 -636.24384 -67.791397 367
356.63724 -631.11041 -67.0896 367
363.39908 -624.95782 -67.046967 367
347.94775 -639.07867 -66.831299 367
349.99744 -633.14362 -66.309578 367
352.20813 -630.15796 -66.976669 367
359.2254 -631.38708 -66.92305 367
362.39899 -629.505 -66.741768 367
347.61108 -639.37134 -65.163734 367
350.50281 -632.34521 -65.674416 367
346.33994 -641.15186 -64.916298 367
348.82523 -636.90442 -64.705032 367
349.53485 -634.30267 -64.429321 367
352.27863 -630.17084 -64.937416 367
356.88126 -631.18817 -64.901375 367
360.15213 -630.71271 -64.717957 367
361.80499 -628.39569 -64.564095 367
347.33701 -639.47504 -63.168308 367
361.10464 -627.38501 -63.213684 367
348.92484 -636.52808 -62.535175 367
349.5455 -634.45532 -62.875813 367
352.07843 -630.11554 -62.883301 367
359.11661 -630.09875 -62.681435 367
345.69034 -640.97656 -61.114784 367
348.67847 -637.07861 -61.04229 367
349.50891 -634.41156 -61.133701 367
350.51273 -632.13855 -61.037384 367
352.17905 -630.02167 -61.051945 367
356.60504 -630.05304 -61.380547 367
352.00418 -630.03455 -60.968613 367
347.23572 -639.01428 -59.351826 367
348.46698 -637.38177 -59.423141 367
358.57663 -626.84033 -59.600639 367
344.63925 -641.47443 -58.965908 367
345.77805 -640.23444 -58.632919 367
351.45041 -630.03857 -58.942181 367
351.73105 -629.88068 -58.616825 367
353.74979 -629.77612 -58.719131 367
356.29431 -629.117 -58.878235 367
354.60538 -618.86346 -58.644405 367
356.64203 -620.59332 -58.384792 367
346.91968 -638.97473 -57.076565 367
351.27655 -629.82977 -57.056778 367
356.88043 -628.5224 -57.750515 367
357.9436 -623.18561 -57.728992 367
347.71979 -615.63568 -57.115093 367
342.8132 -642.8634 -56.992931 367
349.72446 -633.12561 -56.404778 367
354.23895 -629.54102 -56.301987 367
355.44894 -629.18835 -56.875439 367
354.74365 -618.9707 -56.24826 367
350.47052 -617.45428 -56.7943 367
345.57693 -639.71057 -55.370735 367
347.17697 -638.54761 -55.156006 367
349.30612 -634.92944 -55.727348 367
350.16434 -631.06348 -55.092579 367
353.198 -629.66553 -55.662758 367
356.74915 -628.1405 -55.53466 367
352.5101 -618.01227 -55.100548 367
347.3414 -615.6889 -55.039555 367
345.8132 -613.98792 -55.797039 367
341.96661 -642.85834 -54.797462 367
343.4162 -640.95721 -54.867313 367
348.45944 -637.20428 -54.517826 367
351.64435 -629.96252 -54.739914 367
357.8605 -624.03363 -54.950558 367
349.39581 -617.05627 -54.7705 367
350.26535 -617.48883 -54.104633 367
348.98889 -635.8775 -53.153603 367
350.50418 -630.05457 -53.171177 367
354.95157 -629.12421 -53.800404 367
357.63983 -626.45984 -53.495998 367
344.88403 -613.64026 -53.296021 367
342.14645 -641.16779 -52.832165 367
345.4606 -639.45129 -52.93264 367
349.53323 -634.3396 -52.454205 367
353.27408 -629.59009 -52.396179 367
354.80344 -618.92719 -52.979599 367
347.22385 -616.00891 -52.848446 367
344.08325 -639.98682 -51.67318 367
345.2749 -639.23938 -51.055027 367
351.77689 -629.86115 -51.475079 367
354.4986 -629.33148 -51.583073 367
356.58417 -628.07245 -51.692329 367
357.86203 -624.57611 -51.209908 367
347.23813 -616.29773 -51.170578 367
348.80374 -617.10443 -51.508896 367
352.68042 -617.99585 -51.618931 367
341.2995 -640.80646 -50.564796 367
346.40234 -638.1427 -50.993687 367
350.34244 -631.30774 -50.669281 367
352.69797 -629.6767 -50.43671 367
355.42542 -628.96692 -50.578007 367
350.80466 -617.60278 -50.82843 367
344.1915 -613.60071 -50.861317 367
342.30206 -610.47418 -50.03677 367
340.43845 -640.98706 -49.102734 367
345.91678 -638.95483 -49.2444 367
347.57883 -638.20923 -49.214123 367
349.93533 -631.20563 -49.327347 367
353.92725 -629.44983 -49.775707 367
342.8772 -612.23962 -49.212357 367
341.1738 -607.33704 -49.215031 367
