# .PCD v0.7 - Point Cloud Data file format
VERSION 0.7
FIELDS x y z rgba
SIZE 4 4 4 4
TYPE F F F U
COUNT 1 1 1 1
WIDTH 1147
HEIGHT 1
VIEWPOINT 0 0 0 1 0 0 0
POINTS 1147
DATA ascii
602.89484 2934.6814 -198.4751 4294967098
602.70172 2940.5518 -198.85657 4294967098
588.61578 2944.2634 -198.94014 4294967098
596.19489 2944.6826 -198.69322 4294967098
598.70538 2944.4575 -198.58612 4294967098
580.44507 2948.5142 -198.90536 4294967098
580.06519 2952.1235 -198.95012 4294967098
580.38184 2956.8201 -198.84256 4294967098
576.71637 2910.9294 -197.05096 4294967099
576.133 2915.8711 -197.25694 4294967099
576.34131 2917.8367 -197.23898 4294967099
577.3548 2919.522 -197.35207 4294967099
579.28192 2921.0542 -197.05856 4294967099
580.70697 2921.5015 -197.18922 4294967099
582.54462 2921.8035 -197.46753 4294967099
584.82947 2921.7883 -197.25954 4294967099
599.38391 2921.437 -197.22183 4294967099
601.92609 2929.0146 -197.42865 4294967099
602.78113 2936.7366 -197.91629 4294967099
602.76013 2938.3706 -197.84657 4294967099
584.69971 2944.8113 -197.4525 4294967099
586.99982 2944.4644 -197.10231 4294967099
593.43622 2944.6382 -197.05148 4294967099
579.68378 2947.9285 -197.02164 4294967099
578.55841 2952.1321 -197.1116 4294967099
576.67194 2905.8467 -196.69244 4294967100
576.35999 2913.0645 -196.93756 4294967100
591.80249 2920.6912 -196.45583 4294967100
594.61755 2920.2642 -196.45804 4294967100
596.12616 2920.4417 -196.44502 4294967100
600.55444 2923.5625 -196.64627 4294967100
601.19928 2926.7271 -196.32245 4294967100
602.09442 2936.3792 -196.29984 4294967100
602.18848 2938.3813 -196.33392 4294967100
601.00092 2942.5522 -196.95747 4294967100
602.05823 2940.1602 -196.60297 4294967100
589.41504 2944.5076 -196.9398 4294967100
591.27258 2944.5991 -196.62764 4294967100
596.63354 2944.7673 -196.89891 4294967100
598.54041 2944.4875 -196.47107 4294967100
581.47217 2946.2024 -196.95625 4294967100
578.61975 2949.7327 -196.90881 4294967100
577.97174 2955.2566 -196.13704 4294967100
578.91583 2956.866 -196.86855 4294967100
578.82031 2958.8164 -196.54488 4294967100
579.12292 2962.8574 -196.63737 4294967100
579.14905 2964.8826 -196.5658 4294967100
575.31799 2910.822 -195.01445 4294967101
574.98206 2915.8086 -195.35921 4294967101
575.24463 2913.1711 -195.37259 4294967101
574.68353 2917.9902 -195.01184 4294967101
580.68713 2921.7864 -195.36157 4294967101
583.16046 2921.8923 -195.06747 4294967101
601.41846 2932.4236 -195.53792 4294967101
582.8938 2945.2368 -195.15881 4294967101
584.48969 2944.8132 -195.09587 4294967101
587.84045 2944.5818 -195.95056 4294967101
599.99615 2943.968 -195.87956 4294967101
580.7345 2946.1113 -195.05153 4294967101
577.2428 2949.5142 -195.29114 4294967101
577.64532 2960.9797 -195.04132 4294967101
575.29858 2919.99 -194.37849 4294967102
577.26257 2921.009 -194.64116 4294967102
592.16327 2920.6321 -194.65697 4294967102
594.27533 2920.4941 -194.17114 4294967102
596.45581 2920.7051 -194.59503 4294967102
599.44012 2922.6252 -194.82111 4294967102
600.53949 2925.7891 -194.58319 4294967102
600.70758 2928.4287 -194.58768 4294967102
601.58264 2938.2981 -194.65807 4294967102
601.48566 2940.686 -194.71991 4294967102
589.29028 2944.7349 -194.93599 4294967102
591.34137 2944.8203 -194.63153 4294967102
594.25452 2944.9629 -194.96774 4294967102
596.40479 2945.0122 -194.21333 4294967102
598.7218 2944.3928 -194.53749 4294967102
600.99927 2943.1201 -194.92645 4294967102
578.35699 2947.1912 -194.06502 4294967102
577.06183 2956.9329 -194.86337 4294967102
577.3526 2958.5789 -194.92091 4294967102
577.67603 2962.844 -194.95154 4294967102
577.53058 2964.8928 -194.66309 4294967102
573.20099 2916.0671 -193.17247 4294967103
573.65417 2919.3369 -193.08038 4294967103
575.30914 2920.688 -193.1805 4294967103
577.23944 2921.4729 -193.15739 4294967103
580.68738 2921.9739 -193.27824 4294967103
598.89716 2922.6179 -193.22241 4294967103
600.9552 2935.3833 -193.6857 4294967103
577.47791 2947.3027 -193.14275 4294967103
573.68597 2910.8987 -192.82924 4294967104
573.35156 2913.1406 -192.86603 4294967104
583.06537 2921.8362 -192.95308 4294967104
592.8775 2920.5063 -192.96106 4294967104
595.03308 2920.6829 -192.57784 4294967104
596.13635 2920.9534 -192.39671 4294967104
597.48358 2921.6682 -192.35223 4294967104
599.15558 2923.4207 -192.72566 4294967104
599.86548 2925.6357 -192.67758 4294967104
599.9292 2928.6035 -192.72186 4294967104
600.13153 2930.8171 -192.90727 4294967104
600.20276 2932.7961 -192.92424 4294967104
600.77136 2937.3953 -192.45827 4294967104
601.07782 2939.812 -192.85391 4294967104
601.11908 2941.8372 -192.43237 4294967104
591.34753 2945.0522 -192.9527 4294967104
594.30975 2945.2363 -192.48079 4294967104
597.35095 2944.7229 -192.24377 4294967104
598.43304 2944.3674 -192.45615 4294967104
600.15582 2943.396 -192.83112 4294967104
573.89014 2950.3562 -192.01826 4294967104
571.66864 2915.8457 -191.19919 4294967105
573.30243 2920.689 -191.17723 4294967105
575.18677 2921.6941 -191.12654 4294967105
577.14325 2921.8794 -191.1501 4294967105
582.784 2921.7905 -191.08316 4294967105
591.7901 2945.2639 -191.04747 4294967105
599.64923 2943.2029 -191.05492 4294967105
574.56738 2948.1851 -191.06775 4294967105
572.71283 2950.9858 -191.03329 4294967105
571.10095 2918.2859 -190.77145 4294967106
571.53931 2919.9348 -190.46992 4294967106
589.75403 2920.9175 -190.43726 4294967106
593.96106 2920.9124 -190.00537 4294967106
597.32849 2922.1887 -190.92465 4294967106
598.37494 2923.7668 -190.72528 4294967106
599.07397 2928.5396 -190.7439 4294967106
599.24384 2931.1438 -190.85002 4294967106
599.79828 2935.0105 -190.91206 4294967106
600.31573 2938.197 -190.35968 4294967106
600.42841 2941.4241 -190.65579 4294967106
596.76636 2944.853 -190.59291 4294967106
597.78986 2944.417 -190.33791 4294967106
572.88574 2921.7671 -189.17159 4294967107
581.70844 2921.8135 -189.05977 4294967107
583.33759 2921.6992 -189.24422 4294967107
593.95074 2921.0583 -189.13205 4294967107
595.75507 2921.5557 -189.38129 4294967107
578.57776 2922.2153 -189.55908 4294967107
592.93597 2945.5132 -189.24617 4294967107
572.90436 2948.5583 -189.29306 4294967107
575.38989 2947.1177 -189.1033 4294967107
577.28937 2946.498 -189.29767 4294967107
570.66046 2954.0552 -189.24948 4294967107
569.43475 2915.8298 -188.79198 4294967108
568.97498 2918.6287 -188.48109 4294967108
569.25958 2919.844 -188.38914 4294967108
571.21625 2921.01 -188.86774 4294967108
585.56873 2921.4387 -188.75461 4294967108
590.31183 2920.8347 -188.44749 4294967108
592.60699 2920.9963 -188.38229 4294967108
596.58759 2922.5642 -188.91165 4294967108
597.07086 2923.5425 -188.4357 4294967108
597.88416 2925.2183 -188.52072 4294967108
598.15344 2929.8784 -188.60162 4294967108
598.89703 2934.9248 -188.81445 4294967108
599.46808 2937.605 -188.75926 4294967108
599.77832 2940.749 -188.91042 4294967108
596.54834 2944.7185 -188.4749 4294967108
598.93622 2943.2773 -188.99332 4294967108
578.25714 2946.2229 -188.86508 4294967108
570.43695 2951.707 -188.76842 4294967108
594.45123 2921.4858 -187.8882 4294967109
570.86304 2922.0378 -187.16074 4294967109
573.04187 2922.1594 -187.73479 4294967109
574.80804 2922.334 -187.28043 4294967109
576.73291 2922.4189 -187.75371 4294967109
579.39093 2922.0457 -187.15189 4294967109
598.18292 2943.7163 -187.68958 4294967109
575.02832 2947.2319 -187.18658 4294967109
568.85077 2953.4233 -187.52527 4294967109
569.44452 2956.1406 -187.81288 4294967109
567.15533 2918.6726 -186.84332 4294967110
585.90234 2921.3125 -186.67737 4294967110
587.92291 2921.1167 -186.68512 4294967110
590.51074 2920.9048 -186.52509 4294967110
592.21112 2921.1606 -186.46248 4294967110
595.38159 2922.7605 -186.57867 4294967110
596.20441 2923.8557 -186.5407 4294967110
596.86865 2925.5037 -186.38173 4294967110
597.18872 2928.5649 -186.69945 4294967110
597.51355 2932.623 -186.86188 4294967110
597.90979 2934.7537 -186.85658 4294967110
598.31256 2937.4255 -186.42186 4294967110
598.56195 2941.5745 -186.51123 4294967110
593.12604 2945.5991 -186.19934 4294967110
594.7738 2945.1372 -186.46027 4294967110
596.04602 2944.6951 -186.55991 4294967110
580.03253 2946.3052 -186.39284 4294967110
569.48584 2950.7332 -186.63197 4294967110
570.74518 2949.5417 -186.95212 4294967110
569.00006 2958.6799 -186.96877 4294967110
567.55762 2921.0833 -185.90224 4294967111
569.09253 2922.4187 -185.32365 4294967111
572.66138 2922.5522 -185.52194 4294967111
574.83069 2922.5957 -185.09401 4294967111
577.24963 2922.3259 -185.3661 4294967111
594.23938 2922.46 -185.18359 4294967111
596.49573 2930.5381 -185.02925 4294967111
574.90302 2947.5754 -185.38245 4294967111
568.15063 2951.2534 -185.28918 4294967111
567.01233 2953.51 -185.55818 4294967111
567.17865 2955.8904 -185.99864 4294967111
564.86841 2918.5581 -184.97418 4294967112
565.57611 2921.2832 -184.57245 4294967112
581.25415 2921.7791 -184.90294 4294967112
588.44995 2920.9993 -184.90234 4294967112
590.69629 2921.1917 -184.44348 4294967112
592.05688 2921.4717 -184.56061 4294967112
567.44495 2922.0679 -184.73257 4294967112
596.21631 2928.5728 -184.7191 4294967112
596.53888 2933.2708 -184.70488 4294967112
596.84088 2934.9824 -184.56021 4294967112
597.45856 2938.189 -184.37077 4294967112
597.80579 2942.0522 -184.94632 4294967112
586.98492 2945.7927 -184.7619 4294967112
592.04102 2945.7249 -184.92647 4294967112
594.26324 2945.1282 -184.6512 4294967112
579.02203 2946.8 -184.78142 4294967112
581.12354 2946.4478 -184.83047 4294967112
565.23901 2955.7393 -184.26546 4294967112
563.37646 2918.1104 -183.76889 4294967113
563.51801 2919.9673 -183.63034 4294967113
585.96002 2921.1689 -183.11856 4294967113
567.34003 2922.8091 -183.20253 4294967113
568.89197 2922.8455 -183.68401 4294967113
570.95068 2922.8491 -183.69162 4294967113
593.52625 2922.5837 -183.62601 4294967113
595.61389 2932.4021 -183.01743 4294967113
595.72742 2944.1611 -183.37546 4294967113
577.17438 2947.6543 -183.2191 4294967113
570.83368 2949.5938 -183.42889 4294967113
565.47632 2952.2288 -183.2914 4294967113
588.82776 2920.9048 -182.2765 4294967114
565.40887 2922.647 -182.93056 4294967114
594.53436 2924.7412 -182.55429 4294967114
594.90179 2925.9102 -182.7943 4294967114
595.16443 2928.2173 -182.50815 4294967114
595.94775 2935.2158 -182.73253 4294967114
596.48987 2937.8723 -182.71634 4294967114
596.85602 2942.4966 -182.63586 4294967114
590.0069 2945.9875 -182.59854 4294967114
592.71588 2945.3535 -182.6396 4294967114
579.21106 2947.2786 -182.92368 4294967114
582.73022 2946.554 -182.38596 4294967114
564.08435 2951.6221 -182.01433 4294967114
561.44666 2920.7166 -181.62764 4294967115
564.85858 2923.4102 -181.1012 4294967115
566.90094 2923.4829 -181.60277 4294967115
568.49188 2923.4153 -181.4866 4294967115
571.13422 2923.1833 -181.48448 4294967115
591.61694 2945.7427 -181.19611 4294967115
563.53864 2950.9451 -181.21806 4294967115
566.56964 2951.0945 -181.83737 4294967115
570.25458 2950.2217 -181.59642 4294967115
559.82727 2919.4961 -180.76523 4294967116
583.86621 2921.217 -180.69614 4294967116
589.29425 2921.2437 -180.49023 4294967116
591.50403 2922.1101 -180.9512 4294967116
594.19135 2928.1809 -180.73639 4294967116
594.41418 2932.6631 -180.65048 4294967116
595.37561 2937.5681 -180.85675 4294967116
595.72864 2942.4524 -180.60678 4294967116
593.46155 2944.7488 -180.02902 4294967116
594.40863 2944.4512 -180.9857 4294967116
578.12598 2948.1318 -180.89816 4294967116
581.18726 2947.2312 -180.80228 4294967116
583.77271 2946.5815 -180.95172 4294967116
585.80304 2946.3184 -180.82401 4294967116
588.47913 2946.2034 -180.76788 4294967116
589.93475 2946.054 -180.32303 4294967116
566.2005 2950.76 -180.37578 4294967116
561.73169 2952.4741 -180.72842 4294967116
561.06201 2956.0991 -180.65181 4294967116
559.37549 2921.3916 -179.59033 4294967117
561.05579 2922.9463 -179.40178 4294967117
563.2243 2923.8198 -179.15187 4294967117
567.05914 2923.9622 -179.70648 4294967117
571.52692 2923.1921 -179.13101 4294967117
591.63605 2922.6963 -179.02588 4294967117
593.46381 2932.927 -179.01685 4294967117
559.67902 2951.9783 -179.32838 4294967117
561.76636 2950.7031 -179.95833 4294967117
569.14697 2950.626 -179.60828 4294967117
559.06274 2956.1575 -179.17319 4294967117
556.94672 2919.9792 -178.28835 4294967118
557.31848 2921.2683 -178.03204 4294967118
579.59076 2921.7908 -178.91093 4294967118
584.55859 2920.9685 -178.49863 4294967118
588.13214 2921.1694 -178.07791 4294967118
589.34442 2921.5566 -178.46814 4294967118
592.72211 2925.7998 -178.24699 4294967118
593.15186 2929.6355 -178.71083 4294967118
594.08673 2937.353 -178.57112 4294967118
594.8667 2941.5354 -178.97311 4294967118
590.85217 2945.6926 -178.71393 4294967118
593.40057 2944.6995 -178.92258 4294967118
594.06384 2943.7458 -178.71178 4294967118
579.25714 2948.2915 -178.50403 4294967118
581.60413 2947.459 -178.94295 4294967118
587.12439 2946.5159 -178.35451 4294967118
559.34564 2950.8479 -178.649 4294967118
561.5069 2949.8296 -178.74722 4294967118
564.01868 2949.9238 -178.31424 4294967118
557.75757 2952.2795 -178.35791 4294967118
559.60022 2923.6665 -177.16071 4294967119
564.96686 2924.2478 -177.81134 4294967119
567.40027 2924.1821 -177.37375 4294967119
592.01288 2945.1189 -177.33893 4294967119
593.0329 2944.2971 -177.16228 4294967119
557.14642 2951.5269 -177.48212 4294967119
559.50055 2949.4729 -177.23927 4294967119
561.25641 2949.3184 -177.23347 4294967119
562.28009 2949.4834 -177.5959 4294967119
567.2478 2950.3938 -177.97397 4294967119
574.01074 2949.8987 -177.38045 4294967119
557.09418 2956.7798 -177.68358 4294967119
584.83459 2920.8389 -176.36757 4294967120
586.53503 2921.1196 -176.30756 4294967120
557.56195 2922.7319 -176.83769 4294967120
591.68365 2925.5061 -176.67815 4294967120
592.74536 2935.0759 -176.96912 4294967120
593.45166 2940.6145 -176.29922 4294967120
593.57819 2943.2654 -176.66991 4294967120
583.55731 2947.5251 -176.57561 4294967120
585.88269 2947.0098 -176.48596 4294967120
557.44666 2950.1948 -176.69305 4294967120
568.77527 2950.4316 -176.57919 4294967120
555.03241 2953.5791 -176.70537 4294967120
555.72644 2955.738 -176.85851 4294967120
579.57074 2921.8186 -175.19551 4294967121
555.14893 2922.7771 -175.22147 4294967121
556.97577 2923.499 -175.41591 4294967121
559.38452 2924.3167 -175.44749 4294967121
560.70856 2924.6272 -175.13184 4294967121
563.38684 2924.73 -175.7402 4294967121
567.2995 2924.3406 -175.16431 4294967121
589.3432 2922.4448 -175.3051 4294967121
592.21545 2944.6938 -175.10493 4294967121
560.60541 2948.8811 -175.61415 4294967121
578.35187 2948.7046 -175.74054 4294967121
579.64185 2948.4675 -175.25475 4294967121
553.85529 2951.8838 -175.35587 4294967121
555.70734 2950.3816 -175.45708 4294967121
557.53693 2949.3208 -175.31148 4294967121
562.44092 2949.0457 -175.80899 4294967121
564.60736 2949.2119 -175.00703 4294967121
572.20721 2949.8005 -175.00731 4294967121
553.11981 2953.8521 -175.45418 4294967121
584.76111 2921.1948 -174.09235 4294967122
586.77856 2921.6135 -174.11253 4294967122
589.70575 2923.7432 -174.3596 4294967122
590.78271 2926.4915 -174.58281 4294967122
592.79974 2941.887 -174.95377 4294967122
590.36346 2945.7463 -174.69211 4294967122
585.85962 2947.3586 -174.47374 4294967122
567.92041 2949.9646 -174.77591 4294967122
551.23328 2953.5522 -174.3524 4294967122
551.0473 2955.9263 -174.23312 4294967122
552.66937 2923.7568 -173.18709 4294967123
554.66925 2923.8503 -173.72411 4294967123
558.91962 2924.8706 -173.32629 4294967123
567.01221 2924.5366 -173.11382 4294967123
588.27979 2922.4849 -173.92157 4294967123
563.09241 2925.0076 -173.44902 4294967123
589.82483 2945.8896 -173.52136 4294967123
557.75891 2948.8745 -173.80147 4294967123
558.75671 2948.6838 -173.72054 4294967123
561.00409 2948.4751 -173.63451 4294967123
575.50934 2948.793 -173.06975 4294967123
551.51239 2950.8164 -173.00487 4294967123
553.25873 2950.4463 -173.75595 4294967123
565.51941 2949.2031 -173.18657 4294967123
548.76764 2953.6304 -173.06282 4294967123
549.43463 2955.9985 -173.45483 4294967123
547.41016 2920.7935 -172.11505 4294967124
582.71692 2921.3118 -172.1924 4294967124
549.58765 2923.1753 -172.50064 4294967124
565.32202 2924.8533 -172.58047 4294967124
569.47192 2924.0857 -172.94229 4294967124
571.55731 2923.6597 -172.71887 4294967124
588.51172 2923.886 -172.46899 4294967124
589.62238 2926.5513 -172.66388 4294967124
591.61707 2943.043 -172.61246 4294967124
583.84271 2948.0234 -172.73561 4294967124
567.35474 2949.3428 -172.65997 4294967124
569.60376 2949.3696 -172.71216 4294967124
549.71167 2952.0195 -172.80391 4294967124
547.3786 2956.1812 -172.52763 4294967124
545.52222 2922.6824 -171.11179 4294967125
547.26556 2923.4355 -171.55161 4294967125
549.42474 2924.7202 -171.10637 4294967125
554.88965 2924.9658 -171.95436 4294967125
567.2077 2924.6775 -171.12131 4294967125
586.17188 2922.5691 -171.02917 4294967125
551.37305 2925.0459 -171.17226 4294967125
559.21356 2925.3584 -171.38655 4294967125
561.55945 2925.3406 -171.36301 4294967125
591.30273 2944.6021 -171.59055 4294967125
556.99866 2948.7537 -171.80873 4294967125
568.91547 2948.9573 -171.03333 4294967125
588.7226 2946.353 -171.92747 4294967125
549.34052 2950.6658 -171.67529 4294967125
551.15344 2949.8621 -171.21202 4294967125
554.00867 2949.2952 -171.35222 4294967125
545.9165 2953.189 -171.52692 4294967125
547.86237 2952.1196 -171.98048 4294967125
544.93597 2956.1492 -171.48135 4294967125
544.28326 2919.3389 -170.38094 4294967126
580.4386 2921.7107 -170.29863 4294967126
543.36169 2922.1936 -170.16156 4294967126
545.30719 2923.7654 -170.55173 4294967126
547.10944 2924.8496 -170.46724 4294967126
569.90808 2924.0938 -170.90404 4294967126
587.17383 2923.8352 -170.61185 4294967126
563.37335 2925.2744 -170.93384 4294967126
588.03851 2927.3838 -170.05603 4294967126
589.83124 2941.9656 -170.39755 4294967126
589.82819 2945.0591 -170.40251 4294967126
590.16418 2944.1897 -170.34793 4294967126
560.7345 2948.5576 -170.93141 4294967126
565.03406 2948.8813 -170.93477 4294967126
571.01318 2948.6311 -170.55078 4294967126
580.06311 2948.4734 -170.82216 4294967126
585.51013 2947.447 -170.80345 4294967126
588.40613 2946.2932 -170.58878 4294967126
545.30487 2951.3005 -170.11105 4294967126
547.09613 2950.9329 -170.78404 4294967126
543.42017 2953.2813 -170.31195 4294967126
543.07513 2955.8274 -170.5497 4294967126
543.22314 2958.219 -170.45844 4294967126
541.4425 2919.4246 -169.02072 4294967127
540.93939 2922.0928 -169.10771 4294967127
545.30365 2924.9556 -169.86212 4294967127
569.52594 2924.1921 -169.1526 4294967127
571.68628 2923.7205 -169.11684 4294967127
573.83136 2923.2598 -169.31238 4294967127
584.90765 2922.6619 -169.14676 4294967127
549.66571 2925.7334 -169.46854 4294967127
553.49573 2925.8777 -169.48807 4294967127
559.67847 2948.7996 -169.21021 4294967127
565.46478 2948.7688 -169.03336 4294967127
584.64075 2947.7131 -169.61716 4294967127
587.94946 2946.0137 -169.06435 4294967127
543.52551 2951.4094 -169.19884 4294967127
554.73077 2949.0774 -169.50552 4294967127
541.49023 2952.4927 -169.05728 4294967127
541.14288 2955.3152 -169.88768 4294967127
541.33942 2958.8464 -169.55832 4294967127
541.31561 2916.8159 -168.52165 4294967128
580.44989 2921.8896 -168.53781 4294967128
539.1123 2922.198 -168.36365 4294967128
541.33685 2924.1016 -168.98694 4294967128
567.96918 2924.5444 -168.6956 4294967128
576.85297 2922.6604 -168.44852 4294967128
541.5921 2925.2219 -168.37737 4294967128
543.33228 2925.4282 -168.84467 4294967128
545.22192 2926.0566 -168.52957 4294967128
547.09467 2926.0859 -168.58813 4294967128
563.02448 2925.6602 -168.26227 4294967128
565.84027 2925.0742 -168.34172 4294967128
587.03058 2928.1025 -168.5536 4294967128
588.38867 2944.9746 -168.0979 4294967128
561.20447 2948.781 -168.93463 4294967128
563.25885 2948.7615 -168.90221 4294967128
567.56146 2948.6873 -168.82587 4294967128
573.34534 2948.1702 -168.79419 4294967128
577.60876 2948.1594 -168.61792 4294967128
582.34998 2948.3096 -168.32269 4294967128
585.64099 2947.2122 -168.74416 4294967128
537.27618 2954.8313 -168.27444 4294967128
539.37219 2953.3628 -168.483 4294967128
538.73682 2955.1428 -168.85216 4294967128
537.48517 2958.3115 -168.12192 4294967128
539.23138 2916.948 -167.5899 4294967129
537.16486 2921.918 -167.56044 4294967129
539.18286 2923.9189 -167.96994 4294967129
539.27655 2925.6343 -167.28906 4294967129
543.19562 2926.53 -167.16469 4294967129
549.38361 2926.395 -167.8064 4294967129
550.68561 2926.4807 -167.79181 4294967129
587.83289 2945.0969 -167.27722 4294967129
565.97369 2948.7263 -167.09608 4294967129
538.75299 2951.7012 -167.16173 4294967129
541.38495 2951.302 -167.89871 4294967129
543.27362 2950.408 -167.31639 4294967129
535.1601 2954.3472 -167.28052 4294967129
533.36285 2955.5681 -167.10117 4294967129
535.12872 2958.1665 -167.41273 4294967129
535.5177 2916.8374 -166.10155 4294967130
533.67725 2921.7488 -166.17595 4294967130
535.31073 2921.9329 -166.69467 4294967130
533.68359 2923.9619 -166.12442 4294967130
535.2373 2924.1135 -166.55019 4294967130
568.95374 2924.3096 -166.94063 4294967130
571.14771 2923.8491 -166.97546 4294967130
577.99292 2922.8052 -166.05286 4294967130
581.58209 2923.4619 -166.17151 4294967130
535.51709 2925.2512 -166.22314 4294967130
545.37482 2926.8213 -166.33336 4294967130
583.94659 2925.3113 -166.39439 4294967130
585.54651 2927.8086 -166.29428 4294967130
587.12708 2944.4697 -166.56143 4294967130
563.50464 2948.8699 -166.91068 4294967130
575.44727 2948.2388 -166.60918 4294967130
578.39819 2948.4316 -166.41298 4294967130
583.25269 2947.7378 -166.09006 4294967130
541.3139 2950.4426 -166.16962 4294967130
559.95612 2949.0874 -166.81789 4294967130
535.41223 2952.561 -166.56691 4294967130
530.92206 2955.7068 -166.4081 4294967130
531.4505 2918.8774 -165.02803 4294967131
532.96826 2917.4829 -165.32704 4294967131
529.54877 2921.7754 -165.00433 4294967131
530.89526 2921.894 -165.44896 4294967131
533.06287 2919.1003 -165.5713 4294967131
529.59094 2924.6362 -165.20099 4294967131
531.55609 2924.2712 -165.52994 4294967131
574.29456 2923.3542 -165.86584 4294967131
579.63696 2923.1067 -165.20853 4294967131
580.06866 2922.4023 -165.92865 4294967131
531.84283 2925.6292 -165.27661 4294967131
533.49866 2925.9475 -165.36563 4294967131
535.59009 2926.78 -165.10417 4294967131
537.20197 2926.6936 -165.46744 4294967131
542.84253 2927.0005 -165.72743 4294967131
547.44983 2926.8977 -165.77184 4294967131
548.92297 2926.8687 -165.56491 4294967131
552.40472 2926.7432 -165.48958 4294967131
586.60931 2945.301 -165.85698 4294967131
571.37427 2948.4038 -165.0054 4294967131
580.93298 2948.2515 -165.64331 4294967131
535.34161 2951.5513 -165.52307 4294967131
537.61646 2951.0662 -165.29666 4294967131
561.36151 2949.1814 -165.08286 4294967131
530.77423 2953.3677 -165.30782 4294967131
533.60522 2952.6072 -165.93549 4294967131
529.46478 2957.7849 -165.87262 4294967131
529.44189 2917.9883 -164.32845 4294967132
531.8233 2916.9036 -164.88062 4294967132
527.367 2921.647 -164.35306 4294967132
525.26282 2924.7402 -164.17848 4294967132
527.0069 2924.8337 -164.57674 4294967132
567.99854 2924.4805 -164.61516 4294967132
576.74609 2923.2446 -164.62503 4294967132
578.41223 2923.5142 -164.1265 4294967132
580.19403 2923.8579 -164.47115 4294967132
529.0719 2925.7236 -164.61121 4294967132
541.08386 2927.3494 -164.23012 4294967132
581.55676 2925.3225 -164.2697 4294967132
583.33972 2927.2869 -164.77167 4294967132
583.66046 2930.3125 -164.40047 4294967132
585.34631 2944.937 -164.43942 4294967132
565.17621 2948.8867 -164.69983 4294967132
573.58112 2948.4089 -164.88501 4294967132
575.34973 2948.4626 -164.95573 4294967132
580.88739 2948.2258 -164.54755 4294967132
583.93274 2947.2029 -164.74808 4294967132
532.94043 2951.8865 -164.96812 4294967132
537.61523 2950.7322 -164.3439 4294967132
538.93353 2950.5789 -164.51607 4294967132
563.50305 2949.0264 -164.86746 4294967132
527.52478 2953.9026 -164.58899 4294967132
529.24866 2952.3696 -164.0159 4294967132
527.07172 2955.4548 -164.86707 4294967132
527.6142 2918.7278 -163.92784 4294967133
521.49823 2921.4319 -163.03815 4294967133
525.0152 2921.4248 -163.7101 4294967133
519.23529 2924.1584 -163.17439 4294967133
523.38226 2924.3003 -163.83228 4294967133
571.25677 2923.8513 -163.9101 4294967133
573.35712 2923.5886 -163.69243 4294967133
574.67621 2923.6707 -163.11151 4294967133
576.03735 2923.5906 -163.65005 4294967133
577.18054 2923.5842 -163.62016 4294967133
579.61591 2924.4612 -163.43874 4294967133
525.52393 2926.5859 -163.48456 4294967133
527.52753 2927.3701 -163.37341 4294967133
529.0863 2926.9063 -163.98172 4294967133
531.22864 2927.8335 -163.10963 4294967133
533.29553 2927.8291 -163.16565 4294967133
535.7002 2927.7153 -163.29239 4294967133
537.0932 2927.5132 -163.81271 4294967133
539.16925 2927.6665 -163.75761 4294967133
543.19843 2927.4226 -163.87849 4294967133
545.15845 2927.415 -163.22157 4294967133
549.0014 2927.1348 -163.1115 4294967133
551.30878 2927.0383 -163.45705 4294967133
560.60974 2926.2551 -163.33907 4294967133
583.40405 2934.5488 -163.53975 4294967133
578.07227 2948.7905 -163.71852 4294967133
533.50653 2951.2031 -163.51314 4294967133
534.84833 2951.0503 -163.77243 4294967133
542.71198 2950.0581 -163.75398 4294967133
547.24005 2950.0613 -163.48502 4294967133
525.04553 2954.499 -163.58745 4294967133
527.38147 2952.4119 -163.14241 4294967133
523.19934 2956.5671 -163.68221 4294967133
491.40732 2959.9858 -163.02652 4294967133
493.44058 2960.0007 -163.08432 4294967133
508.27969 2959.3008 -163.45433 4294967133
509.36932 2959.5176 -163.38995 4294967133
511.38071 2959.5146 -163.26448 4294967133
513.57965 2959.9844 -163.0751 4294967133
515.43121 2960.4429 -163.11685 4294967133
521.12085 2958.6045 -163.32674 4294967133
519.49951 2920.9907 -162.63182 4294967134
507.36807 2923.6082 -162.06696 4294967134
509.3447 2923.7732 -162.2191 4294967134
513.58008 2923.8262 -162.50558 4294967134
515.39618 2923.6448 -162.62648 4294967134
517.66882 2923.9666 -162.93002 4294967134
569.38641 2924.1216 -162.25926 4294967134
573.3349 2923.8308 -162.17081 4294967134
575.90558 2923.9563 -162.5312 4294967134
577.6286 2924.5979 -162.31227 4294967134
487.56152 2925.9531 -162.01114 4294967134
489.17252 2925.7227 -162.04031 4294967134
491.64294 2925.9028 -162.0327 4294967134
493.74792 2926.0356 -162.31441 4294967134
495.61707 2925.9973 -162.35698 4294967134
497.91907 2926.438 -162.36147 4294967134
499.61139 2927.0144 -162.37445 4294967134
502.62903 2926.1733 -162.2287 4294967134
505.25095 2926.3 -162.1792 4294967134
507.181 2926.6841 -162.12712 4294967134
510.2207 2926.3655 -162.49048 4294967134
513.76959 2926.0986 -162.42433 4294967134
516.70251 2927.2717 -162.27016 4294967134
517.47925 2926.0015 -162.70151 4294967134
519.6546 2926.6533 -162.71677 4294967134
521.58258 2927.2607 -162.72185 4294967134
523.47314 2927.4126 -162.79433 4294967134
528.97327 2927.8508 -162.96078 4294967134
563.24548 2925.6091 -162.75203 4294967134
580.02905 2925.6267 -162.78497 4294967134
581.45215 2927.6296 -162.89896 4294967134
497.43671 2928.0879 -162.07527 4294967134
533.54816 2928.2429 -162.12965 4294967134
581.61865 2929.8564 -162.25999 4294967134
582.02423 2931.9817 -162.23657 4294967134
583.85193 2945.5076 -162.24283 4294967134
565.78345 2948.9856 -162.91626 4294967134
569.19464 2948.7957 -162.68127 4294967134
582.54181 2947.5063 -162.09718 4294967134
583.48206 2946.9097 -162.53346 4294967134
549.17633 2950.0369 -162.96379 4294967134
563.20087 2949.2014 -162.99788 4294967134
574.09497 2949.0127 -162.50243 4294967134
576.47607 2949.0425 -162.0396 4294967134
525.95508 2952.6648 -162.76282 4294967134
479.28195 2957.6541 -162.21989 4294967134
481.48724 2957.8752 -162.21208 4294967134
487.36572 2956.7168 -162.07335 4294967134
489.47296 2957.1899 -162.37463 4294967134
491.39102 2956.5786 -162.38921 4294967134
493.25681 2957.7744 -162.81927 4294967134
495.51831 2957.4509 -162.783 4294967134
497.20581 2957.5322 -162.85492 4294967134
501.42816 2957.5659 -162.9906 4294967134
503.42184 2956.4641 -162.59454 4294967134
505.95132 2956.7307 -162.87663 4294967134
509.3255 2956.1064 -162.32037 4294967134
511.81937 2957.6223 -162.80136 4294967134
513.64996 2957.9106 -162.65082 4294967134
466.94299 2959.99 -162.21327 4294967134
471.57724 2959.9014 -162.15637 4294967134
473.40729 2959.2979 -162.12889 4294967134
477.45328 2959.3311 -162.5688 4294967134
479.30734 2959.6614 -162.70996 4294967134
483.23871 2958.5376 -162.48608 4294967134
485.0455 2958.459 -162.55017 4294967134
487.32202 2958.5549 -162.653 4294967134
489.32333 2959.5664 -162.94296 4294967134
515.46216 2958.7642 -162.84973 4294967134
517.61908 2958.749 -162.78426 4294967134
519.03772 2959.0229 -162.98151 4294967134
429.53903 2963.6902 -162.05164 4294967134
435.09357 2962.8337 -162.11263 4294967134
451.39093 2961.8545 -162.16048 4294967134
453.38965 2961.7129 -162.37663 4294967134
456.41861 2962.5859 -162.41412 4294967134
461.51001 2961.6797 -162.62233 4294967134
463.49161 2961.4348 -162.399 4294967134
465.55801 2961.4773 -162.6138 4294967134
469.25253 2962.0515 -162.61871 4294967134
471.13382 2961.6807 -162.66252 4294967134
473.11819 2962.2148 -162.6441 4294967134
419.52631 2965.7185 -162.01451 4294967134
429.34763 2965.9133 -162.0482 4294967134
487.88409 2923.1331 -161.51877 4294967135
489.23529 2923.407 -161.61371 4294967135
491.37579 2923.5291 -161.70236 4294967135
493.54449 2923.4719 -161.76413 4294967135
495.65613 2923.4355 -161.80194 4294967135
497.64355 2923.4143 -161.81877 4294967135
499.59784 2923.2014 -161.81644 4294967135
501.57755 2923.6309 -161.92804 4294967135
503.39404 2923.5305 -161.94348 4294967135
505.4971 2923.3225 -161.9491 4294967135
565.36249 2924.8379 -161.08868 4294967135
567.35901 2924.5227 -161.31888 4294967135
570.789 2923.9109 -161.49258 4294967135
572.0744 2923.8618 -161.48524 4294967135
575.26312 2924.3755 -161.30971 4294967135
483.54868 2925.946 -161.85889 4294967135
485.44522 2925.769 -161.91193 4294967135
489.41708 2927.9983 -161.86302 4294967135
491.5275 2927.9246 -161.89397 4294967135
495.47421 2927.8572 -161.98872 4294967135
502.09122 2927.6687 -161.93932 4294967135
503.58618 2927.8694 -161.88235 4294967135
505.70245 2927.6912 -161.9308 4294967135
507.04871 2927.7629 -161.90311 4294967135
508.85376 2927.6917 -161.83588 4294967135
512.01239 2927.574 -161.97891 4294967135
513.29675 2927.5977 -161.99968 4294967135
541.24207 2927.9285 -161.5696 4294967135
543.56274 2927.7134 -161.4433 4294967135
547.34967 2927.4331 -161.36879 4294967135
579.40247 2926.5137 -161.71004 4294967135
447.27005 2930.0352 -161.08128 4294967135
453.95831 2930.8103 -161.21867 4294967135
457.44067 2929.9656 -161.14835 4294967135
459.4234 2930.2463 -161.14969 4294967135
461.2706 2930.8567 -161.07729 4294967135
465.85809 2929.1294 -161.50018 4294967135
471.7326 2930.0513 -161.52031 4294967135
477.64252 2929.1118 -161.68851 4294967135
479.66455 2929.1909 -161.69696 4294967135
481.10803 2928.4788 -161.96426 4294967135
483.57953 2929.1643 -161.66885 4294967135
485.55353 2928.1377 -161.82071 4294967135
486.02594 2929.7263 -161.4464 4294967135
487.45874 2928.8608 -161.62045 4294967135
489.83972 2929.1731 -161.5105 4294967135
491.41171 2929.3188 -161.42621 4294967135
493.27939 2929.1318 -161.45354 4294967135
495.57108 2929.1926 -161.51205 4294967135
497.50336 2929.7441 -161.17047 4294967135
499.48459 2928.9333 -161.49393 4294967135
503.67783 2928.8748 -161.46065 4294967135
505.33966 2929.4104 -161.04886 4294967135
515.64081 2928.7222 -161.38846 4294967135
517.44666 2928.6523 -161.46483 4294967135
519.40051 2928.7642 -161.30194 4294967135
521.3905 2928.4216 -161.73688 4294967135
523.36823 2928.6873 -161.25801 4294967135
525.15417 2928.593 -161.32726 4294967135
529.24841 2928.4651 -161.59956 4294967135
537.20282 2928.2546 -161.93263 4294967135
539.40027 2928.1228 -161.43629 4294967135
580.81677 2930.6272 -161.17197 4294967135
465.50995 2931.2798 -161.10516 4294967135
467.38208 2931.3052 -161.09378 4294967135
581.49121 2934.0176 -161.26767 4294967135
582.33893 2945.6299 -161.10852 4294967135
578.95941 2948.7336 -161.97328 4294967135
529.08636 2951.3523 -161.89775 4294967135
531.21094 2951.1877 -161.76149 4294967135
534.91571 2950.5974 -161.75749 4294967135
537.6886 2950.47 -161.63126 4294967135
539.77789 2950.4607 -161.74069 4294967135
546.33533 2950.2717 -161.79347 4294967135
547.12 2950.3018 -161.00674 4294967135
566.19672 2949.1426 -161.22566 4294967135
497.80939 2954.9851 -161.23312 4294967135
499.29706 2954.9368 -161.25769 4294967135
501.15271 2954.8938 -161.59084 4294967135
503.72296 2954.9578 -161.46371 4294967135
505.12411 2954.7542 -161.25212 4294967135
507.57831 2954.9729 -161.52937 4294967135
523.60809 2953.5513 -161.9635 4294967135
525.42059 2952.0774 -161.09073 4294967135
477.64362 2956.6711 -161.09546 4294967135
480.86716 2956.3591 -161.15508 4294967135
485.68115 2955.8398 -161.11615 4294967135
486.04379 2956.4602 -161.82538 4294967135
489.61575 2955.533 -161.25998 4294967135
491.28189 2955.2927 -161.13219 4294967135
493.72031 2955.2566 -161.33366 4294967135
495.17886 2955.1736 -161.25578 4294967135
511.87204 2955.1941 -161.21806 4294967135
512.31445 2956.135 -161.97913 4294967135
513.74152 2955.7791 -161.38541 4294967135
517.33905 2956.3184 -161.34241 4294967135
521.01129 2955.2991 -161.90579 4294967135
435.25247 2960.9329 -161.48053 4294967135
436.90607 2960.0767 -161.24425 4294967135
445.52585 2960.2605 -161.42513 4294967135
449.94376 2960.2498 -161.49561 4294967135
454.37891 2960.6565 -161.88628 4294967135
457.88611 2959.7642 -161.65959 4294967135
459.2113 2960.0227 -161.86122 4294967135
461.2218 2959.6667 -161.81712 4294967135
463.49902 2959.104 -161.53125 4294967135
465.28137 2959.0996 -161.52649 4294967135
469.55823 2958.9377 -161.56506 4294967135
471.11374 2958.5227 -161.46301 4294967135
475.32513 2958.0518 -161.77098 4294967135
407.30643 2963.624 -161.10335 4294967135
409.36972 2963.4971 -161.17018 4294967135
411.88522 2963.2283 -161.19067 4294967135
415.06235 2963.4702 -161.45341 4294967135
417.72797 2962.9231 -161.31644 4294967135
419.33456 2963.5879 -161.60634 4294967135
421.43823 2962.8574 -161.27689 4294967135
423.47491 2963.384 -161.5574 4294967135
425.45978 2962.7712 -161.34337 4294967135
427.26483 2962.623 -161.45477 4294967135
429.63879 2961.679 -161.33568 4294967135
430.94275 2961.7903 -161.51859 4294967135
431.29257 2962.6658 -161.78879 4294967135
439.50385 2962.5762 -161.86351 4294967135
379.41159 2966.8977 -161.15155 4294967135
387.32941 2965.5027 -161.05309 4294967135
389.47592 2965.436 -161.12816 4294967135
391.15341 2965.0325 -161.01373 4294967135
393.34387 2965.4856 -161.24297 4294967135
394.87204 2965.5007 -161.26649 4294967135
398.89545 2965.4878 -161.37428 4294967135
401.40161 2965.5625 -161.46378 4294967135
403.40051 2965.4031 -161.48532 4294967135
407.12305 2965.7026 -161.56723 4294967135
409.19089 2965.1499 -161.51073 4294967135
411.1965 2965.7429 -161.66075 4294967135
413.35086 2965.0674 -161.85634 4294967135
421.00018 2966.1733 -161.96558 4294967135
423.50085 2965.9846 -161.98575 4294967135
425.54007 2965.7061 -161.99474 4294967135
427.03589 2966.2324 -161.97775 4294967135
367.47055 2969.4963 -161.3065 4294967135
369.37378 2969.9573 -161.27202 4294967135
371.44727 2969.9102 -161.27025 4294967135
381.40286 2967.1829 -161.2189 4294967135
385.37906 2967.439 -161.49063 4294967135
387.04749 2967.8679 -161.39218 4294967135
389.29764 2967.8137 -161.49223 4294967135
391.70184 2967.4778 -161.62605 4294967135
393.26215 2968.2 -161.58885 4294967135
394.86591 2967.8538 -161.52841 4294967135
397.79575 2968.1257 -161.63342 4294967135
403.33472 2968.0647 -161.64626 4294967135
406.15158 2967.7715 -161.63318 4294967135
407.08618 2968.2437 -161.59775 4294967135
409.51331 2968.895 -161.52423 4294967135
411.97543 2968.6799 -161.56258 4294967135
367.53879 2972.5505 -161.06262 4294967135
372.94638 2970.4866 -161.22052 4294967135
389.34067 2970.7427 -161.3269 4294967135
571.59167 2924.0601 -160.01097 4294967136
573.38153 2924.2766 -160.2972 4294967136
545.1192 2927.634 -160.93127 4294967136
549.38104 2927.3774 -160.91768 4294967136
553.34442 2927.2341 -160.69151 4294967136
559.2442 2926.3059 -160.62703 4294967136
576.48865 2925.2212 -160.66058 4294967136
577.67816 2926.4827 -160.3428 4294967136
449.81088 2930.4985 -160.972 4294967136
491.42084 2930.7942 -160.4187 4294967136
493.08279 2930.5464 -160.53951 4294967136
495.1391 2930.4888 -160.47751 4294967136
501.42969 2929.8892 -160.82486 4294967136
507.39685 2929.3564 -160.97267 4294967136
509.08105 2929.3591 -160.83542 4294967136
511.50858 2929.3752 -160.75742 4294967136
519.77148 2929.3857 -160.10672 4294967136
523.39673 2929.1367 -160.01604 4294967136
527.33698 2929.0081 -160.25211 4294967136
579.75903 2929.5242 -160.47552 4294967136
385.51007 2933.9541 -160.31078 4294967136
391.31528 2933.9893 -160.46854 4294967136
393.8544 2933.925 -160.27296 4294967136
397.77936 2932.7795 -160.14165 4294967136
410.13718 2932.0012 -160.4588 4294967136
411.77371 2931.7766 -160.46631 4294967136
413.59805 2931.9211 -160.58318 4294967136
417.3194 2931.9409 -160.48999 4294967136
419.61197 2931.8828 -160.52754 4294967136
421.28305 2932.1636 -160.55807 4294967136
423.48938 2931.9355 -160.55516 4294967136
425.25018 2932.2261 -160.58398 4294967136
427.82971 2932.7112 -160.55389 4294967136
429.56372 2933.4204 -160.54224 4294967136
431.63132 2933.3108 -160.61362 4294967136
433.33707 2933.0125 -160.52272 4294967136
435.22672 2933.7405 -160.36203 4294967136
437.44131 2932.2556 -160.64154 4294967136
438.19418 2933.5122 -160.32671 4294967136
440.79016 2933.1953 -160.37242 4294967136
441.77621 2931.887 -160.89174 4294967136
443.51367 2932.6348 -160.55786 4294967136
445.1629 2933.1763 -160.4144 4294967136
447.64575 2932.1506 -160.79512 4294967136
449.05737 2932.8447 -160.52673 4294967136
452.19504 2932.9824 -160.4828 4294967136
453.51923 2931.8538 -160.88101 4294967136
455.44003 2933.1665 -160.43541 4294967136
457.21201 2932.03 -160.92064 4294967136
459.63461 2931.8672 -160.77817 4294967136
461.42276 2931.7778 -160.82159 4294967136
464.37692 2931.9854 -160.66147 4294967136
469.71786 2931.1382 -160.92073 4294967136
473.38077 2931.7063 -160.5955 4294967136
477.30371 2931.2583 -160.70332 4294967136
479.7504 2931.1218 -160.77054 4294967136
481.46176 2931.0791 -160.76422 4294967136
483.43521 2931.3462 -160.5135 4294967136
485.70807 2931.0659 -160.60483 4294967136
487.61343 2931.0398 -160.44936 4294967136
580.70013 2932.106 -160.68849 4294967136
367.38251 2936.1223 -160.27718 4294967136
369.29663 2935.991 -160.27469 4294967136
371.45062 2936.261 -160.36621 4294967136
373.45825 2936.6282 -160.37227 4294967136
375.92392 2935.6318 -160.1434 4294967136
379.46851 2935.8269 -160.12665 4294967136
381.61926 2936.053 -160.20575 4294967136
383.53442 2936.3889 -160.36234 4294967136
387.52161 2935.1501 -160.30768 4294967136
389.65607 2936.2097 -160.29022 4294967136
393.55463 2936.137 -160.09102 4294967136
395.41656 2935.0295 -160.16583 4294967136
397.27988 2935.9663 -160.02936 4294967136
399.59021 2934.9065 -160.2003 4294967136
401.42819 2934.9915 -160.28217 4294967136
403.10822 2934.804 -160.34097 4294967136
405.74823 2935.8696 -160.36929 4294967136
409.59564 2935.887 -160.09105 4294967136
411.50479 2934.9995 -160.22203 4294967136
413.6297 2934.2837 -160.37688 4294967136
415.21396 2934.2634 -160.34819 4294967136
417.69293 2934.6572 -160.2366 4294967136
419.12976 2934.0425 -160.40738 4294967136
421.61163 2934.6968 -160.26259 4294967136
423.34842 2934.689 -160.35992 4294967136
425.81723 2934.1313 -160.41364 4294967136
427.73993 2935.2903 -160.14192 4294967136
580.78888 2935.0796 -160.2291 4294967136
581.56299 2936.6621 -160.95076 4294967136
369.38351 2938.0618 -160.01921 4294967136
581.61566 2943.208 -160.27733 4294967136
577.24316 2948.6248 -160.34831 4294967136
579.7663 2947.7493 -160.51355 4294967136
581.5636 2946.7629 -160.87904 4294967136
527.11829 2951.4385 -160.09045 4294967136
549.43634 2950.1843 -160.93489 4294967136
551.3205 2950.084 -160.91437 4294967136
555.33044 2949.8506 -160.89867 4294967136
558.54034 2949.7131 -160.10684 4294967136
562.06586 2949.4851 -160.86653 4294967136
569.76575 2949.1736 -160.65594 4294967136
574.33221 2949.4873 -160.34085 4294967136
489.57965 2954.9617 -160.12903 4294967136
494.11996 2954.7056 -160.42551 4294967136
509.12531 2954.396 -160.70004 4294967136
522.38373 2953.4922 -160.97771 4294967136
471.7825 2957.2046 -160.44525 4294967136
479.43317 2955.8074 -160.53333 4294967136
487.40491 2955.5432 -160.96889 4294967136
516.09143 2955.2493 -160.28008 4294967136
425.496 2960.9209 -160.37682 4294967136
427.75943 2960.2588 -160.25278 4294967136
431.2327 2960.55 -160.87544 4294967136
433.53296 2960.0745 -160.77965 4294967136
435.38574 2960.1653 -160.95903 4294967136
439.62601 2959.4512 -160.57074 4294967136
442.04651 2959.3103 -160.42665 4294967136
447.70547 2958.9912 -160.57269 4294967136
449.18121 2958.4666 -160.01315 4294967136
453.11569 2958.9204 -160.7373 4294967136
455.89389 2958.3093 -160.25478 4294967136
459.66376 2958.5645 -160.9077 4294967136
461.41037 2958.2202 -160.76935 4294967136
467.6767 2958.1892 -160.94829 4294967136
394.19238 2963.2295 -160.25311 4294967136
395.51669 2963.9785 -160.823 4294967136
399.23724 2963.2986 -160.52341 4294967136
401.29153 2963.1028 -160.52582 4294967136
403.49704 2963.0862 -160.68929 4294967136
405.42484 2962.3879 -160.34131 4294967136
407.61459 2962.3538 -160.46761 4294967136
409.23969 2962.1208 -160.41956 4294967136
411.30853 2962.3872 -160.7067 4294967136
413.56393 2962.123 -160.69225 4294967136
415.67746 2961.7488 -160.61833 4294967136
419.6051 2961.3347 -160.40544 4294967136
423.27609 2962.062 -160.99939 4294967136
367.37039 2966.4033 -160.58063 4294967136
369.43781 2966.4136 -160.62283 4294967136
372.17435 2965.4363 -160.3672 4294967136
373.27487 2965.6377 -160.69865 4294967136
375.54865 2965.3516 -160.4942 4294967136
376.87851 2966.5005 -160.97945 4294967136
377.49698 2965.4023 -160.9001 4294967136
379.68573 2964.9329 -160.70769 4294967136
381.29065 2964.3262 -160.33945 4294967136
383.35242 2965.325 -160.86107 4294967136
385.0452 2964.4934 -160.50415 4294967136
387.57135 2964.4668 -160.60939 4294967136
389.48215 2964.0369 -160.55045 4294967136
391.30664 2964.3665 -160.72365 4294967136
393.76965 2964.0288 -160.71629 4294967136
371.10898 2967.2771 -160.94128 4294967136
569.68658 2924.1445 -159.97878 4294967137
547.6535 2927.6758 -159.01045 4294967137
551.60083 2927.4014 -159.05304 4294967137
575.23688 2925.6873 -159.17105 4294967137
578.10339 2927.929 -159.61435 4294967137
501.56995 2930.9048 -159.24881 4294967137
503.39658 2930.6743 -159.36984 4294967137
505.37967 2930.5776 -159.25043 4294967137
507.10849 2930.5056 -159.11185 4294967137
509.55133 2930.2092 -159.49062 4294967137
513.56055 2929.9897 -159.41521 4294967137
515.33282 2929.7607 -159.908 4294967137
525.17578 2929.0723 -159.85902 4294967137
531.14368 2928.9397 -159.65028 4294967137
533.38202 2928.8289 -159.49541 4294967137
535.10657 2928.7029 -159.83392 4294967137
541.30255 2928.1846 -159.02 4294967137
459.202 2933.8303 -159.20621 4294967137
463.46204 2933.0632 -159.77086 4294967137
467.22455 2932.9612 -159.70084 4294967137
469.32428 2932.6458 -159.63596 4294967137
473.39389 2932.6694 -159.18788 4294967137
475.5889 2932.5244 -159.21291 4294967137
477.49377 2932.4663 -159.08722 4294967137
479.52557 2932.251 -159.25906 4294967137
481.66489 2932.1416 -159.35443 4294967137
483.52393 2932.093 -159.16615 4294967137
485.63376 2931.9067 -159.3418 4294967137
489.21118 2931.7078 -159.09517 4294967137
493.12042 2931.4617 -159.19664 4294967137
499.22891 2931.0771 -159.21835 4294967137
579.58344 2931.5261 -159.60953 4294967137
580.08728 2933.5242 -159.67221 4294967137
401.51093 2936.8198 -159.70404 4294967137
413.57257 2936.2559 -159.54053 4294967137
415.39725 2935.4692 -159.99269 4294967137
417.14542 2936.6199 -159.18686 4294967137
419.57285 2936.7258 -159.03629 4294967137
421.19229 2936.6086 -159.14407 4294967137
423.26596 2936.4263 -159.31303 4294967137
425.44498 2936.1301 -159.6902 4294967137
429.48795 2935.9858 -159.35202 4294967137
431.52054 2935.6423 -159.81064 4294967137
433.41364 2935.5369 -159.52567 4294967137
435.29105 2935.3577 -159.44373 4294967137
439.31396 2934.9553 -159.46387 4294967137
441.45526 2934.9221 -159.50348 4294967137
445.31155 2934.7197 -159.38977 4294967137
447.49844 2934.5757 -159.44196 4294967137
449.40808 2934.4382 -159.50163 4294967137
451.47061 2934.3535 -159.39214 4294967137
453.37817 2934.4255 -159.04703 4294967137
454.75305 2934.262 -159.13016 4294967137
457.46451 2934.0222 -159.37192 4294967137
365.5777 2939.606 -159.60228 4294967137
367.53546 2939.281 -159.63052 4294967137
371.44781 2939.1821 -159.55856 4294967137
374.02924 2939.1226 -159.41116 4294967137
377.68994 2937.4939 -159.8522 4294967137
380.45969 2937.1448 -159.89438 4294967137
385.61914 2937.761 -159.87741 4294967137
387.41345 2938.3003 -159.48978 4294967137
389.90161 2937.4688 -159.91785 4294967137
391.4082 2937.2991 -159.80859 4294967137
392.72299 2937.2173 -159.71596 4294967137
395.63095 2937.6846 -159.2939 4294967137
397.34445 2937.7683 -159.1004 4294967137
403.39786 2937.3333 -159.33632 4294967137
409.38477 2937.0486 -159.34737 4294967137
580.63959 2937.8369 -159.61433 4294967137
581.13953 2939.7717 -159.99759 4294967137
580.7182 2941.6604 -159.26909 4294967137
580.98108 2945.6316 -159.8089 4294967137
579.96765 2946.8665 -159.44597 4294967137
525.12848 2951.8662 -159.67274 4294967137
528.52637 2951.0916 -159.89064 4294967137
530.93878 2950.9878 -159.76208 4294967137
532.79706 2950.9189 -159.54366 4294967137
535.30121 2950.8271 -159.44662 4294967137
540.85925 2950.6853 -159.063 4294967137
562.44708 2949.5701 -159.68877 4294967137
572.06244 2949.5034 -159.94638 4294967137
501.14301 2953.9973 -159.86569 4294967137
503.67706 2953.8328 -159.74712 4294967137
507.20126 2953.7534 -159.94508 4294967137
512.71509 2954.0508 -159.243 4294967137
523.07098 2952.3735 -159.10684 4294967137
457.55536 2957.6731 -159.10693 4294967137
459.44672 2957.5068 -159.18381 4294967137
461.69403 2957.5037 -159.34019 4294967137
465.18283 2957.322 -159.1124 4294967137
467.64117 2957.3096 -159.36916 4294967137
473.33246 2956.3455 -159.29689 4294967137
474.66666 2956.0447 -159.04156 4294967137
481.2561 2955.6482 -159.91331 4294967137
482.86118 2955.5391 -159.85776 4294967137
485.16501 2955.3171 -159.15468 4294967137
414.27209 2960.803 -159.2112 4294967137
417.34177 2960.8677 -159.69688 4294967137
421.52502 2960.7014 -159.8148 4294967137
423.45926 2960.5505 -159.64908 4294967137
428.78305 2959.7429 -159.2364 4294967137
431.76132 2959.5237 -159.47923 4294967137
434.13113 2959.2852 -159.44977 4294967137
436.16989 2959.2378 -159.80582 4294967137
437.21664 2959.0269 -159.29929 4294967137
445.40396 2958.3254 -159.16058 4294967137
377.58658 2963.5906 -159.59816 4294967137
381.38516 2963.5017 -159.76186 4294967137
383.20334 2963.3394 -159.37413 4294967137
385.49756 2963.1565 -159.30658 4294967137
389.10428 2963.0615 -159.61243 4294967137
391.34036 2962.8345 -159.58792 4294967137
395.26398 2962.7644 -159.88341 4294967137
397.50751 2962.3481 -159.73254 4294967137
405.35751 2961.5032 -159.12788 4294967137
407.28854 2961.5505 -159.5442 4294967137
409.93488 2961.1082 -159.01331 4294967137
410.56497 2961.4253 -159.72742 4294967137
365.46664 2964.9209 -159.49352 4294967137
370.14847 2964.9822 -159.88673 4294967137
371.47482 2964.3623 -159.60028 4294967137
373.14093 2964.5549 -159.84583 4294967137
565.79462 2924.8174 -158.48055 4294967138
568.0788 2924.4934 -158.3232 4294967138
569.81628 2924.3589 -158.07671 4294967138
570.98431 2924.2739 -158.69962 4294967138
572.66809 2924.7253 -158.59485 4294967138
543.52161 2927.9978 -158.87608 4294967138
545.42572 2927.8503 -158.78885 4294967138
557.4823 2926.429 -158.87753 4294967138
559.27808 2925.9988 -158.81569 4294967138
561.08643 2925.5425 -158.85712 4294967138
563.51825 2925.209 -158.92493 4294967138
576.94244 2927.3757 -158.96089 4294967138
507.50333 2930.8071 -158.10751 4294967138
509.41919 2930.6514 -158.00528 4294967138
513.36938 2930.3582 -158.20171 4294967138
517.06793 2930.2935 -158.22238 4294967138
521.50537 2929.811 -158.29375 4294967138
523.5141 2929.5901 -158.17535 4294967138
578.11029 2929.541 -158.77388 4294967138
465.60205 2933.8442 -158.26021 4294967138
