# .PCD v0.7 - Point Cloud Data file format
VERSION 0.7
FIELDS x y z rgba
SIZE 4 4 4 4
TYPE F F F U
COUNT 1 1 1 1
WIDTH 1316
HEIGHT 1
VIEWPOINT 0 0 0 1 0 0 0
POINTS 1316
DATA ascii
360.27478 -391.25027 -17.593834 4294967279
355.7424 -387.15436 -17.075495 4294967279
357.64462 -388.25815 -17.291698 4294967279
325.26895 -385.96338 -17.315529 4294967279
327.30923 -385.91406 -17.008596 4294967279
315.47171 -433.51083 -16.95546 4294967280
311.42993 -429.04294 -16.408794 4294967280
348.01349 -411.59146 -16.815247 4294967280
350.03064 -411.14404 -16.812519 4294967280
357.05267 -407.69861 -16.256886 4294967280
358.65085 -405.79758 -16.606157 4294967280
359.82635 -403.00995 -16.69471 4294967280
360.14432 -397.9429 -16.060787 4294967280
359.85214 -393.2717 -16.218958 4294967280
360.80151 -395.20416 -16.955027 4294967280
358.90588 -389.85297 -16.988747 4294967280
329.32828 -386.01218 -16.996172 4294967280
341.60254 -385.93604 -16.843014 4294967280
345.24576 -385.75766 -16.71837 4294967280
347.52631 -385.63559 -16.792669 4294967280
349.81433 -385.72229 -16.425251 4294967280
352.16132 -386.00626 -16.071693 4294967280
313.51019 -433.37848 -15.870687 4294967281
311.00381 -430.88007 -15.54942 4294967281
309.60675 -428.98404 -15.444576 4294967281
309.4646 -424.11267 -15.707705 4294967281
352.93204 -410.21613 -15.954144 4294967281
355.34732 -409.03452 -15.969404 4294967281
358.246 -403.67166 -15.054916 4294967281
359.28607 -400.83746 -15.400585 4294967281
359.2825 -395.66974 -15.123496 4294967281
358.82281 -391.40372 -15.814503 4294967281
355.7811 -388.07895 -15.194336 4294967281
357.63287 -389.68408 -15.615815 4294967281
308.49869 -384.01352 -15.664171 4294967281
325.53897 -385.94235 -15.007733 4294967281
354.05191 -386.67188 -15.853625 4294967281
307.38562 -383.64389 -15.451174 4294967281
307.90747 -429.06567 -14.592311 4294967282
307.50342 -427.13467 -14.748563 4294967282
306.08752 -417.05682 -14.217634 4294967282
307.3894 -419.11008 -14.680424 4294967282
307.60944 -416.05414 -14.832201 4294967282
348.01636 -411.186 -14.812688 4294967282
331.72437 -409.86377 -14.838594 4294967282
355.80353 -407.76471 -14.802917 4294967282
357.02808 -406.09564 -14.875161 4294967282
358.47955 -398.47394 -14.244789 4294967282
358.32507 -393.43875 -14.513318 4294967282
357.42255 -391.323 -14.295853 4294967282
356.49557 -389.67435 -14.276879 4294967282
312.87732 -385.17404 -14.718502 4294967282
327.40091 -386.07855 -14.907283 4294967282
329.31799 -386.16507 -14.943563 4294967282
343.20035 -385.83444 -14.970268 4294967282
345.23026 -385.67566 -14.887436 4294967282
347.69025 -385.62546 -14.566628 4294967282
350.22812 -385.80542 -14.1328 4294967282
352.33054 -386.19492 -14.520631 4294967282
305.46707 -428.11267 -13.689699 4294967283
303.12427 -425.0553 -13.066829 4294967283
304.03427 -421.17889 -13.333575 4294967283
303.25308 -417.14645 -13.185558 4294967283
303.49658 -415.2276 -13.310027 4294967283
305.28342 -415.01639 -13.946441 4294967283
303.24329 -413.05753 -13.155988 4294967283
304.97314 -412.9238 -13.773502 4294967283
350.33618 -410.70642 -13.861897 4294967283
352.01431 -409.71237 -13.307145 4294967283
353.94043 -408.57861 -13.768079 4294967283
355.45709 -406.56122 -13.467692 4294967283
356.61017 -404.22031 -13.49431 4294967283
357.61432 -401.44284 -13.703626 4294967283
357.45941 -395.95667 -13.233556 4294967283
353.20355 -387.03201 -13.410966 4294967283
355.10489 -388.93384 -13.308226 4294967283
311.01489 -385.1579 -13.455781 4294967283
312.70285 -385.28214 -13.585625 4294967283
314.60529 -385.45685 -13.612307 4294967283
351.50266 -386.14816 -13.236122 4294967283
307.28964 -433.3688 -12.784127 4294967284
304.10977 -429.38483 -12.857026 4294967284
305.73349 -431.17538 -12.932014 4294967284
301.64636 -421.97772 -12.508575 4294967284
301.01535 -417.10596 -12.434766 4294967284
299.25656 -414.82025 -12.053893 4294967284
299.72415 -412.86954 -12.010419 4294967284
301.48779 -412.64032 -12.621605 4294967284
348.54544 -411.32404 -12.134758 4294967284
303.06302 -409.49069 -12.741697 4294967284
349.88614 -410.53384 -12.188953 4294967284
350.82932 -409.92715 -12.184143 4294967284
353.99615 -406.90265 -12.213922 4294967284
354.99811 -404.85046 -12.113156 4294967284
355.89261 -402.15515 -12.161601 4294967284
356.61563 -399.01202 -12.416879 4294967284
356.61346 -393.30511 -12.807533 4294967284
355.97913 -390.88519 -12.957925 4294967284
353.9411 -388.45502 -12.236052 4294967284
307.69861 -384.82782 -12.432064 4294967284
309.63724 -385.10431 -12.858554 4294967284
323.24872 -385.80554 -12.868043 4294967284
325.60095 -386.02832 -12.872406 4294967284
341.53473 -385.94952 -12.748059 4294967284
345.26782 -385.53482 -12.792949 4294967284
347.88763 -385.63324 -12.293392 4294967284
351.67828 -386.39728 -12.490664 4294967284
299.71597 -382.72342 -12.4992 4294967284
299.94873 -429.26315 -11.306884 4294967285
301.23343 -429.0162 -11.848958 4294967285
303.3251 -431.32312 -11.881146 4294967285
299.87271 -427.34329 -11.728088 4294967285
299.42136 -421.34094 -11.773684 4294967285
299.52182 -416.97775 -11.963326 4294967285
299.14117 -411.87631 -11.79951 4294967285
351.96655 -408.13586 -11.161591 4294967285
354.60416 -390.03976 -11.793344 4294967285
355.00964 -392.4129 -11.327173 4294967285
352.90594 -387.83572 -11.575009 4294967285
353.44632 -389.04877 -11.032761 4294967285
307.07755 -384.96597 -11.455518 4294967285
309.11292 -385.25146 -11.541706 4294967285
311.05505 -385.46472 -11.353676 4294967285
313.11453 -385.51868 -11.129896 4294967285
350.15756 -386.06787 -11.900208 4294967285
351.73422 -386.89297 -11.500353 4294967285
295.53796 -421.10284 -10.668316 4294967286
295.62006 -415.95056 -10.899607 4294967286
293.71414 -412.63556 -10.473384 4294967286
349.7305 -409.78036 -10.721657 4294967286
353.40375 -405.58255 -10.908238 4294967286
354.27887 -403.08694 -10.833688 4294967286
354.83621 -400.11572 -10.839676 4294967286
354.99164 -396.05121 -10.807303 4294967286
288.41467 -384.56665 -10.249722 4294967286
304.95505 -384.6539 -10.915095 4294967286
315.67325 -385.49954 -10.799815 4294967286
327.63013 -386.15326 -10.870754 4294967286
329.54358 -386.21414 -10.966036 4294967286
341.64853 -385.88916 -10.949339 4294967286
343.94479 -385.54434 -10.337486 4294967286
346.30936 -385.3483 -10.629306 4294967286
279.08591 -382.22998 -10.027588 4294967286
283.6839 -382.14713 -10.265075 4294967286
291.34589 -427.07663 -9.3819094 4294967287
289.45877 -423.39767 -9.3572807 4294967287
291.73117 -425.19116 -9.7424412 4294967287
291.23923 -421.08505 -9.7006865 4294967287
290.65146 -414.38263 -9.8647404 4294967287
289.25952 -411.68451 -9.3020306 4294967287
288.81711 -410.52328 -9.3358288 4294967287
347.54111 -410.19583 -9.6941071 4294967287
350.21371 -408.44604 -9.4042654 4294967287
352.0968 -405.9675 -9.7809515 4294967287
352.77982 -403.96753 -9.6796875 4294967287
353.4201 -400.28674 -9.5612888 4294967287
353.57935 -394.17877 -9.4155273 4294967287
353.35626 -390.96924 -9.8943949 4294967287
351.95892 -388.35037 -9.7519188 4294967287
281.616 -384.37164 -9.8439894 4294967287
301.48376 -384.48257 -9.1609306 4294967287
304.9101 -384.92932 -9.6066046 4294967287
307.03607 -385.24484 -9.7176971 4294967287
309.63956 -385.46429 -9.1163502 4294967287
347.42499 -385.81461 -9.6150455 4294967287
350.24631 -386.67664 -9.9356184 4294967287
275.44681 -382.87564 -9.6893835 4294967287
277.45032 -383.60895 -9.4334164 4294967287
279.57953 -383.97144 -9.7323828 4294967287
281.26605 -383.97733 -9.9145508 4294967287
285.2821 -383.36249 -9.0577116 4294967287
285.40936 -426.82974 -8.3433514 4294967288
287.62079 -427.12781 -8.6421909 4294967288
289.16986 -428.77982 -8.4173126 4294967288
273.51956 -423.04419 -8.0164146 4294967288
275.65341 -423.30298 -8.028615 4294967288
277.4856 -423.01181 -8.0777588 4294967288
279.44739 -423.20648 -8.1527252 4294967288
281.48706 -424.26849 -8.21702 4294967288
283.4848 -424.28436 -8.4050522 4294967288
285.51636 -425.08569 -8.6431341 4294967288
286.95154 -423.24036 -8.9414082 4294967288
287.67358 -425.32159 -8.9609118 4294967288
271.81924 -421.3761 -8.0162029 4294967288
275.77966 -421.39188 -8.0650005 4294967288
285.45929 -421.2171 -8.7137518 4294967288
271.33054 -418.96304 -8.0041542 4294967288
273.67072 -417.24289 -8.0692167 4294967288
272.97751 -414.93488 -8.1399612 4294967288
277.05682 -414.95114 -8.2535477 4294967288
269.40112 -412.00562 -8.1907921 4294967288
271.44995 -412.93082 -8.1657515 4294967288
273.54388 -413.06055 -8.1997042 4294967288
275.57233 -412.86841 -8.2499933 4294967288
277.64951 -413.01233 -8.3658447 4294967288
280.00958 -412.97986 -8.515255 4294967288
281.57108 -411.07324 -8.6315546 4294967288
285.01828 -413.28384 -8.8791523 4294967288
271.3558 -410.64398 -8.2163563 4294967288
272.83926 -408.01532 -8.1808748 4294967288
273.76389 -410.86398 -8.2539387 4294967288
275.31375 -408.95557 -8.2393551 4294967288
277.33563 -409.74402 -8.3426924 4294967288
279.74719 -408.23462 -8.4439659 4294967288
280.55048 -408.21973 -8.3511295 4294967288
281.68604 -408.4158 -8.4839668 4294967288
283.52087 -408.59009 -8.6089001 4294967288
285.55945 -409.10059 -8.5834494 4294967288
341.84381 -410.1907 -8.2877102 4294967288
346.69089 -410.2551 -8.1970005 4294967288
347.55734 -409.65335 -8.3351479 4294967288
348.65982 -409.035 -8.5671101 4294967288
271.78992 -407.9444 -8.1136017 4294967288
274.15063 -407.45303 -8.16113 4294967288
275.3219 -407.23492 -8.1848679 4294967288
277.4722 -407.47736 -8.1363134 4294967288
278.94989 -407.98016 -8.2441597 4294967288
279.13522 -405.37457 -8.3772812 4294967288
349.50677 -407.65726 -8.0161142 4294967288
350.83487 -406.94608 -8.9585667 4294967288
278.00876 -404.12259 -8.3900118 4294967288
351.59637 -403.63901 -8.5240116 4294967288
352.22787 -399.84564 -8.412981 4294967288
352.90686 -396.89526 -8.7512598 4294967288
352.18747 -393.18384 -8.0755024 4294967288
350.39041 -387.40622 -8.3466244 4294967288
297.86176 -384.48856 -8.800828 4294967288
311.42978 -385.54376 -8.9863672 4294967288
313.52533 -385.58688 -8.9905014 4294967288
331.06396 -386.23831 -8.8228598 4294967288
341.71927 -385.75629 -8.7310858 4294967288
343.961 -385.44223 -8.3305712 4294967288
349.14307 -386.54092 -8.4106321 4294967288
283.3042 -383.91449 -8.2337236 4294967288
281.4996 -429.12006 -7.1414561 4294967289
283.21973 -429.60815 -7.1587911 4294967289
275.64685 -427.10208 -7.315836 4294967289
277.789 -427.20071 -7.4156137 4294967289
279.57141 -427.01569 -7.6077123 4294967289
281.51144 -427.26904 -7.73105 4294967289
287.19373 -428.98383 -7.9711871 4294967289
271.38165 -424.09589 -7.8535929 4294967289
273.56467 -425.64877 -7.6324763 4294967289
277.24155 -425.41605 -7.8211637 4294967289
279.45557 -425.18564 -7.9809132 4294967289
269.4227 -421.20676 -7.9760437 4294967289
195.98254 -417.4281 -7.0009065 4294967289
207.65648 -415.09201 -7.0726647 4294967289
211.13916 -415.40704 -7.1534281 4294967289
197.50653 -413.38364 -7.0766935 4294967289
199.27676 -413.27731 -7.1222081 4294967289
201.13126 -411.04941 -7.2024488 4294967289
203.32062 -412.03793 -7.0835686 4294967289
205.02701 -413.1275 -7.0591607 4294967289
207.60843 -413.02457 -7.0750031 4294967289
209.48981 -412.1015 -7.1515064 4294967289
210.66122 -413.30295 -7.1566005 4294967289
205.49451 -410.65707 -7.046504 4294967289
207.04311 -410.80582 -7.0654845 4294967289
335.98901 -409.66098 -7.0254459 4294967289
348.55411 -407.49857 -7.1425414 4294967289
349.68314 -406.12408 -7.4652171 4294967289
349.7131 -404.3046 -7.0504727 4294967289
350.69586 -402.94461 -7.5804982 4294967289
350.65213 -399.39142 -7.0283413 4294967289
351.17532 -401.08209 -7.6805072 4294967289
351.30667 -397.26624 -7.3366041 4294967289
352.05731 -395.43219 -7.8710089 4294967289
351.58932 -390.40073 -7.9650478 4294967289
349.73178 -387.77664 -7.0942025 4294967289
350.94666 -388.61655 -7.8774133 4294967289
279.28406 -384.25583 -7.7960844 4294967289
280.77045 -384.28418 -7.5926909 4294967289
285.03561 -384.09573 -7.8785791 4294967289
286.9577 -384.52158 -7.6782479 4294967289
289.57758 -385.21326 -7.9459181 4294967289
297.10107 -384.96228 -7.6144032 4294967289
301.41324 -384.85983 -7.2217226 4294967289
303.00833 -384.93549 -7.3504548 4294967289
309.82291 -385.58484 -7.0431466 4294967289
346.66885 -385.55981 -7.4743419 4294967289
134.06677 -381.97461 -7.1063361 4294967289
137.41521 -381.79312 -7.5444226 4294967289
139.34276 -381.6199 -7.6231823 4294967289
141.51717 -381.14886 -7.7989049 4294967289
143.33899 -381.09491 -7.7280235 4294967289
175.16713 -417.2489 -6.6297345 4294967290
177.92624 -417.20456 -6.6680984 4294967290
143.41931 -415.2428 -6.3681793 4294967290
147.50226 -415.17896 -6.4675627 4294967290
149.42029 -415.2337 -6.488049 4294967290
151.64697 -415.30939 -6.5010633 4294967290
155.21535 -415.13327 -6.5319142 4294967290
159.4467 -415.3136 -6.5298748 4294967290
160.85156 -415.19983 -6.5343456 4294967290
163.54887 -415.30743 -6.5371981 4294967290
165.72601 -415.1149 -6.5765095 4294967290
179.80887 -416.92078 -6.7279005 4294967290
192.87862 -415.07373 -6.9906497 4294967290
137.03845 -411.18665 -6.4700212 4294967290
141.49397 -413.26495 -6.4773283 4294967290
143.23962 -413.20731 -6.487298 4294967290
145.41953 -412.13681 -6.5150909 4294967290
147.35788 -411.30487 -6.5391936 4294967290
151.2691 -413.29141 -6.5610728 4294967290
163.66357 -413.15839 -6.5929093 4294967290
125.73687 -408.43591 -6.6756253 4294967290
127.43208 -408.65833 -6.7020049 4294967290
129.39996 -409.92389 -6.5887275 4294967290
131.54253 -409.06766 -6.5209451 4294967290
133.34116 -408.96118 -6.5140686 4294967290
135.38358 -409.00604 -6.4947457 4294967290
137.71016 -408.83463 -6.5220447 4294967290
139.26175 -409.06589 -6.4886527 4294967290
140.97166 -410.79538 -6.4985895 4294967290
141.44598 -409.07895 -6.4941788 4294967290
143.77527 -409.97427 -6.4994011 4294967290
145.29459 -408.86063 -6.5564013 4294967290
147.35744 -409.03363 -6.5661573 4294967290
149.48743 -409.10101 -6.5354218 4294967290
333.2814 -409.46353 -6.7274008 4294967290
337.39185 -409.76309 -6.5798941 4294967290
339.96494 -409.91492 -6.241899 4294967290
341.71249 -410.07596 -6.0919838 4294967290
345.22873 -409.65652 -6.1881742 4294967290
347.01242 -408.72354 -6.9264231 4294967290
129.63538 -406.15466 -6.5612946 4294967290
131.24452 -406.20209 -6.523231 4294967290
133.50749 -406.22421 -6.5104775 4294967290
135.38281 -406.20392 -6.5156221 4294967290
137.33672 -406.18591 -6.5126448 4294967290
139.57233 -406.19351 -6.521328 4294967290
349.12537 -401.52292 -6.0960665 4294967290
349.69308 -397.83698 -6.0383964 4294967290
350.50174 -395.09964 -6.4593592 4294967290
350.23029 -392.1286 -6.167654 4294967290
350.1456 -389.56638 -6.5417295 4294967290
284.51367 -384.46286 -6.3790026 4294967290
289.40906 -385.3887 -6.0965548 4294967290
305.34924 -385.22464 -6.7456188 4294967290
307.23804 -385.36816 -6.9643173 4294967290
313.49332 -385.80475 -6.818687 4294967290
323.35013 -386.07495 -6.9031668 4294967290
327.43701 -386.13635 -6.8512268 4294967290
329.31259 -386.16653 -6.9905906 4294967290
331.33286 -386.17731 -6.8672781 4294967290
333.75879 -386.16086 -6.8913846 4294967290
337.5795 -386.01382 -6.9115176 4294967290
342.23813 -385.53925 -6.1753898 4294967290
346.53757 -385.69513 -6.2096348 4294967290
347.76578 -386.45734 -6.9893489 4294967290
279.28555 -408.01245 -5.6507564 4294967291
347.60129 -405.83691 -5.8145671 4294967291
349.05026 -396.05637 -5.262116 4294967291
349.05621 -394.22418 -5.0751486 4294967291
349.02591 -390.56744 -5.1591816 4294967291
348.43826 -388.3638 -5.5215263 4294967291
276.47855 -384.0563 -5.7916527 4294967291
279.01382 -384.39191 -5.7194386 4294967291
280.57486 -384.47287 -5.6845574 4294967291
282.19229 -384.45627 -5.9558039 4294967291
291.45975 -385.36713 -5.2847085 4294967291
344.01453 -385.57959 -5.8477936 4294967291
135.02324 -383.22202 -5.4081087 4294967291
137.51323 -383.25879 -5.5303059 4294967291
138.65268 -383.29797 -5.3831334 4294967291
140.80542 -383.27402 -5.1558666 4294967291
144.1093 -383.28195 -5.0209689 4294967291
338.25372 -409.87811 -4.1704507 4294967292
344.44055 -408.10486 -4.3826132 4294967292
129.35789 -405.79269 -4.317801 4294967292
275.44812 -407.81848 -4.8606253 4294967292
348.30112 -395.57663 -4.5543404 4294967292
348.64001 -392.39386 -4.6266732 4294967292
277.8826 -384.50516 -4.3442912 4294967292
283.4505 -384.73218 -4.1225367 4294967292
286.23434 -384.91211 -4.303328 4294967292
294.90649 -385.25089 -4.7780814 4294967292
297.18994 -385.15253 -4.9356389 4294967292
301.39236 -385.14078 -4.770638 4294967292
305.13989 -385.46445 -4.9450498 4294967292
309.7471 -385.84302 -4.8735456 4294967292
315.11169 -385.99289 -4.8773527 4294967292
329.27148 -386.06409 -4.8420572 4294967292
333.31024 -386.00186 -4.6633348 4294967292
337.6174 -385.77487 -4.6640491 4294967292
339.79443 -385.57291 -4.0907655 4294967292
346.37048 -386.91849 -4.7010522 4294967292
132.39917 -382.99902 -4.9989505 4294967292
137.29945 -383.76483 -4.1043797 4294967292
144.06406 -383.4429 -4.4645762 4294967292
340.47458 -409.57639 -3.3220773 4294967293
347.44 -394.3916 -3.6990228 4294967293
347.15833 -390.93753 -3.4215591 4294967293
346.89899 -388.51038 -3.800247 4294967293
275.36798 -384.35931 -3.205332 4294967293
280.52374 -384.6734 -3.5077443 4294967293
289.20953 -385.19699 -3.1347589 4294967293
293.14807 -385.18521 -3.1497138 4294967293
342.33658 -385.72473 -3.3366356 4294967293
131.05054 -383.38644 -3.7727363 4294967293
331.39868 -409.23581 -2.7929893 4294967294
340.28293 -409.27133 -2.0263653 4294967294
341.82645 -409.21988 -2.855247 4294967294
267.18906 -385.21225 -2.97824 4294967294
284.79376 -384.92896 -2.6606398 4294967294
291.57611 -385.28824 -2.941505 4294967294
327.46475 -385.93411 -2.8191726 4294967294
329.45523 -385.91272 -2.7885952 4294967294
331.31616 -385.88635 -2.8576157 4294967294
333.54865 -385.79272 -2.7357643 4294967294
335.90158 -385.62634 -2.0392337 4294967294
343.95074 -386.08392 -2.4219332 4294967294
345.40244 -386.32825 -2.932507 4294967294
141.93608 -383.91339 -2.5605485 4294967294
146.81 -383.65317 -2.6874378 4294967294
336.11642 -409.67664 -1.7346268 4294967295
345.16116 -391.69266 -1.2980672 4294967295
345.20026 -388.42352 -1.9090198 4294967295
283.38031 -384.94305 -1.4295487 4294967295
286.34052 -385.08542 -1.2704792 4294967295
338.41135 -385.49701 -1.6697356 4294967295
340.74103 -385.77802 -1.4736205 4294967295
134.4817 -383.8689 -1.544121 4294967295
139.49167 -383.9227 -1.5754356 4294967295
143.39185 -383.93253 -1.2600865 4294967295
147.13597 -383.728 -1.06261 4294967295
327.66119 -409.0993 -0.59990329 0
341.38315 -408.13406 -0.6115191 0
259.03009 -385.44522 -0.98371345 0
261.7554 -385.5549 -0.78172112 0
265.23169 -385.45892 -0.95428336 0
269.18051 -385.30298 -0.77864981 0
271.34857 -385.03354 -0.62223828 0
276.94653 -384.71021 -0.6900934 0
280.94952 -384.98071 -0.48912725 0
289.42883 -385.26993 -0.99861765 0
293.65201 -385.4306 -0.16144969 0
313.26093 -386.03088 -0.93463987 0
319.5368 -385.93661 -0.85270977 0
325.31281 -385.8064 -0.86615795 0
327.5813 -385.75223 -0.75610918 0
329.43375 -385.64532 -0.28629622 0
341.56616 -386.11029 -0.59068257 0
343.36469 -386.78259 -0.37508678 0
148.86646 -383.52844 -0.072802909 0
331.87527 -409.23279 0.052539144 0
334.54678 -409.11386 0.89694726 0
343.9491 -390.71887 0.72024411 0
343.89728 -388.76776 0.66056991 0
249.29813 -385.35208 0.98892057 0
263.77725 -385.68265 0.85674137 0
284.83463 -385.0661 0.013626327 0
333.94739 -385.4111 0.0093839867 0
336.12222 -385.62079 0.13161592 0
337.9585 -385.73956 0.15455845 0
137.89134 -383.90884 0.91235524 0
139.35458 -383.91513 0.92236507 0
143.79939 -383.86172 0.99973232 0
147.57672 -383.60068 0.80381203 0
151.68845 -383.57571 0.75923032 0
323.13596 -408.78244 1.3725708 1
325.76007 -409.01141 1.7413274 1
332.63159 -408.96365 1.9904016 1
201.41998 -406.02377 1.451465 1
339.49567 -406.68561 1.5051949 1
255.32481 -385.42773 1.1472155 1
258.87494 -385.47159 1.1528707 1
261.77536 -385.63165 1.0600326 1
265.15677 -385.72089 1.0885333 1
267.85559 -385.70145 1.1869606 1
282.96753 -385.05634 1.038334 1
286.73154 -385.18066 1.4451365 1
289.55746 -385.34869 1.5718999 1
325.43466 -385.54718 1.7193217 1
335.81311 -385.7428 1.9877143 1
337.8623 -386.05447 1.5520432 1
339.13202 -386.26202 1.4346142 1
341.14343 -386.94568 1.4360983 1
129.49728 -383.76782 1.2549875 1
133.97592 -383.90768 1.0041306 1
329.63367 -408.98566 2.4079518 2
333.9581 -408.84393 2.1274669 2
337.50525 -408.35086 2.1330287 2
197.3967 -405.8681 2.8958402 2
199.58896 -405.87723 2.9982624 2
337.35297 -406.78369 2.9245872 2
339.13531 -387.07571 2.770092 2
341.79059 -388.28207 2.3139839 2
267.92444 -385.79779 2.8884633 2
269.31741 -385.74146 2.8055806 2
329.74103 -385.50772 2.1943538 2
332.31519 -385.39688 2.2076058 2
317.28769 -408.24866 3.5019269 3
319.34763 -408.54269 3.6723816 3
321.76743 -408.65384 3.6371372 3
330.41953 -408.64182 3.880796 3
333.73322 -408.41782 3.3544915 3
195.69556 -405.83786 3.0348308 3
203.23077 -405.88135 3.250788 3
287.54889 -407.16656 3.1207108 3
335.17059 -407.48602 3.9106073 3
339.6886 -392.07986 3.6553407 3
337.66138 -387.46704 3.9698193 3
339.99231 -389.22592 3.8383255 3
243.38638 -385.19125 3.0339665 3
245.12436 -385.2316 3.1911564 3
247.32814 -385.2894 3.0940773 3
251.51141 -385.39435 3.0397258 3
253.4023 -385.42639 3.3269391 3
257.52805 -385.51031 3.1922333 3
265.06058 -385.74817 3.0092776 3
279.89069 -385.21219 3.7878356 3
284.104 -385.08438 3.3866868 3
286.3082 -385.14539 3.6899617 3
289.26746 -385.40628 3.031491 3
299.8165 -385.88455 3.1736827 3
313.44754 -385.771 3.0987 3
317.33563 -385.6853 3.127012 3
319.453 -385.548 3.6455252 3
333.79544 -386.13678 3.9372518 3
129.6053 -383.71957 3.1338074 3
133.92468 -383.83017 3.0872958 3
144.19258 -383.80841 3.1158805 3
147.16634 -383.66711 3.2342343 3
149.4697 -383.59729 3.1740251 3
151.39589 -383.65561 3.2777295 3
152.86264 -383.76575 3.453105 3
155.51505 -383.97107 3.0614398 3
326.08246 -409.0043 4.188705 4
327.67557 -408.91373 4.4566712 4
285.78745 -407.07425 4.9155445 4
333.39105 -407.35556 4.8064666 4
335.39539 -406.16138 4.2535977 4
145.5172 -404.43695 4.9159384 4
335.59653 -397.20285 4.7563047 4
337.49951 -394.43527 4.4781857 4
261.42886 -385.57837 4.8298779 4
263.59729 -385.66376 4.5405412 4
265.25467 -385.70633 4.4096098 4
325.87766 -385.26733 4.3463464 4
329.86841 -385.64941 4.3216825 4
331.70007 -385.68552 4.1705647 4
335.22354 -386.74292 4.3617387 4
143.69705 -383.75504 4.7717018 4
157.6032 -383.98517 4.8682575 4
319.70468 -408.13351 5.4135442 5
328.31464 -408.31119 5.6443343 5
193.28474 -405.58798 5.0544257 5
195.65208 -405.63528 5.4040971 5
197.44963 -405.67572 5.3534226 5
199.36282 -405.69714 5.5515862 5
201.30681 -405.72641 5.2631845 5
203.25487 -405.75613 5.1405969 5
205.65059 -405.79242 5.2985973 5
209.34108 -405.85657 5.2618651 5
281.48984 -406.9465 5.2008505 5
283.49564 -407.00443 5.1913857 5
287.1857 -407.12521 5.5165076 5
291.72681 -407.09174 5.4094858 5
312.65875 -407.38605 5.4801421 5
316.29221 -407.7261 5.5604262 5
331.526 -407.63336 5.381031 5
333.50104 -405.73502 5.4610095 5
137.24265 -404.26544 5.6219988 5
143.27521 -404.37607 5.2692819 5
151.35878 -404.59894 5.1131601 5
155.46123 -404.6864 5.2364888 5
161.16632 -404.79514 5.5194793 5
333.55374 -402.23608 5.6349673 5
335.49335 -394.53149 5.6868 5
337.53381 -392.13037 5.0369544 5
335.97293 -388.31805 5.5975094 5
239.72636 -385.07437 5.0360851 5
243.53186 -385.16995 5.0898895 5
247.33162 -385.2677 5.1587496 5
253.50362 -385.40259 5.1780968 5
255.32957 -385.43979 5.0428252 5
257.33218 -385.4729 5.1857977 5
259.56503 -385.52411 5.0173116 5
269.61627 -385.53665 5.8101292 5
273.60785 -385.53687 5.571404 5
283.9469 -385.03708 5.1671972 5
284.81253 -384.96445 5.1923327 5
286.66391 -385.12292 5.3469138 5
301.25613 -385.84216 5.1236286 5
313.23749 -385.47345 5.7003651 5
333.31137 -386.82852 5.6920967 5
130.60591 -383.56207 5.3196826 5
133.77873 -383.66177 5.1145482 5
139.1692 -383.77628 5.0291648 5
145.96666 -383.69748 5.1046634 5
149.58856 -383.64392 5.1420341 5
155.69545 -383.905 5.0773802 5
323.49533 -408.55554 6.5274129 6
325.88751 -408.40939 6.0449386 6
181.59695 -405.22198 6.8340993 6
187.69331 -405.3396 6.7700567 6
190.78256 -405.44235 6.2280707 6
289.39111 -407.02667 6.4863782 6
294.52542 -406.91769 6.4933968 6
310.70752 -406.97592 6.7480183 6
314.79846 -407.29123 6.630197 6
329.32263 -407.41733 6.6351795 6
331.40735 -405.01172 6.5737791 6
331.61389 -402.02966 6.7775221 6
331.62485 -399.38651 6.6957722 6
331.81021 -397.38953 6.9601889 6
333.67307 -397.1506 6.0521126 6
333.73297 -394.92978 6.5621343 6
335.82077 -392.16895 6.310709 6
336.03128 -390.0332 6.2042971 6
333.43091 -388.34952 6.7415352 6
315.6105 -385.31546 6.2766004 6
317.70981 -385.30341 6.0901904 6
321.95407 -385.41171 6.4826336 6
327.50217 -385.91989 6.1925282 6
331.47769 -386.76553 6.1638174 6
184.69829 -405.24152 7.1855369 7
193.78609 -405.37854 7.3221464 7
196.85991 -405.44629 7.3547831 7
201.20743 -405.58362 7.6265917 7
203.23752 -405.71527 7.2505364 7
205.65115 -405.76822 7.2867069 7
207.76816 -405.78226 7.0159049 7
210.99655 -405.82751 7.2277522 7
213.64188 -405.84592 7.0121017 7
273.5654 -406.79001 7.2940135 7
283.4212 -407.05582 7.3855929 7
286.77481 -406.96329 7.6691327 7
291.54214 -406.82675 7.7851486 7
300.12128 -406.47214 7.9214206 7
305.17545 -406.62161 7.7014532 7
307.2294 -406.77911 7.1568756 7
316.10593 -407.05273 7.5254264 7
317.20282 -407.34586 7.2174954 7
318.70422 -407.38776 7.2529283 7
321.00159 -407.46716 7.4803653 7
325.29306 -407.90121 7.6060271 7
327.70178 -406.82245 7.962707 7
329.42569 -405.99207 7.4936733 7
127.13509 -404.086 7.500124 7
129.42406 -404.17004 7.1358409 7
133.11649 -404.16669 7.1722612 7
147.64899 -404.47653 7.0958991 7
153.11302 -404.62183 7.1193662 7
157.60304 -404.69595 7.0790043 7
329.8519 -404.66617 7.5851569 7
329.53152 -399.22452 7.8392959 7
329.68301 -397.13986 7.9981151 7
333.73145 -392.22504 7.3923407 7
331.70432 -388.50925 7.6108351 7
189.73055 -384.00497 7.1506705 7
191.30826 -384.01251 7.298779 7
193.97633 -384.04059 7.2571225 7
241.54373 -385.004 7.237597 7
249.61305 -385.21698 7.2292109 7
251.59938 -385.25989 7.1875238 7
253.74219 -385.30096 7.2742052 7
255.85458 -385.3367 7.1778536 7
257.71146 -385.35199 7.1767807 7
259.68442 -385.36307 7.1734457 7
261.86258 -385.25363 7.9101977 7
263.75284 -385.3147 7.4482422 7
265.28467 -385.3161 7.555223 7
267.88449 -385.39655 7.2357469 7
269.67188 -385.45001 7.2029696 7
273.22946 -385.49356 7.4073434 7
275.52274 -385.47586 7.2520075 7
277.40033 -385.43518 7.0931358 7
283.54709 -385.13226 7.059247 7
286.92422 -385.32489 7.3908515 7
289.10629 -385.48294 7.6298933 7
291.3959 -385.5809 7.2892599 7
295.84195 -385.5842 7.5713453 7
300.20645 -385.52994 7.9018598 7
324.89661 -386.05725 7.4455481 7
327.23279 -386.77737 7.8923278 7
124.99743 -383.23541 7.340344 7
129.6899 -383.33041 7.2332735 7
133.67094 -383.36523 7.3144207 7
143.75476 -383.58261 7.0365233 7
146.06154 -383.57635 7.0722904 7
147.06026 -383.55933 7.2852335 7
149.62061 -383.59671 7.110641 7
151.20158 -383.63602 7.0430307 7
153.48801 -383.71024 7.1937766 7
184.97839 -383.89297 7.2379107 7
187.19037 -383.93896 7.4016833 7
199.22035 -405.45367 8.058857 8
293.06335 -406.45923 8.9749184 8
296.91129 -406.39526 8.5123072 8
303.12817 -406.19235 8.8694601 8
309.35242 -406.32422 8.2500601 8
312.00369 -406.28214 8.3269596 8
314.34894 -406.47119 8.1290016 8
317.85211 -406.72122 8.3776035 8
320.1315 -406.34598 8.9574881 8
322.84662 -406.5687 8.6994209 8
327.53943 -405.60468 8.5662498 8
159.909 -404.76511 8.8804855 8
327.82678 -404.6243 8.6833401 8
327.58777 -400.50613 8.8999367 8
329.52481 -394.73349 8.5941811 8
331.69745 -392.41232 8.2926025 8
327.91586 -388.43176 8.9162884 8
329.45929 -388.42944 8.4171095 8
297.32977 -385.5444 8.0359259 8
309.40958 -385.19482 8.4338484 8
311.67319 -385.30295 8.3161259 8
315.82089 -385.51474 8.8812475 8
317.85474 -385.5737 8.4448786 8
321.37802 -385.89603 8.1485491 8
325.30182 -386.84018 8.5682411 8
175.53497 -405.09933 9.3102913 9
177.84677 -405.07208 9.0880232 9
187.10747 -405.10571 9.2896185 9
189.25224 -405.15958 9.0193081 9
194.72513 -405.02213 9.9397593 9
203.32425 -405.51624 9.6745472 9
205.95448 -405.7998 9.1891565 9
207.59125 -405.81531 9.3491325 9
209.50218 -405.81198 9.3276052 9
213.6311 -405.84277 9.4520874 9
215.48087 -405.85907 9.1348801 9
257.48886 -406.57565 9.8195257 9
259.32559 -406.58603 9.3921576 9
263.72098 -406.70547 9.5536785 9
265.34317 -406.7756 9.9507036 9
269.45901 -406.84692 9.7135801 9
271.4613 -406.88522 9.8474693 9
275.29327 -406.97818 9.883131 9
277.21091 -407.03183 9.9466887 9
279.46091 -407.10727 9.8616066 9
281.67725 -407.17896 9.9652996 9
284.80768 -406.81064 9.9508066 9
289.19812 -406.70557 9.1491728 9
294.72592 -406.29626 9.1892796 9
304.82483 -405.97754 9.4448643 9
306.81277 -405.65924 9.7680922 9
313.53082 -405.6795 9.3187418 9
316.59381 -405.94363 9.1683493 9
318.52722 -405.68622 9.6275988 9
321.61752 -405.49457 9.7109756 9
325.10767 -405.55145 9.6699457 9
125.75244 -404.07394 9.205986 9
129.1599 -404.1933 9.8781309 9
131.27417 -404.1778 9.3625021 9
133.48264 -404.25861 9.5484209 9
139.2027 -404.39731 9.4296904 9
141.13689 -404.42413 9.3568563 9
145.36955 -404.54181 9.5892715 9
147.56741 -404.57095 9.4042187 9
149.59569 -404.61563 9.1756363 9
153.42375 -404.69449 9.0733309 9
155.60069 -404.7489 9.2971468 9
157.3744 -404.78009 9.4763088 9
161.4007 -404.82156 9.3806143 9
163.14491 -404.86786 9.4738359 9
165.50401 -404.9332 9.2831621 9
191.64394 -404.99582 9.897603 9
325.63773 -399.28098 9.6785469 9
327.30966 -397.01715 9.0459194 9
327.60339 -394.99533 9.1924257 9
327.43381 -392.16916 9.7539968 9
329.69791 -392.20123 9.0919533 9
325.7251 -389.01974 9.6878147 9
327.63892 -389.83426 9.577035 9
201.55344 -384.10657 9.3807306 9
203.5112 -384.09503 9.3790436 9
205.11578 -384.06555 9.694397 9
207.30656 -384.10416 9.6395388 9
209.23988 -384.13953 9.721241 9
213.6684 -384.25906 9.4909592 9
215.41579 -384.2742 9.625144 9
219.29138 -384.30988 9.6521626 9
224.87418 -384.38647 9.8216267 9
227.56007 -384.44894 9.6607771 9
229.87665 -384.54056 9.5800829 9
231.0629 -384.59897 9.3246212 9
233.39662 -384.64136 9.4629517 9
235.71037 -384.68536 9.4286757 9
237.32301 -384.6904 9.749445 9
239.70052 -384.81726 9.1748028 9
241.79134 -384.83304 9.5481262 9
243.42073 -384.85754 9.668663 9
245.33357 -384.94028 9.290452 9
247.22716 -384.93762 9.7484627 9
249.48653 -384.96155 9.8308153 9
251.38858 -385.00317 9.8194771 9
253.63496 -385.0694 9.7733364 9
256.22183 -385.13965 9.4236879 9
257.53366 -385.09647 9.9076681 9
259.4458 -385.08539 9.9242048 9
261.62796 -385.0817 9.9108524 9
263.79227 -385.08328 9.8821344 9
265.39291 -385.09369 9.8215542 9
269.64005 -385.11072 9.8419209 9
275.6311 -385.17691 9.9199276 9
279.43332 -385.12759 9.9463139 9
281.49503 -385.09268 9.934021 9
313.87531 -385.42813 9.0522919 9
317.50677 -385.91724 9.9096632 9
319.35355 -386.08273 9.4796276 9
321.41373 -386.81238 9.7509022 9
323.52744 -386.97104 9.2095041 9
125.30449 -383.04828 9.2021723 9
129.64101 -383.09509 9.3057308 9
133.42787 -383.05429 9.7869577 9
138.12169 -383.16879 9.3047037 9
143.32343 -383.38641 9.2351007 9
146.07858 -383.40973 9.2239408 9
150.17717 -383.46619 9.2811213 9
153.67438 -383.56534 9.2238874 9
159.57817 -383.56497 9.3707428 9
179.54887 -383.59952 9.728158 9
181.65691 -383.61728 9.7135143 9
184.83382 -383.6467 9.9382725 9
187.88249 -383.76382 9.3725691 9
191.7417 -383.79688 9.6999035 9
193.74036 -383.79871 9.9711914 9
195.16949 -383.8735 9.7173443 9
197.8123 -383.99579 9.6097345 9
197.72459 -405.04614 10.174981 10
200.71158 -405.20795 10.258666 10
273.58777 -406.94113 10.040635 10
287.22354 -406.59824 10.271032 10
288.47818 -406.4231 10.666933 10
289.47156 -406.21036 10.864264 10
291.18927 -406.26578 10.052955 10
295.77747 -405.54446 10.786206 10
298.47577 -405.17813 10.927953 10
301.33597 -405.30447 10.667727 10
309.12781 -405.1181 10.336892 10
310.9744 -405.09372 10.136617 10
179.98807 -404.95474 10.87384 10
182.67392 -404.92871 10.41487 10
185.18909 -404.91159 10.495642 10
188.24103 -404.97156 10.574177 10
189.5183 -404.9288 10.727609 10
312.94485 -404.87708 10.238088 10
315.16302 -404.67111 10.31508 10
317.80737 -404.48663 10.464455 10
320.29248 -404.50568 10.308644 10
323.18408 -404.36386 10.052921 10
325.42197 -403.18744 10.056402 10
321.57547 -401.83472 10.802122 10
325.78104 -392.32959 10.165172 10
321.60736 -388.06668 10.549651 10
323.50452 -389.92291 10.541475 10
267.67014 -385.05722 10.06234 10
271.05447 -385.10974 10.038898 10
273.47598 -385.13052 10.017536 10
285.51971 -385.17084 10.133107 10
287.2359 -385.2966 10.166183 10
289.05344 -385.33438 10.054236 10
292.13672 -385.75641 10.445168 10
295.49408 -385.79117 10.399149 10
299.80264 -385.89148 10.664276 10
302.65939 -385.87033 10.42235 10
306.07526 -385.93536 10.297008 10
312.7504 -386.11102 10.301679 10
189.24194 -383.71143 10.015343 10
165.77551 -405.10782 11.967114 11
169.6499 -405.17087 11.839782 11
175.47939 -405.06134 11.650902 11
205.75618 -405.48322 11.625817 11
207.77931 -405.85516 11.959916 11
211.05258 -406.01224 11.965625 11
221.36314 -406.2287 11.92378 11
285.92557 -406.33359 11.792537 11
290.46893 -405.33051 11.97583 11
293.22644 -405.39362 11.282903 11
151.43315 -404.8978 11.938154 11
161.89615 -404.97769 11.951999 11
186.92065 -404.76306 11.40191 11
188.48325 -404.61496 11.991936 11
190.15688 -404.62082 11.799561 11
193.13147 -404.76852 11.135526 11
194.11812 -404.59488 11.775942 11
195.73668 -404.66971 11.54103 11
304.12311 -404.90762 11.195016 11
306.45645 -404.28259 11.742818 11
308.31702 -404.13666 11.589928 11
310.32397 -403.81735 11.542837 11
312.27573 -403.62085 11.426491 11
313.92764 -403.62436 11.264536 11
315.27979 -402.94153 11.509974 11
317.0751 -402.85458 11.316694 11
319.10028 -402.88 11.071898 11
318.43396 -400.3472 11.717096 11
318.616 -396.73376 11.967683 11
320.79102 -398.89703 11.243233 11
319.23315 -393.17975 11.810608 11
321.29681 -395.8559 11.17408 11
319.45551 -390.11829 11.506354 11
321.84262 -392.27356 11.138766 11
313.64594 -387.02689 11.785343 11
315.51862 -387.07779 11.225383 11
317.40472 -388.6387 11.753576 11
319.53488 -387.94034 11.237363 11
294.22162 -386.00705 11.83442 11
297.54736 -385.9548 11.146494 11
309.66299 -386.43076 11.418936 11
317.31384 -386.75528 11.247441 11
142.23495 -383.10858 11.407759 11
151.66983 -383.22241 11.344464 11
163.44333 -383.24753 11.84858 11
191.2551 -383.95529 11.977556 11
159.05585 -405.05273 12.448316 12
203.05359 -405.04327 12.155657 12
209.73785 -405.8718 12.242439 12
213.68565 -405.94922 12.285148 12
215.2316 -406.00186 12.249784 12
217.33949 -406.04941 12.144878 12
219.44621 -406.08124 12.361134 12
225.27592 -406.3075 12.622319 12
227.58913 -406.2854 12.217285 12
233.18102 -406.28992 12.343664 12
235.3727 -406.32108 12.259587 12
236.84076 -406.36758 12.340758 12
239.61375 -406.43777 12.131307 12
241.09862 -406.48331 12.578263 12
243.45113 -406.53305 12.99558 12
245.4725 -406.58643 12.55911 12
251.31084 -406.55722 12.997563 12
254.07463 -406.64148 12.216799 12
257.5864 -406.72266 12.516745 12
259.37134 -406.77081 12.342638 12
261.41751 -406.60492 12.321762 12
263.9248 -406.80844 12.402512 12
267.53625 -406.8833 12.468577 12
269.42242 -406.7229 12.506667 12
271.18726 -406.78189 12.399203 12
275.05603 -406.93204 12.656618 12
277.04944 -406.80136 12.412808 12
279.51172 -406.89279 12.302266 12
281.55078 -406.91376 12.315871 12
283.63376 -406.29575 12.483073 12
285.45508 -405.87094 12.920784 12
286.41934 -405.95859 12.613233 12
287.87991 -405.71866 12.18606 12
125.37524 -404.26151 12.265532 12
127.518 -404.32333 12.113928 12
129.44922 -404.38739 12.266548 12
131.31821 -404.43301 12.255666 12
135.34752 -404.53955 12.478672 12
137.24471 -404.61621 12.496434 12
141.43091 -404.7388 12.227244 12
145.36966 -404.7446 12.222433 12
149.22969 -404.83255 12.262352 12
153.34615 -404.98746 12.260446 12
155.68822 -404.85602 12.046082 12
157.43121 -404.92545 12.09983 12
162.94278 -404.91263 12.436845 12
177.86293 -404.73834 12.441297 12
179.50981 -404.81705 12.328885 12
180.93045 -404.70639 12.360483 12
182.30815 -404.55115 12.668715 12
183.85187 -404.52219 12.389863 12
185.49316 -404.46872 12.440077 12
192.01817 -404.28644 12.553892 12
197.13776 -404.39996 12.421897 12
199.24847 -404.58646 12.117849 12
201.08141 -404.67203 12.447087 12
294.80304 -404.78641 12.079825 12
296.16647 -403.98935 12.756178 12
300.32019 -403.90396 12.378264 12
302.04565 -403.89899 12.354887 12
303.4281 -403.2684 12.957157 12
305.43747 -403.29825 12.857111 12
307.54758 -402.84088 12.858688 12
309.61472 -402.41968 12.726269 12
311.67584 -402.09 12.479478 12
313.85233 -402.02731 12.159558 12
314.73306 -400.2869 12.606882 12
316.10468 -400.31616 12.256505 12
316.03583 -396.81537 12.793676 12
317.35037 -398.26968 12.280056 12
316.75491 -394.00232 12.654534 12
316.92325 -390.97617 12.434054 12
312.19601 -387.26126 12.464244 12
314.03271 -387.90576 12.545759 12
315.5202 -388.9668 12.483945 12
193.82825 -384.08572 12.755572 12
195.95177 -384.03363 12.046635 12
199.82483 -384.20895 12.61465 12
217.58955 -384.00931 12.495283 12
219.38708 -384.04858 12.17687 12
221.47473 -384.25027 12.303246 12
223.65155 -384.10938 12.351559 12
227.36893 -384.16632 12.434291 12
228.53352 -384.18024 12.671196 12
231.41075 -384.40616 12.351439 12
233.5162 -384.49164 12.259528 12
235.04242 -384.36707 12.432801 12
237.41936 -384.57874 12.274082 12
239.72997 -384.49371 12.319725 12
241.38789 -384.68295 12.365644 12
243.61638 -384.73529 12.199431 12
245.43767 -384.86676 12.911629 12
247.22061 -384.84219 12.48094 12
249.6218 -384.86038 12.237449 12
251.85275 -384.92883 12.17559 12
253.76534 -384.96136 12.376842 12
267.87451 -385.16254 12.463995 12
269.73413 -385.2739 12.449003 12
273.46283 -385.35004 12.103325 12
275.31781 -385.40714 12.231047 12
277.30624 -385.4494 12.322791 12
279.32574 -385.41574 12.217183 12
283.07706 -385.49783 12.400442 12
285.86218 -385.52124 12.346316 12
289.78162 -385.62454 12.317275 12
296.00339 -386.48181 12.867219 12
301.7518 -386.38605 12.61513 12
304.33835 -386.56738 12.577417 12
125.22594 -382.77649 12.506428 12
127.35818 -382.77673 12.215749 12
129.57054 -382.80734 12.319655 12
133.40695 -382.66443 12.343264 12
137.97879 -382.7973 12.345188 12
143.06133 -383.01016 12.364915 12
146.24994 -383.0293 12.18132 12
149.87306 -383.22864 12.081134 12
153.85597 -383.1644 12.177422 12
155.54118 -383.1723 12.257093 12
159.90933 -383.29071 12.113377 12
167.70895 -383.37109 12.123835 12
172.5639 -383.37778 12.210526 12
175.77547 -383.35684 12.193857 12
179.46237 -383.29276 12.581133 12
181.54117 -383.53848 12.31271 12
183.04733 -383.52478 12.304652 12
185.27884 -383.56235 12.48259 12
187.76311 -383.8848 12.066421 12
201.0847 -383.77304 12.213333 12
203.41414 -383.73181 12.941341 12
205.10667 -383.77914 12.846999 12
207.25223 -383.79782 12.888292 12
209.30569 -383.86334 12.95623 12
211.57608 -383.89743 12.637156 12
214.04152 -383.94351 12.351497 12
205.99486 -405.20584 13.323881 13
207.36711 -405.25128 13.444278 13
247.73788 -406.55203 13.012734 13
249.5036 -406.50946 13.200642 13
273.55185 -406.88486 13.036444 13
279.58765 -406.44846 13.874237 13
286.35471 -405.39984 13.254422 13
179.49071 -404.44424 13.461472 13
182.83884 -404.08124 13.830086 13
186.89622 -403.96283 13.493061 13
189.33949 -403.82117 13.625278 13
194.72691 -403.95502 13.294181 13
196.90697 -403.67694 13.833859 13
198.38199 -403.9364 13.474154 13
202.14172 -404.36328 13.562705 13
203.54321 -404.47998 13.881552 13
204.86783 -404.94885 13.458182 13
287.06659 -404.11108 13.967807 13
289.28897 -404.02084 13.51259 13
291.57135 -403.61063 13.415954 13
293.88501 -403.76083 13.164243 13
298.55313 -403.00424 13.311261 13
304.39133 -402.02725 13.822009 13
306.4971 -401.46802 13.897408 13
308.7356 -400.84924 13.773025 13
310.93658 -400.30594 13.445807 13
313.03061 -400.15729 13.003918 13
312.40839 -397.67102 13.827103 13
314.3476 -397.58435 13.234456 13
313.27859 -395.51328 13.876735 13
314.65155 -394.67877 13.430616 13
312.79617 -390.0459 13.946789 13
314.85187 -391.16888 13.262094 13
303.00327 -387.15009 13.949434 13
307.34576 -387.18149 13.156272 13
310.20972 -387.55701 13.329906 13
311.89032 -388.2355 13.570718 13
313.05127 -388.39856 13.275258 13
314.11075 -389.06567 13.18615 13
201.45135 -384.427 13.804955 13
255.17694 -385.04465 13.238822 13
261.5058 -385.05869 13.197116 13
263.58154 -385.08429 13.013457 13
265.37708 -385.14758 13.241009 13
269.39548 -385.65088 13.919684 13
273.24283 -385.75208 13.660356 13
275.3381 -385.7507 13.566677 13
277.51096 -385.74301 13.958601 13
281.46912 -385.77023 13.559992 13
283.16104 -385.85577 13.61876 13
287.07941 -385.90381 13.481513 13
288.98251 -386.39911 13.672744 13
291.04504 -386.52606 13.428535 13
293.46658 -386.56308 13.274654 13
299.10501 -386.66922 13.167078 13
132.23474 -382.74182 13.502276 13
146.40039 -383.29456 13.804771 13
171.41165 -383.3707 13.08769 13
197.93939 -383.84628 13.064986 13
211.10553 -405.58774 14.090833 14
213.92455 -405.5477 14.390946 14
217.75169 -405.73413 14.319438 14
221.22169 -405.75522 14.389027 14
227.17905 -405.70758 14.531617 14
233.19156 -405.74646 14.280734 14
238.94666 -405.88657 14.355716 14
241.69682 -406.08072 14.006258 14
245.5125 -406.08505 14.386976 14
249.33188 -406.02625 14.449165 14
251.47549 -405.98459 14.505185 14
254.10268 -406.05936 14.285449 14
255.59267 -406.14777 14.078169 14
261.24966 -406.14252 14.169868 14
263.18774 -406.19702 14.085335 14
265.44031 -406.17938 14.164371 14
269.54831 -406.29837 14.031955 14
271.11285 -406.24399 14.328465 14
273.89328 -406.43265 14.000951 14
277.23285 -406.33774 14.212029 14
281.68021 -406.39145 14.005889 14
282.96423 -405.3877 14.416369 14
125.00382 -403.75125 14.128281 14
127.58963 -404.0325 14.093349 14
133.33839 -403.97421 14.347909 14
134.9691 -404.01074 14.355952 14
139.37788 -404.1207 14.443983 14
143.21448 -404.24103 14.218469 14
151.62849 -404.53821 14.250932 14
155.54573 -404.54721 14.084424 14
159.20572 -404.62979 14.150274 14
161.29526 -404.57578 14.492173 14
163.23207 -404.68158 14.281998 14
166.65691 -404.59695 14.688555 14
168.80048 -404.76031 14.351738 14
171.28215 -404.8064 14.356454 14
173.38454 -404.87244 14.149321 14
175.40805 -404.58975 14.431014 14
177.68002 -403.79535 14.848093 14
181.19087 -404.04114 14.134961 14
184.44371 -403.61566 14.359949 14
190.94989 -403.31393 14.386084 14
192.53763 -403.45441 14.162044 14
193.81189 -403.00769 14.777252 14
198.25635 -403.00214 14.732205 14
200.35687 -403.64478 14.113003 14
202.81322 -403.41779 14.956799 14
204.90796 -404.06451 14.946422 14
205.98712 -404.82895 14.238135 14
209.42038 -404.92706 14.542319 14
284.86191 -404.789 14.109755 14
288.51993 -402.30484 14.664849 14
290.11255 -402.77682 14.199429 14
292.91052 -402.28925 14.252275 14
294.75735 -402.26093 14.186007 14
296.63696 -402.20871 14.124287 14
291.00381 -401.09906 14.868914 14
298.12897 -400.59003 14.822477 14
301.67365 -401.05484 14.283675 14
305.12512 -399.84839 14.752564 14
307.63696 -399.14194 14.709552 14
309.93381 -398.49777 14.36407 14
310.71756 -396.38885 14.672282 14
311.93488 -395.32007 14.408346 14
312.51541 -393.09674 14.324785 14
310.57275 -390.09232 14.811695 14
311.60452 -391.27646 14.67602 14
285.44885 -387.00363 14.52782 14
289.26971 -387.39526 14.624149 14
291.07504 -387.7811 14.948251 14
292.37152 -387.14404 14.42408 14
293.50571 -387.69476 14.789634 14
295.0152 -387.68619 14.609248 14
297.35004 -388.0199 14.832518 14
301.28488 -387.18597 14.148124 14
304.96518 -387.85721 14.413295 14
307.03754 -388.61758 14.828873 14
309.10138 -388.56665 14.470389 14
310.96655 -388.73706 14.159628 14
183.77881 -384.38751 14.393814 14
186.18062 -384.2847 14.135972 14
187.84987 -384.29266 14.296129 14
189.76387 -384.36267 14.36797 14
192.73007 -384.58426 14.75231 14
195.50276 -384.61966 14.687024 14
197.85342 -384.48087 14.087267 14
205.29597 -384.70947 14.64624 14
207.50793 -384.17706 14.050197 14
211.81071 -384.38916 14.394299 14
213.84576 -384.4213 14.357249 14
215.88412 -384.46198 14.275223 14
217.79829 -384.47034 14.162693 14
221.27895 -384.55807 14.231038 14
223.60608 -384.56525 14.26805 14
227.68117 -384.62885 14.239559 14
229.10028 -384.69009 14.381273 14
231.64185 -384.69135 14.191585 14
233.44707 -384.76205 14.340161 14
235.36957 -384.81998 14.245009 14
237.29503 -384.86267 14.276131 14
239.19113 -384.9436 14.345309 14
243.63692 -385.04053 14.296928 14
245.47029 -385.0549 14.168585 14
247.4072 -385.13419 14.369798 14
249.60802 -385.1441 14.386944 14
253.5238 -385.20465 14.314804 14
257.6767 -385.13535 14.491247 14
261.37848 -385.1525 14.496527 14
265.32394 -385.2818 14.311593 14
267.41571 -385.54724 14.083673 14
287.6427 -386.90292 14.357305 14
125.17209 -383.02304 14.30569 14
127.84471 -383.03445 14.225498 14
129.55064 -383.08633 14.302453 14
134.83376 -383.16531 14.682096 14
137.7715 -383.01828 14.51869 14
142.97681 -383.33286 14.45321 14
149.92302 -383.40945 14.283051 14
151.56705 -383.36942 14.000896 14
154.10831 -383.47125 14.311292 14
159.69791 -383.51511 14.533677 14
161.50381 -383.47461 14.362774 14
163.46906 -383.52448 14.436724 14
164.76152 -383.53287 14.520546 14
167.41847 -383.58182 14.45519 14
173.20192 -383.79022 14.410057 14
175.77667 -383.80615 14.128407 14
177.63203 -383.64923 14.150553 14
181.56065 -383.76126 14.089498 14
211.60667 -405.07919 15.401971 15
215.3266 -405.24991 15.519698 15
217.54285 -405.21484 15.526627 15
219.91612 -405.3566 15.533896 15
221.67648 -405.46149 15.350272 15
225.57098 -405.36569 15.295929 15
235.66887 -405.06882 15.963048 15
237.52954 -405.2352 15.789424 15
243.47697 -405.55069 15.359372 15
247.45943 -405.64948 15.455462 15
257.46609 -405.23389 15.627995 15
259.51801 -405.29892 15.695516 15
263.56827 -405.16574 15.630196 15
265.4473 -405.10562 15.66659 15
267.61386 -405.20969 15.598907 15
271.42532 -405.27039 15.667577 15
273.49841 -405.40784 15.631872 15
275.30835 -405.49026 15.533372 15
277.28894 -405.61038 15.426304 15
279.49197 -405.16342 15.793792 15
281.5722 -405.45227 15.505029 15
125.35899 -402.85736 15.985232 15
129.40564 -403.42227 15.178946 15
133.51067 -403.47205 15.428925 15
139.48628 -403.69055 15.356688 15
141.64035 -403.68512 15.43285 15
147.53424 -403.91873 15.260201 15
153.34167 -403.93311 15.395064 15
155.25191 -403.97418 15.435841 15
157.3419 -404.0126 15.467529 15
163.20251 -404.12061 15.611364 15
165.32254 -404.21912 15.592411 15
169.07935 -404.34924 15.782049 15
171.09959 -404.3887 15.796509 15
173.45406 -404.40512 15.517362 15
179.57655 -403.52341 15.203396 15
180.8197 -403.14063 15.649028 15
182.39345 -403.2103 15.259524 15
183.50467 -402.76907 15.59172 15
184.47234 -402.25681 15.906933 15
185.89461 -402.93073 15.144337 15
187.55293 -402.74786 15.233839 15
189.49411 -402.4003 15.513952 15
191.96365 -402.08734 15.757417 15
194.31958 -402.05914 15.758964 15
196.02882 -402.71927 15.020411 15
199.82909 -402.05353 15.611115 15
201.40201 -402.45221 15.495287 15
205.80922 -403.33798 15.95371 15
206.88628 -404.21646 15.252128 15
231.37158 -404.89392 15.956317 15
282.88559 -403.76965 15.498848 15
197.97037 -401.5242 15.966526 15
285.43198 -401.97479 15.362801 15
288.37628 -399.71375 15.51149 15
293.52417 -400.5397 15.042624 15
295.70599 -400.42889 15.061139 15
285.99854 -398.86243 15.926339 15
287.77332 -397.57791 15.933014 15
289.52945 -397.23615 15.925497 15
290.5538 -398.72 15.614033 15
292.38657 -398.63385 15.62415 15
294.50827 -398.29037 15.736719 15
296.80121 -398.04602 15.759022 15
299.35733 -397.72961 15.713751 15
301.8284 -396.39496 15.956667 15
304.13153 -397.31702 15.642965 15
306.56982 -397.06036 15.502956 15
308.83234 -396.61798 15.168678 15
307.85648 -394.5098 15.792171 15
310.13733 -394.24622 15.180478 15
296.74261 -390.16327 15.943505 15
305.49802 -390.08502 15.755677 15
308.52277 -391.50729 15.59147 15
310.32983 -391.90118 15.165809 15
283.58133 -388.02866 15.96701 15
285.49161 -389.32489 15.690819 15
287.25562 -389.02649 15.514673 15
289.3045 -389.44012 15.697711 15
291.64578 -389.08682 15.711506 15
292.55945 -388.1427 15.267614 15
293.93311 -389.97302 15.839633 15
295.80121 -388.80551 15.425002 15
298.90866 -389.80347 15.930703 15
299.96841 -388.10629 15.011761 15
