# .PCD v0.7 - Point Cloud Data file format
VERSION 0.7
FIELDS x y z rgba
SIZE 4 4 4 4
TYPE F F F U
COUNT 1 1 1 1
WIDTH 1147
HEIGHT 1
VIEWPOINT 0 0 0 1 0 0 0
POINTS 1147
DATA ascii
429.45938 2758.969 -150.31635 4294967146
433.35489 2759.0403 -150.71175 4294967146
435.5394 2758.7563 -150.13768 4294967146
439.30792 2758.5032 -150.11684 4294967146
443.51721 2758.2134 -150.05234 4294967146
453.07034 2757.9387 -150.39819 4294967146
391.29224 2763.9275 -150.95264 4294967146
347.43448 2766.7581 -150.03241 4294967146
351.28018 2766.7976 -150.37508 4294967146
353.72644 2766.6042 -150.46661 4294967146
355.66953 2766.6814 -150.65613 4294967146
357.47717 2766.5427 -150.68224 4294967146
359.40958 2766.3745 -150.65109 4294967146
361.4115 2766.4214 -150.78786 4294967146
363.4856 2766.4048 -150.91309 4294967146
365.49234 2766.1025 -150.8434 4294967146
555.98621 2704.4988 -149.99184 4294967147
557.93671 2704.5942 -149.92178 4294967147
469.30649 2708.4792 -149.24913 4294967147
485.55606 2708.9846 -149.92815 4294967147
487.15247 2708.8621 -149.70058 4294967147
491.29599 2708.4417 -149.38303 4294967147
493.72025 2708.6973 -149.41872 4294967147
495.211 2708.9338 -149.39471 4294967147
497.63913 2708.7227 -149.99059 4294967147
511.20862 2708.3726 -149.89468 4294967147
517.09717 2708.7668 -149.65781 4294967147
519.28528 2708.7168 -149.60748 4294967147
533.36121 2707.5183 -149.28944 4294967147
541.94775 2706.3723 -149.03967 4294967147
565.47101 2706.8748 -149.97618 4294967147
361.57257 2710.9863 -149.01183 4294967147
363.54654 2711.0864 -149.08185 4294967147
365.40787 2711.4851 -149.18144 4294967147
367.51135 2711.1345 -149.14632 4294967147
369.4559 2711.385 -149.20308 4294967147
371.34534 2711.2703 -149.22873 4294967147
373.51212 2711.8005 -149.38342 4294967147
375.29849 2711.5374 -149.41035 4294967147
377.49658 2710.4719 -149.32504 4294967147
379.34229 2711.9033 -149.61745 4294967147
389.47977 2711.5142 -149.76111 4294967147
409.38748 2709.5142 -149.56148 4294967147
411.30807 2709.9661 -149.71835 4294967147
413.61572 2710.0076 -149.9044 4294967147
415.46198 2709.8843 -149.97557 4294967147
439.74164 2711.0396 -149.99524 4294967147
441.17337 2711.1792 -149.88538 4294967147
443.52704 2711.0378 -149.91946 4294967147
445.48441 2711.3074 -149.82649 4294967147
448.2229 2711.9983 -149.62048 4294967147
453.4332 2711.4333 -149.71675 4294967147
455.31067 2711.4307 -149.59431 4294967147
459.32578 2710.7178 -149.44601 4294967147
463.5733 2710.3628 -149.32219 4294967147
465.6022 2709.0479 -149.66879 4294967147
467.33701 2709.2224 -149.20053 4294967147
475.32144 2709.7004 -149.15182 4294967147
477.64529 2710.583 -149.03302 4294967147
478.7601 2710.7046 -149.34401 4294967147
483.37064 2710.47 -149.26425 4294967147
501.20657 2709.5352 -149.1346 4294967147
504.2579 2709.0437 -149.85013 4294967147
345.35095 2713.5981 -149.06325 4294967147
347.50079 2713.5 -149.03082 4294967147
349.4371 2713.6062 -149.04292 4294967147
351.47122 2713.4241 -149.06277 4294967147
353.49881 2713.7268 -149.18092 4294967147
355.48349 2713.7639 -149.25746 4294967147
357.4996 2713.5601 -149.29974 4294967147
359.39645 2713.8684 -149.32123 4294967147
361.54422 2713.8496 -149.48439 4294967147
363.41641 2714.0823 -149.57147 4294967147
365.53061 2714.0874 -149.45428 4294967147
367.40317 2714.6133 -149.65729 4294967147
369.69333 2714.6104 -149.43947 4294967147
373.45724 2714.5498 -149.44121 4294967147
375.46198 2714.2666 -149.51292 4294967147
377.6022 2714.636 -149.47475 4294967147
379.44696 2713.926 -149.57703 4294967147
381.40799 2714.0286 -149.54979 4294967147
383.33328 2714.1719 -149.52589 4294967147
385.42349 2713.8604 -149.55618 4294967147
387.30112 2713.9026 -149.54288 4294967147
389.79819 2714.0667 -149.66832 4294967147
391.6745 2713.8132 -149.67619 4294967147
395.86545 2713.6104 -149.76112 4294967147
399.42468 2712.2578 -149.98906 4294967147
401.41174 2712.0596 -149.98207 4294967147
403.43634 2713.2437 -149.7569 4294967147
405.52829 2712.7444 -149.88589 4294967147
407.16751 2714.1062 -149.64937 4294967147
409.66046 2712.6074 -149.86357 4294967147
411.62463 2712.7092 -149.92239 4294967147
415.41895 2713.5547 -149.47086 4294967147
419.41629 2712.9895 -149.46964 4294967147
421.32776 2713.3003 -149.25421 4294967147
425.09668 2713.2354 -149.40999 4294967147
427.44418 2713.8005 -149.1049 4294967147
433.36398 2713.2324 -149.26967 4294967147
441.24466 2712.4656 -149.00629 4294967147
345.40002 2716.1206 -149.17955 4294967147
347.46939 2715.877 -149.10022 4294967147
349.50308 2716.0911 -149.09053 4294967147
351.58438 2715.9829 -149.27124 4294967147
353.47827 2716.0586 -149.16425 4294967147
355.40302 2716.2463 -149.22232 4294967147
357.50031 2716.7559 -149.14653 4294967147
359.60428 2716.1089 -149.26852 4294967147
361.55237 2716.2202 -149.36531 4294967147
365.51248 2716.0559 -149.22884 4294967147
369.38297 2716.0244 -149.23477 4294967147
371.51767 2715.9995 -149.21857 4294967147
375.65414 2715.8574 -149.35736 4294967147
379.50684 2715.7297 -149.32364 4294967147
381.50027 2715.3948 -149.25275 4294967147
385.35638 2715.5359 -149.13004 4294967147
387.46362 2715.2317 -149.15411 4294967147
389.29578 2715.3997 -149.01402 4294967147
393.54037 2715.1418 -149.1227 4294967147
397.70856 2715.1208 -149.21257 4294967147
401.44962 2715.2388 -149.18155 4294967147
409.39307 2715.3208 -149.02519 4294967147
559.89081 2750.6506 -149.87799 4294967147
562.07642 2750.3748 -149.98859 4294967147
492.91129 2753.8096 -149.82014 4294967147
501.55234 2753.2468 -149.82115 4294967147
507.2218 2752.5435 -149.93266 4294967147
513.06879 2752.0828 -149.74113 4294967147
517.25946 2751.7834 -149.7674 4294967147
519.20703 2751.7214 -149.49712 4294967147
523.31067 2751.5454 -149.31082 4294967147
525.36957 2751.4063 -149.58 4294967147
459.51007 2756.6899 -149.94514 4294967147
415.6882 2759.8621 -149.17439 4294967147
431.7377 2758.7588 -149.66237 4294967147
441.2384 2758.2625 -149.88196 4294967147
447.20184 2758.1262 -149.77403 4294967147
449.69525 2758.1296 -149.89941 4294967147
455.4559 2757.1172 -149.90982 4294967147
387.28976 2762.969 -149.33987 4294967147
391.22751 2762.5864 -149.30713 4294967147
393.32025 2762.4324 -149.23935 4294967147
397.73846 2762.0776 -149.55846 4294967147
399.18073 2761.9253 -149.70564 4294967147
401.55844 2761.8169 -149.88638 4294967147
403.39587 2761.499 -149.61394 4294967147
407.26721 2761.0322 -149.96718 4294967147
408.97888 2760.957 -149.8774 4294967147
351.44415 2765.7817 -149.0623 4294967147
353.3259 2765.6948 -149.2411 4294967147
355.60458 2765.5471 -149.2262 4294967147
357.47229 2765.3477 -149.07141 4294967147
359.70364 2765.3179 -149.31612 4294967147
361.20633 2765.1704 -149.19418 4294967147
363.07755 2764.9053 -149.30753 4294967147
365.87225 2764.7017 -149.35291 4294967147
369.44449 2764.4722 -149.37518 4294967147
371.55103 2764.3967 -149.22873 4294967147
373.37784 2764.1697 -149.42799 4294967147
376.72437 2763.738 -149.06396 4294967147
381.71259 2763.3477 -149.3437 4294967147
383.40994 2763.2075 -149.30847 4294967147
385.36725 2763.0596 -149.30492 4294967147
345.36942 2766.2119 -149.01962 4294967147
349.30243 2766.4363 -149.77162 4294967147
545.64032 2705.8533 -148.75729 4294967148
549.69055 2705.2266 -148.31197 4294967148
555.82074 2704.759 -148.10231 4294967148
559.31665 2705.282 -148.09798 4294967148
561.48236 2705.4126 -148.65198 4294967148
507.16351 2708.9409 -148.93787 4294967148
527.03455 2708.1223 -148.88913 4294967148
531.07281 2707.7495 -148.84123 4294967148
534.86511 2707.2986 -148.33296 4294967148
537.6665 2706.9426 -148.79047 4294967148
563.58582 2706.7625 -148.70468 4294967148
359.6452 2710.9097 -148.95158 4294967148
460.34213 2711.4932 -148.20044 4294967148
471.54138 2709.4194 -148.01987 4294967148
473.08194 2709.5608 -148.17087 4294967148
474.87305 2709.9885 -148.41606 4294967148
481.36859 2711.2668 -148.48738 4294967148
483.3251 2711.0793 -148.03352 4294967148
489.4408 2709.1777 -148.47224 4294967148
491.39191 2709.3037 -148.13048 4294967148
497.29858 2709.6838 -148.44841 4294967148
563.93011 2709.5178 -148.05495 4294967148
415.51974 2714.908 -148.7861 4294967148
419.70612 2714.4363 -148.49983 4294967148
423.34915 2714.3113 -148.39114 4294967148
437.32745 2713.1101 -148.9104 4294967148
439.01593 2712.9485 -148.69759 4294967148
443.49289 2712.3921 -148.97864 4294967148
449.31821 2712.7681 -148.88072 4294967148
451.72754 2712.5557 -148.89375 4294967148
347.45816 2717.9089 -148.96945 4294967148
353.41971 2717.8293 -148.79271 4294967148
355.66818 2717.6592 -148.89539 4294967148
357.43124 2717.8418 -148.83041 4294967148
359.61569 2717.6245 -148.83693 4294967148
361.70361 2717.2939 -148.83672 4294967148
363.54831 2717.1667 -148.84222 4294967148
365.37466 2717.1226 -148.80713 4294967148
367.48663 2717.1064 -148.78166 4294967148
369.39243 2717.2637 -148.61911 4294967148
371.54742 2717.0808 -148.68179 4294967148
373.42261 2717.0569 -148.64304 4294967148
375.36273 2717.1743 -148.50662 4294967148
377.31247 2716.8423 -148.64999 4294967148
379.48401 2716.8586 -148.56534 4294967148
381.33081 2716.9724 -148.37894 4294967148
383.37051 2717.0635 -148.12436 4294967148
387.4653 2716.5583 -148.42223 4294967148
393.82217 2716.5891 -148.02007 4294967148
399.46219 2716.3779 -148.02559 4294967148
403.32837 2715.3701 -148.86224 4294967148
405.59338 2715.5576 -148.91977 4294967148
411.48032 2715.4009 -148.84738 4294967148
413.48911 2715.1001 -148.89584 4294967148
417.40448 2715.1296 -148.05994 4294967148
345.24347 2719.1189 -148.32642 4294967148
353.39111 2718.8918 -148.15266 4294967148
357.61246 2718.8342 -148.19293 4294967148
547.45599 2750.9487 -148.94933 4294967148
549.31891 2750.8721 -148.81148 4294967148
551.38647 2750.8025 -148.75945 4294967148
553.7807 2750.812 -148.36234 4294967148
565.52472 2749.3193 -148.78456 4294967148
497.26532 2753.3738 -148.06268 4294967148
527.07007 2751.4844 -148.92926 4294967148
529.11133 2751.4651 -148.9158 4294967148
531.28015 2751.4167 -148.86409 4294967148
459.34622 2756.2632 -148.07532 4294967148
461.53403 2756.1794 -148.19856 4294967148
463.457 2755.9907 -148.01601 4294967148
465.52026 2755.6416 -148.15721 4294967148
467.14023 2755.4861 -148.08984 4294967148
471.29886 2755.1116 -148.38992 4294967148
473.10742 2754.9937 -148.06436 4294967148
421.5036 2759.5784 -148.9136 4294967148
423.1879 2759.416 -148.91026 4294967148
425.3576 2759.1978 -148.85419 4294967148
427.34641 2759.0356 -148.9937 4294967148
429.40564 2758.8848 -148.6087 4294967148
433.2114 2758.6904 -148.89879 4294967148
435.6991 2758.4353 -148.11848 4294967148
437.4313 2758.2825 -148.05087 4294967148
439.48724 2757.9575 -148.17747 4294967148
441.46463 2757.7822 -148.1683 4294967148
451.51962 2757.4216 -148.01317 4294967148
381.8078 2762.9753 -148.11978 4294967148
383.95825 2762.8733 -148.47055 4294967148
385.39203 2762.6299 -148.1252 4294967148
389.17041 2762.1902 -148.01956 4294967148
399.07913 2761.2925 -148.06337 4294967148
401.1973 2761.1143 -148.10378 4294967148
403.41418 2761.084 -148.10068 4294967148
405.62885 2760.7595 -148.18918 4294967148
408.90527 2760.605 -148.08125 4294967148
411.13425 2760.2244 -148.08846 4294967148
413.22656 2760.0405 -148.88301 4294967148
345.58215 2765.6416 -148.15137 4294967148
359.44846 2764.8452 -148.04517 4294967148
552.00922 2704.8445 -147.93114 4294967149
553.85284 2704.8918 -147.56779 4294967149
511.38168 2708.6963 -147.90317 4294967149
513.05377 2708.6521 -147.19832 4294967149
461.73871 2711.6118 -147.99634 4294967149
463.39801 2711.5037 -147.7337 4294967149
465.58685 2711.0334 -147.61279 4294967149
469.49255 2709.5938 -147.93565 4294967149
477.54944 2711.2751 -147.52663 4294967149
485.8461 2710.3872 -147.91701 4294967149
487.51883 2709.9529 -147.80161 4294967149
495.11331 2709.9033 -147.32831 4294967149
501.49295 2710.0098 -147.98425 4294967149
502.9585 2709.7627 -147.91821 4294967149
505.02994 2709.5415 -147.37567 4294967149
433.28723 2714.6711 -147.48407 4294967149
437.55435 2714.0034 -147.41367 4294967149
440.92322 2713.6379 -147.09807 4294967149
443.81412 2713.2102 -147.78835 4294967149
445.32193 2713.2568 -147.763 4294967149
447.55093 2713.4475 -147.54106 4294967149
449.58395 2713.7034 -147.51857 4294967149
453.36514 2712.8792 -147.8765 4294967149
457.24713 2712.0996 -147.75243 4294967149
377.04889 2717.9675 -147.21584 4294967149
379.76273 2717.8628 -147.54042 4294967149
381.38376 2717.7866 -147.2672 4294967149
385.21741 2717.7043 -147.14589 4294967149
387.28445 2717.6492 -147.09656 4294967149
389.22266 2717.1003 -147.76587 4294967149
391.65692 2717.1658 -147.61838 4294967149
397.4494 2716.6716 -147.72464 4294967149
401.49338 2716.5498 -147.70955 4294967149
405.56174 2716.5784 -147.21449 4294967149
407.09119 2716.5361 -147.1545 4294967149
409.55185 2716.4536 -147.57542 4294967149
415.36948 2715.8835 -147.29987 4294967149
419.38391 2715.5229 -147.05118 4294967149
423.76886 2715.0437 -147.3856 4294967149
427.49405 2715.1599 -147.28293 4294967149
347.5097 2719.8799 -147.30377 4294967149
349.5032 2719.1992 -147.90585 4294967149
351.51712 2719.4312 -147.63533 4294967149
355.42377 2719.1726 -147.97194 4294967149
359.43848 2719.1045 -147.74617 4294967149
363.4534 2718.6575 -147.69322 4294967149
365.6091 2718.4299 -147.72601 4294967149
367.26685 2718.3113 -147.6795 4294967149
369.53488 2718.4351 -147.14871 4294967149
371.62048 2718.2874 -147.13741 4294967149
373.44177 2718.082 -147.36487 4294967149
556.01691 2750.8484 -147.99469 4294967149
558.2265 2750.7998 -147.78275 4294967149
560.18817 2750.4939 -147.72169 4294967149
561.93878 2750.1145 -147.85728 4294967149
493.17584 2753.4648 -147.97873 4294967149
499.23822 2753.2688 -147.68861 4294967149
501.3017 2753.301 -147.11319 4294967149
505.21182 2752.9951 -147.44525 4294967149
507.6459 2752.7268 -147.78593 4294967149
509.08792 2752.6733 -147.18715 4294967149
513.4566 2752.3594 -147.46767 4294967149
515.51813 2752.2568 -147.30338 4294967149
525.27136 2751.8879 -147.02773 4294967149
455.20963 2756.9241 -147.80011 4294967149
475.23059 2754.998 -147.78824 4294967149
477.78964 2754.8496 -147.98216 4294967149
479.27536 2754.7109 -147.99017 4294967149
481.34787 2754.5605 -147.79832 4294967149
485.15143 2754.1467 -147.91632 4294967149
445.36865 2757.5464 -147.98653 4294967149
447.12515 2757.5054 -147.77394 4294967149
453.01559 2757.2725 -147.65675 4294967149
387.11166 2762.4736 -147.8075 4294967149
391.33908 2762.0237 -147.96049 4294967149
395.40054 2761.668 -147.80975 4294967149
349.54904 2765.3496 -147.98479 4294967149
353.24594 2765.1646 -147.84729 4294967149
355.32846 2765.0493 -147.952 4294967149
363.11871 2764.5449 -147.91319 4294967149
365.24509 2764.3262 -147.79163 4294967149
368.83801 2763.8599 -147.73981 4294967149
373.51227 2763.5244 -147.80809 4294967149
380.04572 2763.0903 -147.97681 4294967149
545.26617 2705.7651 -146.16585 4294967150
553.65308 2705.1926 -146.09108 4294967150
557.70758 2705.7156 -146.44084 4294967150
531.55493 2707.5723 -146.74609 4294967150
539.5285 2706.6082 -146.96848 4294967150
541.67053 2706.2917 -146.38312 4294967150
543.67957 2706.0283 -146.8676 4294967150
559.45551 2706.0781 -146.92552 4294967150
561.31879 2707.6809 -146.9454 4294967150
475.00507 2711.083 -146.02621 4294967150
476.15402 2711.269 -146.864 4294967150
483.05624 2711.7236 -146.02826 4294967150
561.67676 2709.6777 -146.43852 4294967150
437.46115 2714.6101 -146.04648 4294967150
451.4136 2713.9531 -146.02408 4294967150
453.26599 2713.5818 -146.00284 4294967150
455.20349 2713.1028 -146.13388 4294967150
457.81238 2712.6335 -146.12903 4294967150
397.54807 2717.4182 -146.24437 4294967150
401.71893 2717.1858 -146.14412 4294967150
403.31992 2717.1394 -146.04494 4294967150
405.75854 2716.9236 -146.25575 4294967150
420.77139 2715.5176 -146.7556 4294967150
429.39322 2715.5886 -146.16292 4294967150
431.38214 2715.3337 -146.44096 4294967150
345.34882 2720.4189 -146.53918 4294967150
347.58295 2720.4854 -146.07538 4294967150
351.73596 2720.2827 -146.18573 4294967150
355.76721 2719.9395 -146.90326 4294967150
357.43698 2719.905 -146.75966 4294967150
361.44644 2719.6455 -146.19727 4294967150
363.49966 2719.4246 -146.01759 4294967150
365.48715 2719.126 -146.10013 4294967150
367.064 2718.9539 -146.08992 4294967150
369.69382 2718.6785 -146.1434 4294967150
373.4599 2718.4177 -146.3051 4294967150
375.64325 2718.3374 -146.21983 4294967150
377.39749 2718.2568 -146.27898 4294967150
379.41479 2718.2815 -146.06326 4294967150
381.97498 2718.147 -146.28287 4294967150
383.58136 2718.1523 -146.2365 4294967150
385.47757 2718.1682 -146.04337 4294967150
559.75757 2750.2625 -146.00601 4294967150
519.05511 2752.1523 -146.79063 4294967150
521.46893 2752.021 -146.99704 4294967150
526.99786 2751.8857 -146.78877 4294967150
549.75482 2751.1101 -146.50879 4294967150
551.50427 2751.1011 -146.22237 4294967150
380.2551 2762.938 -146.21649 4294967150
385.41516 2762.4399 -146.03882 4294967150
361.04767 2764.3232 -146.08272 4294967150
369.61157 2763.6184 -146.03442 4294967150
549.9837 2705.2131 -145.82889 4294967151
511.57507 2708.7832 -145.12888 4294967151
557.53009 2706.5007 -145.39349 4294967151
467.94507 2711.229 -145.70969 4294967151
469.6138 2710.8474 -145.70207 4294967151
471.56552 2710.6819 -145.68375 4294967151
477.51376 2711.9944 -145.23213 4294967151
485.55484 2710.9751 -145.14386 4294967151
487.43173 2710.5796 -145.71927 4294967151
491.56134 2710.1975 -145.83339 4294967151
495.09036 2710.4622 -145.31451 4294967151
497.39963 2710.345 -145.91606 4294967151
499.17679 2710.4915 -145.94383 4294967151
507.4747 2709.311 -145.53381 4294967151
559.75519 2709.6614 -145.01617 4294967151
435.27084 2714.9739 -145.89761 4294967151
439.70746 2714.3589 -145.79044 4294967151
442.95599 2714.0947 -145.48082 4294967151
445.48798 2713.9128 -145.96678 4294967151
447.49503 2713.9727 -145.72861 4294967151
449.52737 2714.1497 -145.92131 4294967151
463.85684 2712.2776 -145.53859 4294967151
479.41232 2712.135 -145.89926 4294967151
481.00488 2712.0928 -145.58324 4294967151
394.59079 2717.9609 -145.5994 4294967151
407.47531 2716.9348 -145.91692 4294967151
413.46295 2716.7822 -145.88693 4294967151
415.19711 2716.7122 -145.53232 4294967151
417.49564 2716.3855 -145.89799 4294967151
425.08609 2715.7588 -146 4294967150
353.14459 2720.3694 -145.94591 4294967151
359.19452 2720.0444 -145.8118 4294967151
371.37567 2718.6187 -145.92809 4294967151
389.42477 2718.0769 -145.89777 4294967151
555.95477 2750.9194 -145.73328 4294967151
496.17468 2753.6899 -145.6134 4294967151
503.6254 2753.4023 -145.00696 4294967151
513.91089 2752.541 -145.0444 4294967151
517.67474 2752.4038 -145.12651 4294967151
529.43036 2752.1792 -145.05167 4294967151
531.14557 2752.1284 -145.0424 4294967151
553.99084 2751.0444 -145.97211 4294967151
457.82407 2756.7817 -145.36618 4294967151
461.38962 2756.3315 -145.63568 4294967151
463.39285 2756.1785 -145.37433 4294967151
467.34955 2755.8577 -145.43056 4294967151
469.54666 2755.6965 -145.36664 4294967151
473.3743 2755.4448 -145.17355 4294967151
475.4306 2755.3257 -145.01276 4294967151
479.43051 2755.0264 -145.10014 4294967151
481.6572 2754.8552 -145.10843 4294967151
483.49036 2754.707 -145.1124 4294967151
427.39413 2759.1101 -145.61949 4294967151
429.64606 2758.9666 -145.68521 4294967151
431.38449 2758.8792 -145.58067 4294967151
433.22479 2758.75 -145.61026 4294967151
435.25418 2758.5532 -145.70903 4294967151
437.40958 2758.4041 -145.15108 4294967151
439.46692 2758.1692 -145.48708 4294967151
443.79993 2757.7336 -145.6635 4294967151
451.61288 2757.4663 -145.11813 4294967151
453.4873 2757.311 -145.29768 4294967151
455.32077 2757.0967 -145.36342 4294967151
382.0744 2762.688 -145.72748 4294967151
383.26898 2762.6123 -145.99278 4294967151
387.24896 2762.1323 -145.72728 4294967151
391.35043 2761.762 -145.7784 4294967151
393.10071 2761.6411 -145.68913 4294967151
394.88568 2761.5068 -145.487 4294967151
399.32529 2761.2 -145.68828 4294967151
401.26331 2761.1147 -145.37337 4294967151
403.57468 2760.9636 -145.38039 4294967151
407.55267 2760.7019 -145.57788 4294967151
411.33136 2760.3562 -145.7739 4294967151
415.07806 2760.0178 -145.93787 4294967151
345.07559 2765.3301 -145.99051 4294967151
347.69775 2765.1775 -145.95486 4294967151
351.24448 2764.8906 -145.98969 4294967151
355.17929 2764.6772 -145.88359 4294967151
357.10519 2764.6904 -145.8414 4294967151
365.32657 2763.97 -145.66412 4294967151
367.84543 2763.9165 -145.89841 4294967151
371.29471 2763.6074 -145.92439 4294967151
375.52167 2763.1509 -145.62183 4294967151
377.09744 2763.0313 -145.93304 4294967151
545.79156 2705.7693 -144.50529 4294967152
547.7619 2705.7549 -144.09373 4294967152
539.67841 2706.4336 -144.37674 4294967152
555.49902 2706.1582 -144.58643 4294967152
557.76886 2707.6606 -144.58789 4294967152
509.0661 2709.1157 -144.66617 4294967152
421.81564 2716.3579 -144.25839 4294967152
353.37845 2720.915 -144.35754 4294967152
359.44754 2720.468 -144.21297 4294967152
361.34369 2720.2375 -144.1347 4294967152
363.49216 2719.769 -144.21683 4294967152
369.70984 2719.0745 -144.12729 4294967152
389.49976 2718.6128 -144.19098 4294967152
391.3461 2718.4849 -144.3885 4294967152
349.26956 2721.01 -144.08986 4294967152
557.73242 2750.2634 -144.50044 4294967152
561.28168 2749.3721 -144.84357 4294967152
511.46628 2752.7073 -144.71777 4294967152
523.38385 2752.2952 -144.96346 4294967152
525.48645 2752.2415 -144.99336 4294967152
527.53247 2752.2634 -144.74864 4294967152
533.33087 2752.1235 -144.66824 4294967152
537.5191 2751.9429 -144.85954 4294967152
541.46008 2751.7795 -144.68225 4294967152
543.48651 2751.6584 -144.61761 4294967152
545.77325 2751.5205 -144.46053 4294967152
547.83655 2751.4827 -144.09238 4294967152
551.91943 2751.1692 -144.00301 4294967152
413.23846 2760.3398 -144.75801 4294967152
543.88934 2705.9614 -143.6749 4294967153
550.19391 2705.7358 -143.97791 4294967153
512.01001 2708.9717 -143.18486 4294967153
553.43329 2706.1716 -143.94539 4294967153
555.65576 2707.6433 -143.4393 4294967153
471.39667 2711.3818 -143.53377 4294967153
473.46344 2711.4651 -143.4967 4294967153
481.56522 2711.9316 -143.21547 4294967153
483.26343 2711.636 -143.15851 4294967153
486.66623 2710.9399 -143.91197 4294967153
489.62015 2710.6367 -143.46614 4294967153
501.97644 2710.2017 -143.28778 4294967153
505.31796 2709.8154 -143.46431 4294967153
557.61877 2709.5662 -143.61893 4294967153
439.63855 2714.7175 -143.17001 4294967153
441.49503 2714.501 -143.23386 4294967153
445.60785 2714.2109 -143.25978 4294967153
447.56927 2714.283 -143.98392 4294967153
449.3692 2714.2346 -143.30243 4294967153
453.56216 2713.6533 -143.31435 4294967153
455.46707 2713.2671 -143.44542 4294967153
457.6524 2712.9465 -143.42036 4294967153
459.58093 2712.8582 -143.22466 4294967153
465.45282 2712.4983 -143.33182 4294967153
467.52936 2712.1624 -143.04703 4294967153
557.87787 2713.1865 -143.56958 4294967153
401.60959 2717.761 -143.69025 4294967153
403.44116 2717.6489 -143.96597 4294967153
405.56729 2717.5049 -143.57828 4294967153
407.86374 2717.3833 -143.79231 4294967153
409.436 2717.3167 -143.72284 4294967153
411.31955 2717.252 -143.71056 4294967153
413.63596 2717.1367 -143.78661 4294967153
415.52124 2716.988 -143.64838 4294967153
419.43597 2716.6165 -143.51788 4294967153
425.11426 2716.1597 -143.90628 4294967153
427.7655 2716.0696 -143.70912 4294967153
429.3942 2715.9641 -143.25893 4294967153
437.17447 2715.041 -143.41209 4294967153
355.51303 2720.8608 -143.90678 4294967153
365.38074 2719.6714 -143.91451 4294967153
367.22012 2719.3477 -143.98366 4294967153
371.5173 2718.968 -143.87712 4294967153
373.3511 2718.8503 -143.80208 4294967153
375.72476 2718.7087 -143.95454 4294967153
379.42505 2718.7183 -143.81277 4294967153
383.24384 2718.6555 -143.67766 4294967153
387.18231 2718.6841 -143.80533 4294967153
393.13135 2718.4102 -143.85278 4294967153
394.90613 2718.2715 -143.60576 4294967153
398.27341 2718.0029 -143.67374 4294967153
345.59271 2721.251 -143.87148 4294967153
347.41129 2721.1462 -143.65508 4294967153
559.51471 2749.136 -143.63103 4294967153
459.48676 2756.8311 -143.0761 4294967153
477.64359 2755.3533 -143.02937 4294967153
484.88632 2754.761 -143.2654 4294967153
429.5939 2759.2849 -143.00024 4294967153
455.43652 2757.3057 -143.14909 4294967153
383.42007 2762.9351 -143.08534 4294967153
387.05481 2762.5029 -143.12454 4294967153
389.26425 2762.2659 -143.05708 4294967153
395.22437 2761.7546 -143.1637 4294967153
397.23688 2761.5906 -143.26465 4294967153
398.99292 2761.4709 -143.12563 4294967153
401.23749 2761.322 -143.06387 4294967153
405.5545 2761.0466 -143.18871 4294967153
407.55762 2760.9375 -143.07401 4294967153
411.47729 2760.6531 -143.14256 4294967153
345.1933 2765.5742 -143.61426 4294967153
347.66995 2765.4265 -143.54988 4294967153
349.46725 2765.2896 -143.50916 4294967153
351.62747 2765.1897 -143.10056 4294967153
353.22781 2765.0908 -143.11334 4294967153
357.4444 2764.8843 -143.10306 4294967153
361.26996 2764.6416 -143.11473 4294967153
365.70309 2764.2439 -143.17416 4294967153
367.55353 2764.0894 -143.09422 4294967153
369.5856 2763.929 -143.0204 4294967153
371.23099 2763.7925 -143.02719 4294967153
375.82901 2763.4153 -143.13274 4294967153
379.24677 2763.2537 -143.01259 4294967153
381.57361 2763.0979 -143.05971 4294967153
537.25043 2706.5532 -142.02483 4294967154
540.14124 2706.2756 -142.17331 4294967154
541.57758 2706.2129 -142.03886 4294967154
545.76105 2706.302 -142.1765 4294967154
549.7276 2706.8203 -142.13153 4294967154
551.58789 2706.8777 -142.26901 4294967154
495.09161 2710.6355 -142.95792 4294967154
507.17157 2709.603 -142.82396 4294967154
508.58902 2709.3818 -142.8522 4294967154
555.66644 2709.1978 -142.68437 4294967154
443.15781 2714.3081 -142.9196 4294967154
463.63632 2712.7861 -142.73502 4294967154
477.49915 2712.0479 -142.92917 4294967154
499.33417 2753.8586 -142.94275 4294967154
507.77158 2753.1741 -142.97247 4294967154
513.44885 2752.8357 -142.37785 4294967154
515.81116 2752.7012 -142.91418 4294967154
521.2085 2752.6602 -142.80965 4294967154
525.31177 2752.646 -142.78168 4294967154
529.56049 2752.6738 -142.45418 4294967154
535.57343 2752.3345 -142.76643 4294967154
537.56879 2752.3318 -142.19577 4294967154
471.33966 2755.8601 -142.82742 4294967154
475.31195 2755.5457 -142.81654 4294967154
481.15833 2755.1238 -142.88123 4294967154
431.29712 2759.1521 -142.92445 4294967154
435.02924 2758.8374 -142.85481 4294967154
439.1954 2758.4458 -142.85229 4294967154
452.97418 2757.543 -142.66809 4294967154
457.32803 2757.1414 -142.84039 4294967154
392.95255 2761.9541 -142.98888 4294967154
403.39532 2761.2202 -142.83289 4294967154
359.23047 2764.8125 -142.76848 4294967154
363.4816 2764.4678 -142.98593 4294967154
373.08789 2763.6462 -142.92188 4294967154
516.09741 2708.8306 -141.02235 4294967155
553.33893 2708.0471 -141.9086 4294967155
481.70865 2711.8604 -141.33377 4294967155
512.36908 2709.0779 -141.78482 4294967155
553.63116 2709.7263 -141.53674 4294967155
437.57684 2714.9963 -141.12865 4294967155
449.44614 2714.2053 -141.47336 4294967155
455.50537 2713.3853 -141.05945 4294967155
457.77411 2713.1418 -141.03119 4294967155
467.8826 2712.5396 -141.08897 4294967155
405.7652 2717.4878 -141.1627 4294967155
415.76917 2716.9392 -141.44926 4294967155
419.46307 2716.5083 -141.08989 4294967155
423.8797 2716.2214 -141.95866 4294967155
425.29788 2716.1133 -141.04906 4294967155
429.55826 2716.0032 -141.00244 4294967155
355.63815 2720.8596 -141.8029 4294967155
357.34094 2720.675 -141.25864 4294967155
363.56778 2719.8352 -141.06854 4294967155
365.6066 2719.5618 -141.21011 4294967155
367.29947 2719.3728 -141.07623 4294967155
369.57486 2719.156 -141.00789 4294967155
373.38828 2718.9058 -141.16989 4294967155
385.20258 2718.7031 -141.3246 4294967155
389.37793 2718.5903 -141.09766 4294967155
391.1846 2718.4912 -141.28175 4294967155
393.61374 2718.3586 -141.54131 4294967155
345.36032 2721.2991 -141.07242 4294967155
346.93945 2721.2302 -141.4104 4294967155
349.41876 2721.1292 -141.27307 4294967155
503.47464 2753.7837 -141.18713 4294967155
520.08496 2752.908 -141.09186 4294967155
541.49121 2752.188 -141.90697 4294967155
545.50122 2751.7678 -141.52783 4294967155
548.27478 2751.5642 -141.78656 4294967155
479.41888 2755.4131 -141.11494 4294967155
435.49448 2758.9395 -141.15228 4294967155
391.23441 2762.2898 -141.1171 4294967155
397.26895 2761.7991 -141.22365 4294967155
410.00522 2760.9805 -141.01279 4294967155
369.26443 2764.1013 -141.0359 4294967155
371.63531 2763.874 -141.28906 4294967155
381.57236 2763.3052 -141.04955 4294967155
531.89075 2707.0974 -140.41922 4294967156
533.69153 2706.866 -140.05299 4294967156
540.12427 2706.3884 -140.76398 4294967156
543.56604 2706.7544 -140.32127 4294967156
545.44196 2706.8821 -140.68904 4294967156
547.37073 2707.9111 -140.07809 4294967156
549.44666 2708.344 -140.48158 4294967156
485.31671 2711.3625 -140.99776 4294967156
493.45508 2710.8298 -140.91138 4294967156
507.43417 2709.6838 -140.99019 4294967156
508.99826 2709.4963 -140.89885 4294967156
512.68011 2709.1458 -140.62096 4294967156
551.71405 2710.1382 -140.40912 4294967156
441.62924 2714.5146 -140.99986 4294967156
446.88354 2714.2139 -140.63022 4294967156
452.84717 2713.8208 -140.94919 4294967156
461.19321 2713.0735 -140.96545 4294967156
464.72653 2712.9377 -140.69852 4294967156
469.67456 2712.3452 -140.7892 4294967156
403.06497 2717.6445 -140.93558 4294967156
409.32523 2717.3435 -140.97255 4294967156
413.64691 2717.0588 -140.99695 4294967156
421.19757 2716.3137 -140.80998 4294967156
431.4198 2715.8359 -140.99275 4294967156
433.64664 2715.6096 -140.90425 4294967156
351.59756 2721.0469 -140.86055 4294967156
517.47803 2752.9817 -140.73692 4294967156
521.51764 2752.9751 -140.62263 4294967156
523.37811 2752.9937 -140.53853 4294967156
525.46735 2752.9956 -140.63727 4294967156
527.62946 2753.043 -140.42642 4294967156
531.53607 2752.9617 -140.11336 4294967156
534.25159 2752.7329 -140.61208 4294967156
463.52075 2756.6621 -140.94437 4294967156
467.38046 2756.3921 -140.80934 4294967156
473.27875 2755.9209 -140.79799 4294967156
477.23898 2755.5991 -140.93381 4294967156
481.3797 2755.3066 -140.9166 4294967156
483.55969 2755.1563 -140.86765 4294967156
491.78757 2754.5322 -140.90819 4294967156
496.18082 2754.2883 -140.97397 4294967156
499.31503 2754.0818 -140.96591 4294967156
429.57965 2759.47 -140.87852 4294967156
433.16861 2759.1819 -140.86485 4294967156
437.44196 2758.8101 -140.84354 4294967156
453.04041 2757.7095 -140.75989 4294967156
459.38367 2757.1294 -140.91412 4294967156
385.27457 2762.9421 -140.90601 4294967156
394.82462 2762.0374 -140.93633 4294967156
401.75058 2761.5315 -140.92725 4294967156
405.39981 2761.3145 -140.74158 4294967156
345.56781 2765.9216 -140.73566 4294967156
347.74396 2765.7483 -140.87997 4294967156
355.62265 2765.1763 -140.91751 4294967156
359.10608 2764.9695 -140.89549 4294967156
365.62164 2764.4238 -140.92194 4294967156
367.97144 2764.2229 -140.9006 4294967156
373.30426 2763.7839 -140.86136 4294967156
375.83801 2763.5962 -140.99091 4294967156
377.39975 2763.5171 -140.9734 4294967156
379.40134 2763.4558 -140.82938 4294967156
537.77429 2706.6633 -139.77907 4294967157
545.55231 2708.1638 -139.02515 4294967157
549.61609 2710.0352 -139.57739 4294967157
445.64587 2714.3071 -139.01375 4294967157
463.59003 2713.0737 -139.12755 4294967157
551.47528 2712.4939 -139.98996 4294967157
411.86533 2717.0862 -139.07242 4294967157
417.53503 2716.6184 -139.08745 4294967157
421.40637 2716.2605 -139.04968 4294967157
425.75049 2715.9556 -139.10811 4294967157
391.28168 2718.4895 -139.05363 4294967157
393.43756 2718.3416 -139.04601 4294967157
397.66 2718.0195 -139.17943 4294967157
512.79041 2753.2029 -139.95323 4294967157
535.79144 2752.7463 -139.97891 4294967157
537.76263 2752.4536 -139.82579 4294967157
539.71576 2752.3152 -139.67165 4294967157
543.43329 2751.856 -139.62109 4294967157
545.69147 2751.5105 -139.65758 4294967157
375.89081 2763.7964 -139.03006 4294967157
345.83447 2766.1597 -139.01979 4294967157
517.83136 2708.5046 -138.81659 4294967158
519.23126 2708.1719 -138.10422 4294967158
527.76068 2707.3169 -138.05443 4294967158
533.58887 2707.1323 -138.08006 4294967158
538.91199 2707.052 -138.44766 4294967158
541.43091 2707.1814 -138.60019 4294967158
479.43176 2711.9773 -138.70964 4294967158
505.34195 2710.0437 -138.69417 4294967158
509.35693 2709.5544 -138.64708 4294967158
513.271 2709.1138 -138.34708 4294967158
547.45813 2709.9465 -138.65094 4294967158
441.49222 2714.6077 -138.62492 4294967158
443.01758 2714.4458 -138.69852 4294967158
451.82202 2713.9338 -138.78232 4294967158
455.67471 2713.469 -138.9507 4294967158
457.79449 2713.2715 -138.89632 4294967158
461.43604 2713.1096 -138.58533 4294967158
467.22754 2712.8433 -138.73123 4294967158
469.30045 2712.6641 -138.82829 4294967158
473.59506 2712.4131 -138.69884 4294967158
547.71423 2712.0466 -138.14034 4294967158
401.4881 2717.7456 -138.63435 4294967158
405.61746 2717.5222 -138.76831 4294967158
409.39328 2717.252 -138.82117 4294967158
423.08331 2716.0908 -138.54015 4294967158
433.10132 2715.6064 -138.75597 4294967158
435.12289 2715.2629 -138.70822 4294967158
438.16711 2715.0095 -138.60214 4294967158
373.38995 2719.1123 -138.91563 4294967158
387.10324 2718.6873 -138.87877 4294967158
345.33908 2721.2813 -138.72408 4294967158
505.47775 2753.916 -138.65231 4294967158
509.88165 2753.5969 -138.44086 4294967158
517.07019 2753.5063 -138.041 4294967158
519.65802 2753.4438 -138.0864 4294967158
521.94031 2753.3513 -138.2973 4294967158
464.04984 2756.9111 -138.7645 4294967158
468.9274 2756.543 -138.66927 4294967158
473.60999 2756.1196 -138.72505 4294967158
475.74692 2755.9495 -138.82701 4294967158
479.08444 2755.7549 -138.72711 4294967158
491.4231 2754.834 -138.79843 4294967158
495.46866 2754.593 -138.53503 4294967158
497.2012 2754.47 -138.72609 4294967158
499.39786 2754.3865 -138.66278 4294967158
502.22842 2754.2117 -138.95787 4294967158
503.15369 2754.1663 -138.51344 4294967158
427.57193 2759.885 -138.63718 4294967158
431.42111 2759.5378 -138.84979 4294967158
433.27844 2759.4109 -138.74722 4294967158
435.66101 2759.1794 -138.82816 4294967158
439.44104 2758.9036 -138.8671 4294967158
455.46182 2757.7881 -138.74425 4294967158
457.6076 2757.5945 -138.85248 4294967158
387.29211 2762.9336 -138.86104 4294967158
395.33664 2762.2498 -138.78638 4294967158
396.70154 2762.1304 -138.88618 4294967158
407.89383 2761.3242 -138.96144 4294967158
351.75739 2765.7112 -138.90367 4294967158
355.15652 2765.5068 -138.62924 4294967158
357.85605 2765.2673 -138.83952 4294967158
361.53442 2764.9761 -138.85594 4294967158
363.35867 2764.8032 -138.98499 4294967158
365.62036 2764.6147 -138.8558 4294967158
369.50226 2764.2983 -138.80896 4294967158
371.28772 2764.1411 -138.91191 4294967158
379.38681 2763.6824 -138.69821 4294967158
381.39319 2763.5645 -138.83955 4294967158
383.46924 2763.3799 -138.80562 4294967158
529.61517 2707.2534 -137.73207 4294967159
531.09619 2707.3564 -137.51984 4294967159
510.75717 2709.3713 -137.59988 4294967159
545.59027 2709.9712 -137.74962 4294967159
470.54581 2712.7014 -137.20647 4294967159
473.97659 2712.4487 -137.22713 4294967159
545.85504 2712.0825 -137.13144 4294967159
511.43182 2753.6401 -137.8455 4294967159
515.54187 2753.5793 -137.79935 4294967159
523.40741 2753.4182 -137.83144 4294967159
525.9585 2753.4282 -137.88239 4294967159
527.71454 2753.2546 -137.78737 4294967159
531.73065 2752.938 -137.58479 4294967159
533.82813 2752.7432 -137.75897 4294967159
537.51337 2752.2769 -137.95262 4294967159
539.98859 2751.812 -137.53964 4294967159
543.34558 2751.3984 -137.96411 4294967159
527.53333 2707.6289 -136.04248 4294967160
533.73181 2707.7471 -136.18568 4294967160
535.54486 2707.3831 -136.63708 4294967160
537.68597 2707.606 -136.92085 4294967160
539.26825 2708.1575 -136.62877 4294967160
479.52164 2711.9526 -136.7695 4294967160
481.17691 2711.7454 -136.80008 4294967160
501.57693 2710.2458 -136.37082 4294967160
507.23236 2709.7244 -136.49022 4294967160
543.57684 2711.8269 -136.24817 4294967160
438.72174 2714.9282 -136.35538 4294967160
441.7063 2714.6477 -136.86607 4294967160
457.09729 2713.4365 -136.19048 4294967160
461.6387 2713.1172 -136.87996 4294967160
463.49091 2713.0344 -136.64929 4294967160
465.32587 2712.9341 -136.69336 4294967160
467.44226 2712.8481 -136.65872 4294967160
475.31177 2712.4285 -136.56853 4294967160
401.60645 2717.7283 -136.68422 4294967160
403.00778 2717.6377 -136.65536 4294967160
405.85684 2717.4399 -136.67943 4294967160
413.17783 2716.7393 -136.59877 4294967160
417.43744 2716.4167 -136.79968 4294967160
419.61545 2716.1963 -136.96457 4294967160
421.3215 2716.1636 -136.64864 4294967160
425.17242 2715.8906 -136.08485 4294967160
429.49161 2715.666 -136.81613 4294967160
434.87085 2715.2615 -136.65569 4294967160
357.05237 2720.6963 -136.6526 4294967160
365.58249 2719.917 -136.70479 4294967160
369.5134 2719.6013 -136.73724 4294967160
371.2757 2719.4775 -136.83481 4294967160
385.37341 2718.7227 -136.87534 4294967160
389.45499 2718.5107 -136.83203 4294967160
391.49823 2718.3906 -136.71777 4294967160
395.17065 2718.1311 -136.45305 4294967160
397.15186 2718.0227 -136.73347 4294967160
345.27689 2721.303 -136.6636 4294967160
347.36948 2721.2083 -136.58206 4294967160
545.08978 2750.0574 -136.79079 4294967160
534.3194 2752.2307 -136.20364 4294967160
537.17767 2751.8076 -136.58414 4294967160
467.60815 2756.8601 -136.72523 4294967160
469.39163 2756.7349 -136.72444 4294967160
471.12817 2756.6201 -136.51443 4294967160
474.03525 2756.4187 -136.27924 4294967160
475.75891 2756.3271 -136.10298 4294967160
479.13272 2756.1147 -136.16835 4294967160
481.66589 2755.9482 -136.15941 4294967160
489.55435 2755.4412 -136.16656 4294967160
491.6239 2755.3445 -136.02576 4294967160
497.46313 2754.9548 -136.01639 4294967160
429.63406 2759.9573 -136.64966 4294967160
433.25363 2759.675 -136.63028 4294967160
435.20795 2759.5415 -136.40384 4294967160
439.12057 2759.1873 -136.63557 4294967160
451.28061 2758.2231 -136.86192 4294967160
453.47131 2758.1379 -136.78944 4294967160
455.68109 2758.0566 -136.44182 4294967160
457.59616 2757.9253 -136.33702 4294967160
459.63797 2757.7039 -136.40929 4294967160
461.57666 2757.4912 -136.36003 4294967160
463.64856 2757.2417 -136.44316 4294967160
465.49271 2757.0173 -136.8221 4294967160
393.52567 2762.686 -136.75398 4294967160
409.38501 2761.5176 -136.54897 4294967160
411.43439 2761.342 -136.69833 4294967160
413.80319 2761.1316 -136.85141 4294967160
425.5127 2760.2549 -136.71136 4294967160
353.50827 2765.8828 -136.67995 4294967160
355.45016 2765.7385 -136.88399 4294967160
357.34598 2765.5898 -136.51933 4294967160
358.75699 2765.4312 -136.82878 4294967160
363.2171 2765.0732 -136.70441 4294967160
365.66544 2764.8506 -136.69553 4294967160
369.11789 2764.5625 -136.67567 4294967160
373.59122 2764.2273 -136.67407 4294967160
375.5408 2764.085 -136.69992 4294967160
377.31171 2764.0034 -136.93787 4294967160
379.0376 2763.9424 -136.76949 4294967160
381.62817 2763.7639 -136.95085 4294967160
383.45786 2763.6326 -136.49675 4294967160
385.45355 2763.4275 -136.70097 4294967160
344.95441 2766.5552 -136.65025 4294967160
347.29758 2766.3391 -136.87451 4294967160
349.46936 2766.197 -136.77515 4294967160
351.66986 2766.0271 -136.73369 4294967160
515.7168 2708.6702 -135.59938 4294967161
517.65796 2708.5017 -135.75452 4294967161
519.22198 2708.2134 -135.76324 4294967161
521.41309 2707.7224 -135.75932 4294967161
523.75861 2707.5664 -135.95602 4294967161
531.31671 2707.8911 -135.82884 4294967161
535.40698 2708.7466 -135.08136 4294967161
505.71506 2709.8748 -135.75844 4294967161
513.43994 2709.0156 -135.82375 4294967161
539.48071 2709.9744 -135.30632 4294967161
541.40179 2709.9722 -135.84645 4294967161
543.7489 2747.9197 -135.36891 4294967161
539.11578 2750.6685 -135.59312 4294967161
541.55298 2749.4568 -135.39642 4294967161
543.51178 2749.3779 -135.88071 4294967161
511.66647 2753.9131 -135.01544 4294967161
513.46649 2753.8867 -135.01485 4294967161
517.47241 2753.6396 -135.13547 4294967161
519.60773 2753.48 -135.30887 4294967161
521.88287 2753.3948 -135.64941 4294967161
525.54681 2753.0605 -135.69269 4294967161
529.5448 2752.7976 -135.81345 4294967161
531.62463 2752.3271 -135.42963 4294967161
477.63666 2756.251 -135.84137 4294967161
483.55035 2755.842 -135.91008 4294967161
485.72296 2755.6765 -135.97147 4294967161
493.86359 2755.2207 -135.86975 4294967161
499.43204 2754.8872 -135.79311 4294967161
500.85983 2754.8435 -135.61557 4294967161
503.28897 2754.5706 -135.91121 4294967161
505.45453 2754.5354 -135.82922 4294967161
531.43237 2708.8167 -134.39125 4294967162
533.3703 2708.8257 -134.61552 4294967162
506.32617 2710.1323 -134.17706 4294967162
537.51227 2710.0593 -134.50284 4294967162
539.81616 2711.3152 -134.76576 4294967162
441.66843 2714.5813 -134.56453 4294967162
443.39398 2714.4639 -134.29646 4294967162
457.23425 2713.4309 -134.04169 4294967162
459.50882 2713.1963 -134.38365 4294967162
461.46811 2713.0784 -134.04166 4294967162
465.53467 2712.7969 -134.59038 4294967162
469.83075 2712.614 -134.18861 4294967162
539.68518 2714.3838 -134.36896 4294967162
397.0773 2717.8796 -134.37607 4294967162
399.21848 2717.6953 -134.03093 4294967162
401.98889 2717.6003 -134.54271 4294967162
405.79202 2717.2686 -134.25029 4294967162
409.59616 2716.9021 -134.37086 4294967162
415.46448 2716.3347 -134.53487 4294967162
417.58163 2716.1826 -134.29785 4294967162
419.28763 2716.0771 -134.14902 4294967162
421.49323 2715.991 -134.265 4294967162
355.28387 2720.843 -134.2858 4294967162
361.70709 2720.4375 -134.47302 4294967162
367.35159 2720.0237 -134.09808 4294967162
371.44547 2719.7458 -134.10399 4294967162
373.43417 2719.5979 -134.02132 4294967162
375.41214 2719.4495 -134.19633 4294967162
379.64157 2719.1733 -134.61156 4294967162
381.42795 2719.0684 -134.43462 4294967162
383.45694 2718.8999 -134.41006 4294967162
385.34558 2718.7178 -134.45174 4294967162
387.31421 2718.5425 -134.32753 4294967162
393.81595 2718.0803 -134.12866 4294967162
395.44357 2718.0032 -134.40604 4294967162
345.52942 2721.2876 -134.34811 4294967162
349.41296 2721.0952 -134.09062 4294967162
539.74823 2747.8123 -134.34265 4294967162
541.44403 2746.8696 -134.56494 4294967162
535.67114 2750.373 -134.52914 4294967162
537.63666 2748.918 -134.26175 4294967162
538.79443 2749.5996 -134.8342 4294967162
515.69275 2753.7339 -134.77039 4294967162
523.78217 2752.7104 -134.49463 4294967162
527.53113 2752.4861 -134.64075 4294967162
533.48499 2751.3987 -134.65364 4294967162
507.42209 2754.4246 -134.66652 4294967162
509.62201 2754.0212 -134.95255 4294967162
407.61081 2761.9709 -134.08328 4294967162
413.39017 2761.5928 -134.24783 4294967162
415.53928 2761.4397 -134.12614 4294967162
417.78488 2761.1924 -134.33083 4294967162
421.33255 2760.9302 -134.24255 4294967162
423.23502 2760.8242 -134.05675 4294967162
425.1597 2760.7004 -134.07996 4294967162
363.35468 2765.3933 -134.1947 4294967162
369.1441 2764.8794 -134.11241 4294967162
373.56808 2764.5518 -134.19591 4294967162
375.40482 2764.4404 -134.11102 4294967162
376.9101 2764.3457 -134.24281 4294967162
379.42624 2764.2539 -134.21571 4294967162
381.22351 2764.1611 -134.11424 4294967162
385.40891 2763.7837 -134.04187 4294967162
393.79837 2763.0068 -134.29959 4294967162
349.49139 2766.6055 -134.20282 4294967162
353.32309 2766.2957 -134.16924 4294967162
517.21033 2708.9434 -133.55957 4294967163
519.66144 2708.561 -133.85002 4294967163
521.13922 2708.5129 -133.71887 4294967163
525.22058 2708.5142 -133.79611 4294967163
529.75311 2708.9885 -133.96837 4294967163
479.42938 2711.8569 -133.71225 4294967163
483.58432 2711.4714 -133.89352 4294967163
501.33914 2710.4578 -133.61879 4294967163
503.17587 2710.4133 -133.70784 4294967163
507.33072 2710.0103 -133.8912 4294967163
509.64722 2709.6897 -133.71582 4294967163
513.67926 2709.4043 -133.53526 4294967163
533.59265 2710.2695 -133.47218 4294967163
535.18427 2711.7671 -133.29018 4294967163
537.39429 2711.9287 -133.85202 4294967163
437.36597 2714.8252 -133.49838 4294967163
439.68561 2714.8047 -133.49379 4294967163
451.47742 2713.9578 -133.85013 4294967163
463.62717 2712.9119 -133.77803 4294967163
467.09732 2712.6931 -133.86115 4294967163
471.40067 2712.5583 -133.38687 4294967163
475.17816 2712.3257 -133.87935 4294967163
476.90671 2712.1528 -133.68317 4294967163
535.71967 2714.0437 -133.19951 4294967163
537.63489 2714.175 -133.7426 4294967163
407.42468 2717.1147 -133.94968 4294967163
411.09579 2716.6492 -133.76778 4294967163
423.32822 2715.8777 -133.9752 4294967163
424.99939 2715.7871 -133.15802 4294967163
434.95422 2715.0305 -133.88599 4294967163
358.98877 2720.6284 -133.82961 4294967163
389.39053 2718.3467 -133.88281 4294967163
537.25171 2745.7019 -133.5089 4294967163
539.73511 2745.7439 -133.97978 4294967163
533.47424 2748.8237 -133.34064 4294967163
535.81628 2748.0146 -133.58864 4294967163
509.49222 2753.9983 -133.83868 4294967163
511.49261 2753.8364 -133.61237 4294967163
513.62024 2753.9141 -133.5589 4294967163
515.47754 2753.7573 -133.43675 4294967163
517.77142 2753.4954 -133.8362 4294967163
519.39935 2753.1738 -133.85094 4294967163
525.36273 2751.5552 -133.10614 4294967163
529.5011 2751.3108 -133.5835 4294967163
531.3595 2751.1797 -133.92696 4294967163
489.43362 2755.4954 -133.37189 4294967163
491.70593 2755.3567 -133.60191 4294967163
495.2326 2754.9827 -133.48531 4294967163
497.1958 2754.8254 -133.65703 4294967163
499.59781 2754.6501 -133.78334 4294967163
503.2059 2754.4753 -133.6515 4294967163
435.50021 2759.8701 -133.69896 4294967163
439.59647 2759.5007 -133.64738 4294967163
441.56912 2759.364 -133.67494 4294967163
443.36789 2759.3586 -133.67296 4294967163
447.40271 2758.9897 -133.66748 4294967163
449.21579 2758.7349 -133.62956 4294967163
453.54562 2758.5234 -133.71886 4294967163
455.20685 2758.3975 -133.48013 4294967163
459.48071 2758.2498 -133.66663 4294967163
463.68469 2757.772 -133.03362 4294967163
465.26505 2757.6172 -133.03458 4294967163
467.74603 2757.1726 -133.13182 4294967163
471.45764 2757.0896 -133.17899 4294967163
401.70724 2762.4351 -133.97542 4294967163
405.40118 2762.1953 -133.70474 4294967163
409.37967 2761.8772 -133.94603 4294967163
411.54352 2761.7605 -133.89052 4294967163
427.54639 2760.5105 -133.90259 4294967163
429.72702 2760.3179 -133.79582 4294967163
431.87524 2760.1436 -133.96503 4294967163
433.65497 2760.1492 -133.99907 4294967163
357.56821 2765.906 -133.94846 4294967163
359.03827 2765.8093 -133.77359 4294967163
361.73575 2765.5659 -133.93776 4294967163
365.59775 2765.2439 -133.86964 4294967163
371.26996 2764.7778 -133.76997 4294967163
389.43201 2763.4055 -133.88797 4294967163
347.38892 2766.821 -133.8916 4294967163
505.81534 2710.761 -132.08188 4294967164
509.80945 2710.0881 -132.87318 4294967164
511.05188 2710.0212 -132.44652 4294967164
514.18707 2709.6638 -132.63193 4294967164
515.53241 2709.6421 -132.241 4294967164
517.29413 2709.5557 -132.11893 4294967164
519.3421 2709.4233 -132.31277 4294967164
521.2132 2709.3445 -132.42603 4294967164
523.43536 2709.5105 -132.36047 4294967164
525.28442 2709.8853 -132.21124 4294967164
527.48706 2709.9849 -132.65392 4294967164
529.73462 2711.8662 -132.07516 4294967164
531.42633 2710.4014 -132.98387 4294967164
442.87845 2714.7842 -132.10184 4294967164
444.62381 2714.5498 -132.8241 4294967164
455.27188 2713.8809 -132.29372 4294967164
465.51508 2713.1025 -132.06364 4294967164
531.7218 2713.927 -132.21898 4294967164
533.57709 2714.0476 -132.65623 4294967164
399.16342 2717.917 -132.00476 4294967164
401.11951 2717.9458 -132.05966 4294967164
421.30426 2716.2483 -132.05257 4294967164
363.72031 2720.4905 -132.31528 4294967164
396.88052 2718.0493 -132.10777 4294967164
345.4783 2721.7305 -132.0033 4294967164
529.7099 2747.9011 -132.36389 4294967164
525.50281 2750.0938 -132.29845 4294967164
527.10907 2750.0164 -132.52907 4294967164
531.43701 2748.6384 -132.71484 4294967164
507.51447 2753.7058 -132.52292 4294967164
519.04602 2752.5828 -132.46416 4294967164
521.44421 2751.7542 -132.53439 4294967164
475.52457 2756.5459 -132.34386 4294967164
477.89395 2756.3579 -132.29349 4294967164
481.69138 2756.0928 -132.82552 4294967164
483.73624 2755.9294 -132.98274 4294967164
485.46457 2755.7722 -132.88144 4294967164
493.7868 2754.8105 -132.15332 4294967164
495.05499 2754.6587 -132.29453 4294967164
497.35318 2754.4958 -132.53477 4294967164
499.27405 2754.364 -132.52568 4294967164
