# .PCD v0.7 - Point Cloud Data file format
VERSION 0.7
FIELDS x y z rgba
SIZE 4 4 4 4
TYPE F F F U
COUNT 1 1 1 1
WIDTH 1148
HEIGHT 1
VIEWPOINT 0 0 0 1 0 0 0
POINTS 1148
DATA ascii
299.38129 2708.1365 -691.82336 4294966605
301.45102 2708.1045 -691.80328 4294966605
303.53915 2708.1626 -691.75739 4294966605
305.41159 2708.1917 -691.70404 4294966605
307.44113 2708.1035 -691.64752 4294966605
309.37515 2708.2258 -691.57861 4294966605
313.4339 2708.3384 -691.45923 4294966605
315.45148 2708.2502 -691.44037 4294966605
317.46017 2708.353 -691.41113 4294966605
319.29276 2708.2332 -691.39679 4294966605
225.47089 2710.8184 -691.43915 4294966605
227.33276 2711.9297 -691.87799 4294966605
229.41582 2709.762 -691.20923 4294966605
233.33916 2709.8789 -691.41718 4294966605
235.39206 2709.7346 -691.37469 4294966605
237.50067 2709.8708 -691.6214 4294966605
239.29898 2709.6155 -691.57642 4294966605
241.41037 2709.7563 -691.79657 4294966605
243.30292 2709.8328 -691.75696 4294966605
263.44797 2710.2734 -691.97198 4294966605
265.31842 2710.1709 -691.8692 4294966605
269.32538 2710.0205 -691.73914 4294966605
291.44156 2710.3579 -691.79962 4294966605
293.52652 2710.3711 -691.80328 4294966605
297.45959 2710.625 -691.73566 4294966605
299.40967 2710.6807 -691.70789 4294966605
195.56447 2714.6816 -691.02521 4294966605
197.50856 2714.8396 -691.23901 4294966605
199.37753 2714.9363 -691.46741 4294966605
203.54077 2712.1536 -691.20331 4294966605
205.63417 2712.5251 -691.43561 4294966605
209.45448 2712.73 -691.4776 4294966605
213.19952 2713.3057 -691.88666 4294966605
217.34991 2713.1846 -691.78534 4294966605
219.34657 2712.821 -691.75873 4294966605
221.28606 2712.0574 -691.66699 4294966605
229.44173 2712.1023 -691.90369 4294966605
231.30402 2712.0688 -691.88373 4294966605
233.32932 2712.2205 -691.87958 4294966605
235.32286 2712.1851 -691.87939 4294966605
237.43021 2712.2349 -691.91766 4294966605
239.18373 2712.2302 -691.96313 4294966605
195.41278 2716.6262 -691.21564 4294966605
197.38567 2717.699 -691.63336 4294966605
199.36789 2717.9377 -691.71075 4294966605
201.46114 2715.0442 -691.95178 4294966605
193.4404 2720.5188 -691.07074 4294966605
195.41843 2720.6958 -691.46094 4294966605
197.30949 2718.5391 -691.37469 4294966605
199.3844 2718.6895 -691.71106 4294966605
201.30533 2719.0942 -691.92151 4294966605
195.5607 2722.7405 -691.55426 4294966605
197.58849 2722.6536 -691.72565 4294966605
199.3186 2721.6868 -691.73743 4294966605
201.47038 2721.1616 -691.97742 4294966605
307.37589 2730.8584 -691.39087 4294966605
309.43649 2732.9897 -691.36542 4294966605
313.43164 2732.9534 -691.21912 4294966605
317.41217 2732.928 -691.09314 4294966605
303.60077 2735.1326 -691.68292 4294966605
305.35431 2735.083 -691.63715 4294966605
307.44849 2735.1094 -691.55835 4294966605
309.52798 2735.0559 -691.46881 4294966605
311.55597 2735.0725 -691.39545 4294966605
313.34055 2735.0645 -691.33563 4294966605
315.58994 2735.3623 -691.29639 4294966605
317.3941 2735.2935 -691.24756 4294966605
319.59827 2735.457 -691.21515 4294966605
321.54825 2735.4312 -691.18359 4294966605
331.57147 2735.6321 -691.01141 4294966605
333.74924 2735.7039 -691.01666 4294966605
335.60245 2735.7446 -691.00873 4294966605
301.298 2737.6416 -691.99982 4294966605
305.53372 2737.8391 -691.89532 4294966605
307.47043 2737.936 -691.69824 4294966605
309.56097 2737.8733 -691.7597 4294966605
311.5162 2738.0723 -691.55933 4294966605
313.56778 2737.9517 -691.46515 4294966605
315.56879 2738.0649 -691.3822 4294966605
317.48956 2738.001 -691.32715 4294966605
319.54037 2737.9973 -691.25946 4294966605
321.47403 2738.0173 -691.21002 4294966605
323.57254 2737.928 -691.16382 4294966605
325.58142 2738.0017 -691.08807 4294966605
327.50568 2738.0928 -691.04932 4294966605
329.67523 2738.7051 -691.02069 4294966605
289.64426 2741.8633 -691.98315 4294966605
291.3681 2741.8313 -691.75012 4294966605
293.59476 2741.8521 -691.66547 4294966605
295.3465 2741.7144 -691.5849 4294966605
299.44135 2741.3291 -691.37836 4294966605
301.55429 2740.623 -691.45062 4294966605
303.4805 2739.7986 -691.62341 4294966605
305.57288 2739.9084 -691.49274 4294966605
307.25378 2739.8992 -691.41675 4294966605
309.54095 2740.0332 -691.3125 4294966605
313.59293 2739.9966 -691.11969 4294966605
315.4473 2739.9917 -691.05072 4294966605
273.45374 2744.8677 -691.35004 4294966605
275.47244 2744.7747 -691.27344 4294966605
277.30954 2744.7229 -691.16223 4294966605
279.49524 2744.2817 -691.34631 4294966605
147.51599 2747.6985 -691.08807 4294966605
151.43671 2747.9214 -691.4942 4294966605
153.34845 2746.4475 -691.45355 4294966605
159.38849 2745.4714 -691.86316 4294966605
161.6302 2745.395 -691.9408 4294966605
239.50102 2747.9192 -691.20215 4294966605
241.42529 2747.2075 -691.89789 4294966605
243.22945 2747.6311 -691.23108 4294966605
245.48799 2746.9958 -691.79803 4294966605
247.42485 2746.8677 -691.69159 4294966605
249.3344 2746.6606 -691.7923 4294966605
253.56026 2746.6001 -691.63293 4294966605
257.36874 2746.689 -691.19489 4294966605
259.48459 2746.5566 -691.20984 4294966605
261.34106 2746.4202 -691.26331 4294966605
263.43204 2746.2805 -691.16681 4294966605
265.33871 2746.0957 -691.16241 4294966605
269.31738 2745.3259 -691.46472 4294966605
137.49486 2750.6372 -691.04395 4294966605
139.30237 2750.6809 -691.17517 4294966605
141.45029 2750.6482 -691.29889 4294966605
143.5256 2750.7883 -691.1626 4294966605
145.68538 2750.6763 -691.26825 4294966605
151.34393 2750.5962 -691.54626 4294966605
155.52995 2750.2168 -691.91718 4294966605
187.45143 2750.9653 -691.59338 4294966605
189.48964 2750.9243 -691.52539 4294966605
191.42265 2750.6995 -691.73602 4294966605
193.54747 2750.7661 -691.61389 4294966605
195.41849 2750.5967 -691.78033 4294966605
199.33031 2750.7668 -691.23022 4294966605
203.51117 2750.5037 -691.21387 4294966605
205.19336 2750.3706 -691.32037 4294966605
207.51059 2750.2517 -691.29761 4294966605
209.51447 2750.0881 -691.36798 4294966605
211.45071 2749.9712 -691.2948 4294966605
219.36266 2748.718 -691.6839 4294966605
221.33969 2748.6895 -691.59271 4294966605
223.41037 2748.52 -691.73053 4294966605
227.39725 2748.4558 -691.63354 4294966605
231.47011 2748.501 -691.17737 4294966605
233.31956 2748.3997 -691.22992 4294966605
235.41666 2748.2673 -691.23706 4294966605
143.80492 2752.1689 -691.06799 4294966605
147.43602 2752.0703 -691.32642 4294966605
151.47711 2751.9976 -691.50671 4294966605
153.51859 2752.3071 -691.52032 4294966605
155.57407 2751.8484 -691.72284 4294966605
157.51541 2751.9858 -691.664 4294966605
159.54376 2751.4214 -691.72168 4294966605
161.54895 2751.283 -691.74097 4294966605
163.45358 2751.196 -691.67712 4294966605
167.50418 2751.0623 -691.68353 4294966605
171.50644 2752.2463 -691.23163 4294966605
173.23305 2752.0342 -691.68805 4294966605
175.4332 2752.0259 -691.85492 4294966605
177.269 2751.9973 -691.90063 4294966605
179.44669 2751.8706 -691.90558 4294966605
183.51077 2751.1719 -691.78784 4294966605
185.42001 2751.1184 -691.63214 4294966605
305.46106 2702.7231 -690.32312 4294966606
309.4418 2702.5918 -690.26758 4294966606
313.40112 2702.418 -690.29083 4294966606
315.47607 2702.4919 -690.3717 4294966606
319.41251 2702.3916 -690.4057 4294966606
321.41129 2702.3174 -690.40717 4294966606
325.32031 2702.342 -690.43042 4294966606
327.54062 2702.2874 -690.39612 4294966606
329.3721 2702.0364 -690.29498 4294966606
331.20386 2702.0137 -690.2699 4294966606
333.45114 2701.9358 -690.23193 4294966606
339.31107 2702.9182 -690.74237 4294966606
341.59387 2701.6555 -690.21088 4294966606
343.41095 2701.5967 -690.37842 4294966606
265.4686 2705.1445 -690.2879 4294966606
267.35764 2705.8269 -690.85107 4294966606
269.52887 2704.2446 -690.15662 4294966606
275.40448 2705.0544 -690.66327 4294966606
277.47787 2704.3035 -690.41486 4294966606
281.42227 2704.4392 -690.47345 4294966606
283.47571 2704.3796 -690.50775 4294966606
285.47662 2704.335 -690.55231 4294966606
287.42715 2704.251 -690.57831 4294966606
291.439 2704.501 -690.81372 4294966606
293.39584 2704.5291 -690.83606 4294966606
295.39752 2704.4556 -690.80957 4294966606
297.35019 2704.4548 -690.83057 4294966606
301.58807 2703.9663 -690.84277 4294966606
305.43146 2703.7949 -690.91388 4294966606
307.31403 2703.7068 -690.86328 4294966606
309.42142 2703.6882 -690.88489 4294966606
313.3989 2703.532 -690.9046 4294966606
315.47504 2703.582 -690.92743 4294966606
317.3114 2703.4148 -690.90204 4294966606
319.47641 2703.5652 -690.95789 4294966606
321.40762 2703.5164 -690.94775 4294966606
323.29211 2703.5801 -690.96271 4294966606
325.51761 2703.5452 -690.91852 4294966606
327.42383 2703.5652 -690.91046 4294966606
329.48083 2703.5852 -690.86426 4294966606
331.53772 2703.5874 -690.84644 4294966606
335.34787 2703.4617 -690.90747 4294966606
337.2175 2703.4915 -690.87994 4294966606
341.44385 2703.615 -690.77698 4294966606
343.29514 2703.4836 -690.75568 4294966606
223.4227 2708.2019 -690.16833 4294966606
225.51131 2708.3066 -690.18719 4294966606
227.41055 2708.3147 -690.30255 4294966606
229.38666 2708.0134 -690.26074 4294966606
231.29736 2708.2957 -690.48987 4294966606
233.43869 2708.0156 -690.51038 4294966606
235.33589 2707.8691 -690.59576 4294966606
237.38152 2707.7949 -690.77228 4294966606
239.35136 2706.4968 -690.04962 4294966606
241.43834 2706.4558 -690.2088 4294966606
243.35803 2706.2983 -690.20093 4294966606
245.36641 2706.333 -690.28943 4294966606
247.39665 2706.3152 -690.37256 4294966606
249.54982 2706.323 -690.5047 4294966606
251.38095 2706.301 -690.57483 4294966606
253.40463 2706.1567 -690.59186 4294966606
257.47238 2706.4424 -690.93292 4294966606
261.60306 2706.3884 -690.93842 4294966606
263.35895 2706.0686 -690.8222 4294966606
195.41542 2711.9863 -690.3233 4294966606
205.16464 2710.075 -690.10809 4294966606
207.59917 2710.2979 -690.40277 4294966606
209.31847 2710.3945 -690.51874 4294966606
213.33565 2710.5469 -690.61139 4294966606
215.34363 2710.6948 -690.61853 4294966606
217.36963 2710.0911 -690.70599 4294966606
219.13663 2709.8743 -690.74567 4294966606
221.33363 2709.8057 -690.90546 4294966606
185.4874 2713.7063 -690.09314 4294966606
187.35359 2713.5642 -690.17865 4294966606
189.29973 2713.5999 -690.43091 4294966606
191.31189 2714.0391 -690.56354 4294966606
197.45355 2712.0054 -690.48376 4294966606
199.24213 2712.292 -690.763 4294966606
201.36746 2712.1304 -690.94965 4294966606
177.32683 2716.5793 -690.04724 4294966606
181.27406 2716.2158 -690.18378 4294966606
183.42342 2716.0381 -690.24292 4294966606
185.41737 2716.1829 -690.2998 4294966606
187.53003 2716.251 -690.36249 4294966606
189.29248 2716.3508 -690.4469 4294966606
193.19118 2716.3127 -690.84949 4294966606
179.48161 2718.7971 -690.14587 4294966606
181.28838 2718.7236 -690.15503 4294966606
185.41731 2718.6462 -690.22711 4294966606
187.55679 2718.7715 -690.32953 4294966606
189.55653 2720.811 -690.55383 4294966606
191.32933 2718.7146 -690.68243 4294966606
193.41785 2718.8459 -690.97101 4294966606
337.59872 2735.8857 -690.88867 4294966606
339.51675 2735.8962 -690.87134 4294966606
331.8233 2738.6667 -690.89136 4294966606
333.72986 2738.1602 -690.71753 4294966606
337.57907 2738.0278 -690.62805 4294966606
341.59042 2736.8438 -690.75189 4294966606
343.46957 2737.3818 -690.57648 4294966606
303.42471 2741.9055 -690.7738 4294966606
305.4892 2741.9341 -690.62787 4294966606
309.52621 2741.179 -690.81189 4294966606
311.33179 2741.1179 -690.75079 4294966606
313.41681 2741.188 -690.61664 4294966606
315.42416 2741.0906 -690.57349 4294966606
317.52493 2740.656 -690.67743 4294966606
319.5578 2740.6499 -690.59668 4294966606
321.31036 2740.4702 -690.58582 4294966606
323.4606 2740.5847 -690.50024 4294966606
329.71875 2740.0991 -690.48663 4294966606
333.59299 2739.8276 -690.26379 4294966606
339.52765 2739.3501 -690.24817 4294966606
343.59531 2739.5911 -690.07635 4294966606
289.35266 2743.3628 -690.97034 4294966606
291.396 2743.2466 -690.92816 4294966606
293.47562 2743.0972 -690.91852 4294966606
295.31668 2743.0295 -690.776 4294966606
297.59286 2742.8728 -690.64258 4294966606
299.39337 2742.7546 -690.54144 4294966606
301.38461 2742.6624 -690.39307 4294966606
141.37675 2747.4895 -690.66437 4294966606
145.51596 2747.467 -690.91711 4294966606
253.47089 2747.3699 -690.10785 4294966606
257.48721 2747.1599 -690.04639 4294966606
261.61124 2746.8911 -690.07715 4294966606
263.53918 2746.7207 -690.14941 4294966606
267.39807 2746.3425 -690.06042 4294966606
129.58365 2750.8027 -690.47284 4294966606
131.63945 2750.6084 -690.70172 4294966606
135.34859 2750.604 -690.9007 4294966606
205.26192 2750.8389 -690.01978 4294966606
207.42534 2750.6738 -690.16742 4294966606
209.59888 2750.5557 -690.20526 4294966606
211.51567 2750.4072 -690.17908 4294966606
223.40955 2749.4104 -690.07764 4294966606
225.3905 2749.3521 -690.02777 4294966606
229.4967 2749.0767 -690.06604 4294966606
231.4362 2748.96 -690.06934 4294966606
233.41597 2748.8477 -690.07031 4294966606
131.16772 2753.3398 -690.07684 4294966606
133.6266 2753.2617 -690.24768 4294966606
135.50583 2753.2563 -690.33807 4294966606
137.39699 2753.239 -690.46069 4294966606
139.43994 2753.2136 -690.5849 4294966606
141.40053 2753.2214 -690.64655 4294966606
143.78522 2753.1597 -690.73621 4294966606
145.47325 2753.2979 -690.67242 4294966606
147.25436 2753.2813 -690.70648 4294966606
149.39514 2753.116 -690.79797 4294966606
151.46619 2753.1118 -690.83417 4294966606
155.28436 2753.002 -690.92834 4294966606
159.32634 2752.8254 -690.888 4294966606
163.25923 2752.3208 -690.74725 4294966606
169.4512 2752.1501 -690.96008 4294966606
175.51076 2752.7256 -690.22681 4294966606
177.4006 2752.7913 -690.23962 4294966606
181.47931 2752.3701 -690.12323 4294966606
183.46756 2752.1887 -690.04004 4294966606
193.41154 2751.5547 -690.08667 4294966606
197.46516 2751.3337 -690.08539 4294966606
199.41467 2751.2515 -690.03772 4294966606
201.4254 2751.0837 -690.13605 4294966606
287.29675 2702.9873 -689.13397 4294966607
299.47714 2702.9993 -689.96472 4294966607
303.12973 2701.8308 -689.06433 4294966607
305.31393 2701.7122 -689.16138 4294966607
309.36136 2701.5156 -689.18774 4294966607
311.48587 2701.5378 -689.14398 4294966607
313.52567 2701.4006 -689.12872 4294966607
315.53067 2701.4521 -689.4104 4294966607
317.39209 2701.4995 -689.80389 4294966607
319.57568 2701.2993 -689.54016 4294966607
323.33289 2701.1428 -689.56262 4294966607
327.42648 2701.0037 -689.53949 4294966607
331.18674 2700.9812 -689.57208 4294966607
333.6066 2700.9167 -689.57166 4294966607
335.33063 2700.7532 -689.47766 4294966607
339.34207 2700.4731 -689.44104 4294966607
343.3371 2700.3154 -689.6535 4294966607
241.5293 2705.5662 -689.23291 4294966607
243.31779 2705.3882 -689.10144 4294966607
247.27393 2705.2576 -689.08533 4294966607
249.32037 2705.1567 -689.05017 4294966607
251.27104 2704.9136 -689.12305 4294966607
255.67398 2705.1265 -689.86389 4294966607
259.56247 2705.0317 -689.81805 4294966607
261.62616 2704.9194 -689.96558 4294966607
263.31732 2704.8132 -689.87689 4294966607
267.52121 2704.0798 -689.50519 4294966607
271.211 2703.7913 -689.63495 4294966607
273.59964 2703.4612 -689.10138 4294966607
279.04947 2703.3794 -689.10999 4294966607
283.5101 2703.2153 -689.1488 4294966607
289.45145 2703.2178 -689.72961 4294966607
291.36176 2703.2314 -689.81622 4294966607
293.41974 2703.2534 -689.90472 4294966607
295.46799 2703.1255 -689.84747 4294966607
209.40167 2708.6138 -689.21191 4294966607
211.48834 2708.4282 -689.23035 4294966607
213.48744 2708.2092 -689.17004 4294966607
215.43709 2708.2378 -689.36334 4294966607
217.42368 2708.0972 -689.3974 4294966607
219.44632 2707.9604 -689.45007 4294966607
221.38757 2707.908 -689.64764 4294966607
225.38303 2707.2202 -689.25586 4294966607
227.4729 2707.1313 -689.34387 4294966607
229.48428 2707.0459 -689.39337 4294966607
231.53096 2706.9221 -689.57172 4294966607
233.32657 2706.7349 -689.43402 4294966607
237.52602 2706.1692 -689.5863 4294966607
183.48438 2711.8508 -689.31427 4294966607
185.37764 2711.886 -689.49945 4294966607
187.45937 2711.8015 -689.64929 4294966607
189.25006 2711.7815 -689.73798 4294966607
191.42886 2711.9043 -689.87762 4294966607
193.46812 2710.0994 -689.04956 4294966607
197.34694 2709.8469 -689.22504 4294966607
199.29939 2709.8025 -689.39148 4294966607
201.46736 2710.0208 -689.78827 4294966607
171.33037 2713.9727 -689.18408 4294966607
173.34143 2713.9404 -689.2738 4294966607
175.4171 2714.0437 -689.54144 4294966607
177.46603 2713.9463 -689.6095 4294966607
179.35764 2713.887 -689.72437 4294966607
181.26599 2713.7129 -689.70709 4294966607
183.49123 2713.7734 -689.93378 4294966607
327.42923 2741.5115 -689.81812 4294966607
329.61041 2741.5237 -689.55939 4294966607
331.46487 2741.3303 -689.4613 4294966607
335.45639 2740.7473 -689.34729 4294966607
337.37241 2740.5676 -689.23889 4294966607
339.42755 2740.4263 -689.20526 4294966607
285.61057 2744.8748 -689.28485 4294966607
289.3266 2744.4985 -689.27814 4294966607
291.37872 2744.3735 -689.2616 4294966607
295.45621 2744.0984 -689.29395 4294966607
297.41257 2743.9004 -689.2984 4294966607
299.47253 2743.77 -689.18976 4294966607
301.42804 2743.5901 -689.18805 4294966607
303.54358 2743.3892 -689.20636 4294966607
305.42496 2743.2439 -689.1214 4294966607
307.56934 2742.6543 -689.74341 4294966607
309.37564 2742.551 -689.72052 4294966607
311.62604 2742.6211 -689.43146 4294966607
313.34109 2742.4702 -689.47864 4294966607
315.46011 2742.3381 -689.47131 4294966607
323.5903 2742.1201 -689.19012 4294966607
325.54187 2742.04 -689.24841 4294966607
247.49835 2747.7671 -689.97675 4294966607
249.57307 2747.6787 -689.83002 4294966607
273.46783 2746.1763 -689.30878 4294966607
275.5932 2745.6824 -689.8335 4294966607
277.37894 2745.5618 -689.83887 4294966607
279.48367 2745.3765 -689.79205 4294966607
123.43836 2749.8669 -689.04108 4294966607
125.58717 2749.9902 -689.45996 4294966607
127.48094 2750.4907 -689.90741 4294966607
217.38197 2749.9348 -689.94409 4294966607
221.3979 2749.5691 -689.89856 4294966607
227.60309 2749.217 -689.99512 4294966607
241.55354 2748.2427 -689.98254 4294966607
119.36999 2752.574 -689.0506 4294966607
121.53799 2752.8538 -689.04883 4294966607
123.551 2752.8901 -689.30951 4294966607
125.59329 2753.4216 -689.54169 4294966607
127.53525 2753.354 -689.79333 4294966607
129.46628 2753.5874 -689.90137 4294966607
153.3992 2753.9294 -689.76776 4294966607
157.40364 2753.7502 -689.74902 4294966607
161.47009 2753.5566 -689.31012 4294966607
163.27855 2753.3967 -689.24048 4294966607
165.26038 2753.1816 -689.22876 4294966607
167.38824 2753.0271 -689.31567 4294966607
171.57802 2752.938 -689.89136 4294966607
185.43721 2752.0427 -689.94861 4294966607
187.54196 2751.877 -689.93237 4294966607
189.5757 2751.7717 -689.91418 4294966607
123.25829 2754.3557 -689.01764 4294966607
129.44699 2754.8218 -689.24304 4294966607
131.46301 2754.6758 -689.37915 4294966607
133.28711 2754.7412 -689.42603 4294966607
135.45279 2754.6526 -689.61346 4294966607
137.31244 2754.6536 -689.66425 4294966607
141.36296 2754.6304 -689.69458 4294966607
145.53273 2754.5046 -689.32892 4294966607
149.45963 2754.2249 -689.73114 4294966607
283.44565 2702.8345 -688.0813 4294966608
285.45554 2702.697 -688.03619 4294966608
289.31775 2702.4692 -688.07672 4294966608
295.4458 2702.1394 -688.10095 4294966608
307.38449 2701.334 -688.01965 4294966608
309.46814 2701.271 -688.11786 4294966608
315.18979 2700.9294 -688.0578 4294966608
325.54694 2700.0718 -688.01917 4294966608
241.49916 2704.9668 -688.01392 4294966608
245.38145 2705.1343 -688.51208 4294966608
265.37784 2703.7849 -688.11969 4294966608
269.39929 2703.533 -688.15381 4294966608
275.10748 2703.2795 -688.1554 4294966608
279.19315 2703.0171 -688.04633 4294966608
281.72256 2703.2332 -688.99371 4294966608
203.4326 2708.9175 -688.90533 4294966608
179.24185 2711.969 -688.94 4294966608
181.46762 2710.6333 -688.16217 4294966608
183.48573 2710.78 -688.61633 4294966608
185.46886 2710.6392 -688.7226 4294966608
187.44487 2710.4675 -688.75616 4294966608
189.48137 2710.4102 -688.88055 4294966608
159.43817 2713.7568 -688.17078 4294966608
161.25832 2713.823 -688.3623 4294966608
163.3622 2713.6719 -688.46936 4294966608
167.36946 2712.3645 -688.09222 4294966608
169.39713 2713.0156 -688.63391 4294966608
171.47519 2712.2952 -688.39447 4294966608
173.44662 2712.4221 -688.58606 4294966608
143.42252 2717.8291 -688.25891 4294966608
147.38672 2717.7905 -688.52032 4294966608
149.43452 2716.853 -688.38629 4294966608
151.276 2716.908 -688.50781 4294966608
153.19072 2716.7808 -688.60834 4294966608
155.3837 2715.5596 -688.53174 4294966608
161.3425 2715.668 -688.87689 4294966608
155.51981 2718.0676 -688.90631 4294966608
333.38812 2741.8159 -688.01422 4294966608
337.32352 2741.2761 -688.08295 4294966608
339.36707 2741.1208 -688.0011 4294966608
343.35342 2740.8909 -688.10187 4294966608
289.34222 2744.9607 -688.01276 4294966608
291.35605 2744.8328 -688.03827 4294966608
293.59253 2744.7258 -688.00372 4294966608
295.40799 2744.5789 -688.03204 4294966608
309.39975 2743.4829 -688.00995 4294966608
317.32904 2742.8706 -688.09894 4294966608
321.42325 2742.6208 -688.1687 4294966608
325.74088 2742.6331 -688.10187 4294966608
253.59737 2747.8779 -688.14545 4294966608
257.49792 2747.4861 -688.06183 4294966608
259.48132 2747.3674 -688.02631 4294966608
261.57651 2747.2241 -688.00891 4294966608
263.45877 2747.0769 -688.14679 4294966608
265.59058 2746.8926 -688.00519 4294966608
269.51584 2746.6697 -688.20642 4294966608
271.44211 2746.5505 -688.27911 4294966608
275.60501 2746.1326 -688.14258 4294966608
277.44458 2746.0427 -688.12885 4294966608
281.5838 2745.8181 -688.10815 4294966608
121.66312 2749.3372 -688.6377 4294966608
211.46289 2750.7222 -688.01123 4294966608
213.45786 2750.7007 -688.11432 4294966608
215.44044 2750.5444 -688.16748 4294966608
221.39073 2750.0872 -688.13892 4294966608
223.55342 2749.9648 -688.10724 4294966608
227.43188 2749.5679 -688.10138 4294966608
229.39442 2749.4329 -688.05621 4294966608
231.45454 2749.3018 -688.00726 4294966608
233.42738 2749.1548 -688.0127 4294966608
235.43004 2749.0029 -688.03998 4294966608
237.39418 2748.9946 -688.0863 4294966608
251.43382 2748.0396 -688.13873 4294966608
117.42447 2752.8083 -688.85449 4294966608
171.32896 2753.2896 -688.24701 4294966608
173.40337 2753.1123 -688.71844 4294966608
177.32422 2752.9199 -688.98486 4294966608
179.43312 2752.7974 -688.7749 4294966608
181.51129 2752.5891 -688.89209 4294966608
183.56044 2752.5508 -688.02197 4294966608
185.40074 2752.562 -688.31458 4294966608
187.70152 2752.4363 -688.09662 4294966608
189.40926 2752.3301 -688.15814 4294966608
191.39388 2752.2136 -688.16461 4294966608
193.5504 2752.0762 -688.13556 4294966608
195.44366 2751.9517 -688.06647 4294966608
197.56973 2751.6599 -688.02289 4294966608
199.40532 2751.5713 -688.05249 4294966608
201.34621 2751.4216 -688.06293 4294966608
205.33693 2751.0989 -688.04181 4294966608
113.69009 2754.5786 -688.02814 4294966608
115.55565 2754.7188 -688.24878 4294966608
119.30742 2754.5408 -688.58069 4294966608
121.51745 2754.8718 -688.71954 4294966608
125.45275 2755.1748 -688.81409 4294966608
127.49109 2755.0759 -688.98297 4294966608
137.28435 2755.4692 -688.06769 4294966608
139.47369 2755.3625 -688.15839 4294966608
141.34142 2755.2842 -688.13593 4294966608
143.43744 2755.1367 -688.16742 4294966608
147.26799 2754.8162 -688.27588 4294966608
149.46893 2754.4988 -688.7489 4294966608
151.40672 2754.3621 -688.68585 4294966608
155.44794 2754.1907 -688.73547 4294966608
157.30286 2754.2368 -688.34131 4294966608
159.23314 2754.1416 -688.17816 4294966608
329.46576 2699.9905 -687.85303 4294966609
331.5495 2699.873 -687.77057 4294966609
333.25555 2699.7981 -687.74451 4294966609
337.09814 2699.5962 -687.71796 4294966609
341.20642 2699.2759 -687.8045 4294966609
343.25775 2698.9731 -687.79688 4294966609
295.62991 2701.9421 -687.91071 4294966609
297.48578 2701.7893 -687.77545 4294966609
299.61865 2701.7751 -687.74719 4294966609
301.37598 2701.6841 -687.92963 4294966609
311.56525 2701.1287 -687.98114 4294966609
317.17798 2700.7937 -687.94543 4294966609
319.69571 2700.5984 -687.91791 4294966609
321.36517 2700.3982 -687.97723 4294966609
323.53918 2700.332 -687.95483 4294966609
327.51013 2700.0764 -687.82294 4294966609
233.31924 2705.835 -687.63788 4294966609
235.2169 2705.6235 -687.76471 4294966609
237.30856 2705.3826 -687.66193 4294966609
239.24611 2705.2192 -687.89075 4294966609
243.19617 2705.0051 -687.96893 4294966609
247.46265 2704.8652 -687.88867 4294966609
249.41924 2704.7632 -687.91846 4294966609
253.41165 2704.5425 -687.96112 4294966609
257.36188 2704.1169 -687.84277 4294966609
261.22925 2703.8176 -687.92029 4294966609
267.46439 2703.604 -687.66309 4294966609
191.47597 2708.9463 -687.22302 4294966609
195.46524 2708.6479 -687.31812 4294966609
201.17781 2708.2986 -687.33978 4294966609
207.27139 2707.6487 -687.32532 4294966609
211.42288 2707.314 -687.31952 4294966609
215.56674 2707.0051 -687.38751 4294966609
219.36037 2706.7188 -687.33594 4294966609
221.37917 2706.7278 -687.40894 4294966609
223.60855 2706.5476 -687.54681 4294966609
225.23549 2706.4355 -687.68884 4294966609
227.36363 2706.3152 -687.71405 4294966609
231.38217 2706.0396 -687.69354 4294966609
167.5219 2711.2871 -687.19159 4294966609
169.40356 2711.0984 -687.19141 4294966609
171.46358 2711.1084 -687.43091 4294966609
175.47708 2711.0293 -687.80945 4294966609
177.42264 2710.7644 -687.64105 4294966609
179.4919 2710.0806 -687.4635 4294966609
185.34341 2709.5881 -687.2226 4294966609
187.5466 2709.3977 -687.17914 4294966609
147.35152 2714.5034 -687.35309 4294966609
149.41472 2714.46 -687.47858 4294966609
151.43199 2714.0637 -687.56891 4294966609
153.26569 2714.0066 -687.70111 4294966609
155.49457 2713.3396 -687.47815 4294966609
157.31752 2713.1367 -687.55981 4294966609
159.5244 2712.3276 -687.26257 4294966609
161.32304 2712.5034 -687.60529 4294966609
163.33528 2712.219 -687.59998 4294966609
133.21884 2717.4995 -687.2691 4294966609
135.22934 2717.6843 -687.4668 4294966609
137.33983 2716.7261 -687.4527 4294966609
139.16489 2716.7024 -687.61462 4294966609
145.28514 2715.6499 -687.72974 4294966609
129.1433 2720.1377 -687.0249 4294966609
131.2059 2720.2888 -687.17017 4294966609
133.5202 2720.3662 -687.35553 4294966609
135.56094 2720.6338 -687.54938 4294966609
297.58456 2744.4414 -687.9903 4294966609
301.41895 2744.1433 -687.9397 4294966609
303.56442 2743.9585 -687.94983 4294966609
305.42444 2743.9707 -687.93884 4294966609
311.66046 2743.3538 -687.94647 4294966609
313.39856 2743.1934 -687.99957 4294966609
327.68744 2742.6387 -687.90033 4294966609
329.6149 2742.7661 -687.50891 4294966609
287.54636 2745.2261 -687.95905 4294966609
209.54591 2750.8325 -687.94318 4294966609
217.48373 2750.3533 -687.98413 4294966609
219.55661 2750.1985 -687.95386 4294966609
225.62823 2749.8223 -687.87781 4294966609
243.52835 2748.5837 -687.99109 4294966609
247.66176 2748.3044 -687.92542 4294966609
249.54796 2748.1755 -687.98926 4294966609
109.3576 2751.8931 -687.28168 4294966609
163.40356 2753.8445 -687.8512 4294966609
165.3867 2753.6436 -687.71228 4294966609
169.44084 2753.3804 -687.91266 4294966609
203.65129 2751.2549 -687.99695 4294966609
207.47682 2751.0117 -687.98749 4294966609
111.52209 2754.8511 -687.60437 4294966609
117.53569 2756.2288 -687.43835 4294966609
119.51402 2756.3228 -687.34442 4294966609
123.61781 2756.3862 -687.36554 4294966609
127.32229 2755.9622 -687.59674 4294966609
129.33121 2755.7673 -687.82117 4294966609
131.4613 2755.7136 -687.94122 4294966609
133.16476 2755.5869 -687.9657 4294966609
135.66667 2755.5378 -687.94617 4294966609
161.6862 2754.0107 -687.87317 4294966609
325.60242 2699.9243 -686.15613 4294966610
327.54556 2699.7937 -686.2619 4294966610
329.36905 2699.6597 -686.1026 4294966610
333.64444 2699.4563 -686.0307 4294966610
335.54077 2699.2405 -686.10822 4294966610
339.37848 2699.0217 -686.6593 4294966610
341.20306 2698.8677 -686.70538 4294966610
277.53137 2702.9377 -686.18951 4294966610
281.23645 2702.5713 -686.22437 4294966610
285.36331 2702.4856 -686.1203 4294966610
287.33893 2702.2119 -686.03857 4294966610
289.33951 2702.2566 -686.16187 4294966610
291.55292 2701.9543 -686.71027 4294966610
299.40717 2701.4126 -686.117 4294966610
301.36542 2701.5117 -686.81195 4294966610
305.58057 2701.2859 -686.60638 4294966610
307.22604 2701.1897 -686.74774 4294966610
309.74945 2701.0415 -686.05341 4294966610
313.31937 2700.8086 -686.09479 4294966610
315.09906 2700.6851 -686.08887 4294966610
317.20163 2700.572 -686.13672 4294966610
319.45282 2700.384 -686.12714 4294966610
323.37311 2700.072 -686.07874 4294966610
237.40587 2705.1956 -686.04877 4294966610
241.21916 2704.9246 -686.0744 4294966610
245.29854 2704.8008 -686.05927 4294966610
251.13033 2704.3284 -686.08649 4294966610
261.2258 2703.7102 -686.11182 4294966610
263.12943 2703.5962 -686.81519 4294966610
265.40021 2703.5134 -686.88666 4294966610
269.2681 2703.4563 -686.89484 4294966610
271.58133 2703.3547 -686.76678 4294966610
275.67566 2703.0554 -686.01031 4294966610
179.3221 2709.7039 -686.55396 4294966610
133.30576 2714.3904 -686.35999 4294966610
135.34869 2714.2573 -686.31079 4294966610
137.3625 2714.2473 -686.41644 4294966610
139.24388 2714.2612 -686.55194 4294966610
141.53873 2714.2659 -686.71313 4294966610
143.59247 2714.012 -686.70544 4294966610
145.38847 2713.9082 -686.79822 4294966610
147.58391 2713.3643 -686.59088 4294966610
149.51328 2713.1335 -686.56708 4294966610
151.54829 2712.9856 -686.67493 4294966610
153.34427 2712.8821 -686.8808 4294966610
121.33967 2717.6028 -686.05859 4294966610
123.05774 2717.7102 -686.25946 4294966610
125.45007 2717.7002 -686.50397 4294966610
127.38392 2717.5193 -686.67371 4294966610
129.21991 2715.6968 -686.5127 4294966610
131.15352 2717.125 -686.98969 4294966610
133.07222 2715.5984 -686.76874 4294966610
135.04002 2715.5229 -686.94116 4294966610
118.98996 2719.6851 -686.26434 4294966610
121.44341 2719.7466 -686.35693 4294966610
123.07544 2719.7769 -686.68256 4294966610
125.32298 2720.0085 -686.7652 4294966610
127.37243 2720.1563 -686.90033 4294966610
121.40515 2722.6169 -686.19537 4294966610
125.43706 2722.6726 -686.5564 4294966610
127.34067 2722.7642 -686.7229 4294966610
123.39324 2724.8528 -686.26447 4294966610
125.4219 2724.7515 -686.46381 4294966610
335.28726 2741.7917 -686.31323 4294966610
337.31601 2741.387 -686.85052 4294966610
339.51636 2741.1802 -686.76385 4294966610
341.38574 2741.2288 -686.51343 4294966610
343.54654 2741.0991 -686.34784 4294966610
307.54575 2744.1711 -686.01642 4294966610
315.30737 2743.4568 -686.06122 4294966610
321.41513 2743.1292 -686.27161 4294966610
323.48312 2742.915 -686.27673 4294966610
325.51788 2742.8552 -686.09198 4294966610
330.01462 2742.6487 -686.05548 4294966610
331.68497 2742.603 -686.27301 4294966610
333.36755 2742.1917 -686.41333 4294966610
105.17786 2751.9934 -686.40857 4294966610
107.33125 2751.7185 -686.85925 4294966610
105.64281 2755.5574 -686.26855 4294966610
107.46178 2755.6096 -686.55505 4294966610
121.341 2756.6628 -686.7124 4294966610
125.06857 2756.3892 -686.80347 4294966610
127.24198 2756.2983 -686.67432 4294966610
129.18578 2756.3064 -686.26996 4294966610
131.55664 2756.2148 -686.17206 4294966610
135.71259 2756.0352 -686.12366 4294966610
139.44267 2755.9763 -686.13672 4294966610
141.23631 2755.594 -686.65167 4294966610
143.23248 2755.5293 -686.10095 4294966610
145.49423 2755.3328 -686.01056 4294966610
147.38698 2755.1648 -686.15637 4294966610
151.479 2754.8174 -686.0564 4294966610
153.18449 2754.7573 -686.04523 4294966610
119.0916 2757.0518 -686.04602 4294966610
229.47672 2705.9065 -685.90021 4294966611
231.25684 2705.6238 -685.89478 4294966611
233.36522 2705.5986 -685.99994 4294966611
247.28485 2704.7375 -685.9704 4294966611
249.2173 2704.6396 -685.98022 4294966611
253.42104 2704.3855 -685.98169 4294966611
255.63141 2704.0894 -685.83075 4294966611
193.25204 2708.5884 -685.89288 4294966611
197.38889 2708.1016 -685.99664 4294966611
201.18016 2707.9448 -685.99994 4294966611
203.34743 2707.7625 -685.90411 4294966611
205.23746 2707.6118 -685.91162 4294966611
221.36516 2706.3188 -685.90887 4294966611
223.41766 2706.1501 -685.75012 4294966611
225.44232 2706.1724 -685.88464 4294966611
227.28674 2706.0457 -685.91821 4294966611
153.72215 2711.8074 -685.1991 4294966611
157.43761 2711.5103 -685.50928 4294966611
161.21036 2711.2542 -685.73682 4294966611
165.5816 2710.7903 -685.75525 4294966611
167.55069 2710.6311 -685.78064 4294966611
173.21124 2710.1953 -685.82819 4294966611
175.76756 2710.012 -685.67328 4294966611
177.08699 2709.7439 -685.7746 4294966611
181.38216 2709.5315 -685.89685 4294966611
183.25362 2709.3408 -685.77844 4294966611
187.51083 2709.0083 -685.94965 4294966611
125.41035 2714.6477 -685.04474 4294966611
129.52448 2713.8154 -685.29913 4294966611
131.32442 2713.6824 -685.49799 4294966611
135.40268 2713.2581 -685.1192 4294966611
137.5428 2713.1223 -685.07617 4294966611
139.19727 2713.0317 -685.11688 4294966611
141.57846 2712.8779 -685.13 4294966611
145.34306 2712.5718 -685.1897 4294966611
147.58704 2712.363 -685.17621 4294966611
151.68346 2712.0078 -685.22278 4294966611
117.42506 2716.5339 -685.11108 4294966611
119.26749 2716.9155 -685.50537 4294966611
123.38168 2715.624 -685.396 4294966611
125.45631 2715.9773 -685.96783 4294966611
113.43904 2719.8999 -685.29059 4294966611
115.32281 2719.7485 -685.5592 4294966611
117.40896 2719.9954 -685.90509 4294966611
113.31104 2722.7219 -685.1637 4294966611
119.02705 2722.4602 -685.98395 4294966611
117.39051 2726.7651 -685.52563 4294966611
295.54153 2744.9727 -685.83496 4294966611
297.50812 2744.7473 -685.90369 4294966611
299.52255 2744.6147 -685.92743 4294966611
301.38947 2744.4646 -685.97882 4294966611
303.5712 2744.4905 -685.86896 4294966611
309.50128 2744.0264 -685.99469 4294966611
313.52295 2743.7385 -685.9549 4294966611
317.40793 2743.3374 -685.88391 4294966611
319.55954 2743.1345 -685.98041 4294966611
327.44879 2742.8701 -685.95819 4294966611
251.52635 2747.8333 -685.32544 4294966611
275.50955 2746.2537 -685.48816 4294966611
277.41348 2746.1819 -685.60321 4294966611
279.48892 2746.1057 -685.89075 4294966611
287.66357 2745.4709 -685.55145 4294966611
289.33401 2745.3774 -685.83643 4294966611
291.43234 2745.2456 -685.78046 4294966611
207.33644 2750.8372 -685.06519 4294966611
209.48909 2750.7031 -685.00024 4294966611
211.46292 2750.6162 -685.41125 4294966611
213.338 2750.4905 -685.49762 4294966611
215.45937 2750.3044 -685.09674 4294966611
221.37912 2749.926 -685.22083 4294966611
225.39011 2749.6704 -685.36255 4294966611
227.36331 2749.5059 -685.1463 4294966611
229.46873 2749.3406 -685.01501 4294966611
231.44463 2749.2292 -685.37335 4294966611
233.35432 2749.082 -685.15997 4294966611
247.58202 2748.137 -685.42316 4294966611
101.47263 2751.6267 -685.11334 4294966611
103.61084 2751.9727 -685.9245 4294966611
165.51915 2753.9856 -685.65875 4294966611
167.5079 2753.8118 -685.58398 4294966611
169.28328 2753.6885 -685.75269 4294966611
171.25159 2753.532 -685.6673 4294966611
175.42393 2753.1624 -685.56671 4294966611
177.5006 2752.9868 -685.45697 4294966611
179.36014 2752.8459 -685.65906 4294966611
181.63469 2752.636 -685.07544 4294966611
193.53081 2751.8616 -685.27344 4294966611
195.52414 2751.7144 -685.05005 4294966611
197.41183 2751.6038 -685.32861 4294966611
199.44507 2751.4441 -685.0766 4294966611
101.40758 2755.3408 -685.2467 4294966611
103.58775 2755.4043 -685.91339 4294966611
149.56816 2754.9927 -685.95355 4294966611
155.59622 2754.6658 -685.99121 4294966611
157.34367 2754.593 -685.89807 4294966611
159.38179 2754.4912 -685.83942 4294966611
161.51743 2754.3401 -685.79688 4294966611
163.38911 2754.1792 -685.68774 4294966611
103.61456 2757.2957 -685.04395 4294966611
109.01481 2757.5725 -685.18744 4294966611
111.49221 2757.4731 -685.19727 4294966611
113.48138 2757.5579 -685.3374 4294966611
115.35644 2757.27 -685.72644 4294966611
157.24229 2711.1892 -684.15405 4294966612
159.38042 2711.0264 -684.03351 4294966612
161.09482 2710.9028 -684.17712 4294966612
167.26639 2710.3616 -684.04944 4294966612
169.29312 2710.0159 -684.22766 4294966612
176.96994 2709.5571 -684.02203 4294966612
133.40628 2712.8796 -684.03979 4294966612
137.10521 2712.7917 -684.18811 4294966612
139.1954 2712.6416 -684.04224 4294966612
109.16194 2717.4519 -684.04272 4294966612
111.88446 2716.5894 -684.10852 4294966612
113.2132 2717.7166 -684.8576 4294966612
115.05564 2716.4553 -684.63135 4294966612
119.89265 2715.3318 -684.69135 4294966612
121.46352 2715.0134 -684.65082 4294966612
107.62783 2719.7036 -684.14642 4294966612
111.15524 2719.6003 -684.90808 4294966612
109.7016 2725.8506 -684.38525 4294966612
205.49156 2750.9705 -684.96625 4294966612
99.189087 2754.9644 -684.52649 4294966612
99.443016 2757.0273 -684.02222 4294966612
101.23158 2757.3606 -684.39429 4294966612
105.61312 2757.7676 -684.74091 4294966612
111.22369 2758.1936 -684.06818 4294966612
115.13402 2757.9519 -684.16882 4294966612
125.21529 2757.0557 -684.00629 4294966612
327.53061 2699.8997 -683.65564 4294966613
331.45874 2699.5842 -683.85162 4294966613
333.46655 2699.5564 -683.20581 4294966613
335.38998 2699.3657 -683.67426 4294966613
337.60822 2699.2327 -683.5235 4294966613
339.41605 2699.0823 -683.58923 4294966613
341.42749 2698.8508 -683.68225 4294966613
283.60437 2702.8809 -683.42975 4294966613
287.44171 2702.6494 -683.3739 4294966613
293.07822 2702.2534 -683.58813 4294966613
295.7991 2702.1128 -683.48932 4294966613
297.39371 2701.9927 -683.51465 4294966613
299.3031 2701.8289 -683.6156 4294966613
301.47189 2701.6736 -683.67511 4294966613
303.30795 2701.5676 -683.74048 4294966613
305.57343 2701.499 -683.36865 4294966613
307.17407 2701.3621 -683.71582 4294966613
311.21185 2701.1326 -683.55719 4294966613
313.27655 2701.0083 -683.42346 4294966613
315.44424 2700.8269 -683.61249 4294966613
317.54449 2700.74 -683.22919 4294966613
319.68216 2700.5339 -683.54553 4294966613
321.29962 2700.4246 -683.40961 4294966613
323.45435 2700.2124 -683.61816 4294966613
325.70047 2700.053 -683.56433 4294966613
233.57465 2705.7312 -683.72314 4294966613
235.4641 2705.625 -683.36884 4294966613
237.24518 2705.3823 -683.78412 4294966613
239.60945 2705.2139 -683.84247 4294966613
241.51744 2705.2124 -683.44568 4294966613
243.35057 2705.1262 -683.65546 4294966613
247.4496 2705.0029 -683.54034 4294966613
249.29971 2704.9397 -683.33197 4294966613
251.37404 2704.7939 -683.41541 4294966613
253.57184 2704.6289 -683.45636 4294966613
261.4397 2704.2002 -683.31842 4294966613
263.20279 2704.1023 -683.51465 4294966613
265.44144 2704.0029 -683.44031 4294966613
267.24683 2703.9277 -683.30792 4294966613
269.39655 2703.7817 -683.44556 4294966613
279.53635 2703.1167 -683.46289 4294966613
281.45554 2703.0212 -683.33118 4294966613
187.38759 2708.8794 -683.91339 4294966613
189.57135 2708.6064 -683.73041 4294966613
191.38953 2708.4729 -683.84735 4294966613
193.33438 2708.354 -683.78064 4294966613
195.52577 2708.2214 -683.81671 4294966613
197.46202 2708.1143 -683.66449 4294966613
201.41356 2707.792 -683.74707 4294966613
205.20891 2707.5825 -683.79382 4294966613
207.42491 2707.3291 -683.9057 4294966613
219.26212 2706.6919 -683.49768 4294966613
223.44385 2706.4192 -683.56439 4294966613
225.25267 2706.2432 -683.88171 4294966613
227.49654 2706.1436 -683.75934 4294966613
229.60875 2706.073 -683.55591 4294966613
149.29802 2711.7747 -683.94617 4294966613
151.82108 2711.6138 -683.89307 4294966613
155.43675 2711.2893 -683.94122 4294966613
163.29335 2710.7078 -683.97412 4294966613
165.54982 2710.5393 -683.99188 4294966613
173.35643 2709.7808 -683.8811 4294966613
179.4581 2709.4907 -683.8537 4294966613
181.20979 2709.3787 -683.95325 4294966613
183.25375 2709.1873 -683.90027 4294966613
185.30322 2709.0376 -683.83374 4294966613
119.87034 2714.3484 -683.19427 4294966613
123.65348 2714.0325 -683.54034 4294966613
143.49681 2712.2866 -683.88 4294966613
145.34666 2712.1384 -683.93103 4294966613
109.08202 2715.571 -683.00177 4294966613
111.63342 2715.4099 -683.34229 4294966613
113.55141 2715.2285 -683.4201 4294966613
115.6693 2715.2097 -683.85132 4294966613
105.53239 2718.3152 -683.33344 4294966613
335.3327 2741.8726 -683.89587 4294966613
337.43277 2741.5894 -683.64771 4294966613
339.39893 2741.4277 -683.784 4294966613
341.5376 2741.3408 -683.85034 4294966613
343.49966 2741.2197 -683.82104 4294966613
299.43735 2744.5278 -683.14709 4294966613
303.51996 2744.2666 -683.10687 4294966613
305.56122 2744.134 -683.06799 4294966613
315.27545 2743.5505 -683.35065 4294966613
325.46811 2742.7527 -683.24768 4294966613
327.34329 2742.7429 -683.28009 4294966613
331.55984 2742.469 -683.638 4294966613
333.42752 2742.1648 -683.62457 4294966613
197.39368 2751.5154 -683.01526 4294966613
95.407005 2754.2751 -683.2395 4294966613
97.429581 2755.7766 -683.60028 4294966613
129.08521 2756.6365 -683.87195 4294966613
131.48528 2756.5049 -683.65875 4294966613
133.21202 2756.3616 -683.5932 4294966613
135.54146 2756.1594 -683.52942 4294966613
137.35008 2756.0137 -683.4054 4294966613
139.49292 2755.781 -683.12726 4294966613
141.22737 2755.6423 -683.41333 4294966613
143.39194 2755.4331 -683.0733 4294966613
145.47868 2755.2271 -683.07855 4294966613
147.49333 2755.0198 -683.04407 4294966613
149.46594 2754.8362 -683.03796 4294966613
151.50836 2754.6968 -683.09491 4294966613
153.36404 2754.6035 -683.00592 4294966613
155.64742 2754.5239 -683.04797 4294966613
157.57237 2754.4395 -683.04333 4294966613
159.45024 2754.313 -683.34235 4294966613
161.5979 2754.116 -683.01929 4294966613
102.71682 2758.2756 -683.61475 4294966613
105.24619 2758.3425 -683.95618 4294966613
107.72542 2758.3008 -683.69238 4294966613
119.22441 2757.7542 -683.96997 4294966613
123.58994 2757.2522 -683.93719 4294966613
145.37378 2711.9634 -682.06165 4294966614
125.24474 2713.5256 -682.15582 4294966614
127.27224 2713.3569 -682.27448 4294966614
131.06174 2713.0593 -682.81891 4294966614
133.20369 2712.7998 -682.10492 4294966614
135.15218 2712.6426 -682.18744 4294966614
137.48125 2712.5225 -682.07123 4294966614
139.23828 2712.4292 -682.17676 4294966614
141.67334 2712.2793 -682.15607 4294966614
143.52615 2712.0999 -682.12488 4294966614
101.17924 2717.4448 -682.02704 4294966614
103.29803 2716.8958 -682.48273 4294966614
105.59819 2715.7646 -682.74847 4294966614
107.53342 2715.0791 -682.11365 4294966614
100.984 2718.8726 -682.1593 4294966614
101.07748 2722.4331 -682.28967 4294966614
103.21177 2722.2383 -682.90448 4294966614
101.17757 2724.6313 -682.24554 4294966614
311.56638 2743.7773 -682.99371 4294966614
229.3918 2749.2778 -682.97424 4294966614
165.61835 2753.7346 -682.96692 4294966614
95.488991 2757.1047 -682.57739 4294966614
97.581589 2758.429 -682.35535 4294966614
99.521523 2758.2341 -682.99603 4294966614
105.00048 2758.751 -682.46716 4294966614
107.32492 2758.7043 -682.34747 4294966614
335.69373 2699.707 -681.03156 4294966615
297.38376 2702.2949 -681.13342 4294966615
299.64233 2702.1743 -681.04327 4294966615
301.15671 2702.0513 -681.2066 4294966615
303.7262 2701.9348 -681.01373 4294966615
325.31271 2700.4524 -681.06641 4294966615
327.60541 2700.2644 -681.12579 4294966615
237.631 2705.884 -681.02338 4294966615
239.35988 2705.771 -681.07666 4294966615
249.31853 2705.2976 -681.05371 4294966615
261.21042 2704.5115 -681.08838 4294966615
279.28073 2703.5107 -681.01917 4294966615
283.2901 2703.2585 -681.02478 4294966615
223.46678 2706.8916 -681.09705 4294966615
227.44193 2706.6765 -681.09369 4294966615
229.50252 2706.5515 -681.03979 4294966615
147.31853 2711.8242 -681.98505 4294966615
149.47116 2711.6262 -681.95093 4294966615
151.60251 2711.489 -681.8858 4294966615
153.33203 2711.2529 -681.73029 4294966615
155.09529 2711.1274 -681.83673 4294966615
157.54288 2711.0266 -681.8056 4294966615
159.32033 2710.9407 -681.83704 4294966615
161.14349 2710.8916 -681.51984 4294966615
163.31085 2710.7805 -681.46143 4294966615
177.09708 2709.8914 -681.44659 4294966615
179.34769 2709.7559 -681.48914 4294966615
181.1051 2709.6902 -681.02667 4294966615
103.76878 2714.9805 -681.14758 4294966615
109.09602 2714.6382 -681.71057 4294966615
111.36877 2714.5452 -681.8728 4294966615
113.5919 2714.4224 -681.85681 4294966615
116.98746 2714.1169 -681.92639 4294966615
121.22891 2713.8342 -681.92426 4294966615
123.53762 2713.6523 -681.99011 4294966615
99.238754 2717.311 -681.2807 4294966615
101.46082 2715.438 -681.10809 4294966615
99.484619 2719.0017 -681.89063 4294966615
97.800041 2722.6433 -681.19702 4294966615
139.40773 2755.6995 -681.0531 4294966615
159.44551 2754.4131 -681.01923 4294966615
93.602211 2757.3618 -681.39917 4294966615
95.572594 2758.7031 -681.03009 4294966615
98.741737 2758.7639 -681.95233 4294966615
101.07333 2758.9204 -681.98724 4294966615
109.43845 2758.8049 -681.97131 4294966615
111.28765 2758.6697 -681.79681 4294966615
113.4121 2758.4778 -681.90784 4294966615
119.03104 2757.8281 -681.69257 4294966615
333.24539 2699.8894 -680.84637 4294966616
337.56653 2699.5791 -680.98047 4294966616
339.73087 2699.4045 -680.9978 4294966616
341.64279 2699.2385 -680.98938 4294966616
343.40317 2699.0962 -680.88696 4294966616
295.66107 2702.4543 -680.96301 4294966616
323.5267 2700.6047 -680.93823 4294966616
245.44615 2705.5337 -680.98615 4294966616
251.3389 2705.1746 -680.94678 4294966616
263.47461 2704.4241 -680.88129 4294966616
265.43945 2704.3354 -680.84802 4294966616
195.59123 2708.7021 -680.95801 4294966616
203.56947 2708.144 -680.89282 4294966616
225.58391 2706.7976 -680.98596 4294966616
105.19346 2714.4617 -680.05035 4294966616
107.13397 2714.3723 -680.26379 4294966616
108.92477 2714.3777 -680.59576 4294966616
111.36559 2714.0339 -680.1134 4294966616
113.35897 2714.1301 -680.13922 4294966616
97.239723 2717.6331 -680.46289 4294966616
99.596085 2715.6252 -680.43237 4294966616
97.244873 2718.821 -680.77057 4294966616
95.020889 2722.054 -680.11438 4294966616
335.41141 2741.75 -680.84412 4294966616
337.32977 2741.5459 -680.96704 4294966616
341.41592 2741.2766 -680.96649 4294966616
343.52634 2741.1567 -680.8623 4294966616
301.36407 2744.3103 -680.9527 4294966616
315.47623 2743.5269 -680.83289 4294966616
327.37787 2742.4885 -680.96826 4294966616
329.50204 2742.3999 -680.99768 4294966616
333.37881 2742.0049 -680.92487 4294966616
251.37509 2747.7161 -680.9079 4294966616
227.5863 2749.3662 -680.84552 4294966616
167.5192 2753.5549 -680.83392 4294966616
173.4818 2753.1042 -680.80328 4294966616
179.27861 2752.6929 -680.99969 4294966616
193.35226 2751.7588 -680.93066 4294966616
195.37244 2751.6235 -680.91339 4294966616
197.43835 2751.4858 -680.84467 4294966616
141.36359 2755.5283 -680.97742 4294966616
145.4342 2755.1472 -680.93768 4294966616
153.44148 2754.6289 -680.79156 4294966616
155.65619 2754.6125 -680.87946 4294966616
161.61925 2754.1853 -680.91565 4294966616
94.338867 2758.9377 -680.11176 4294966616
96.817772 2759.2185 -680.51398 4294966616
100.91105 2759.3528 -680.33923 4294966616
105.05232 2759.238 -680.03204 4294966616
157.52628 2711.5269 -679.03192 4294966617
159.3548 2711.4219 -679.0108 4294966617
101.10198 2714.8567 -679.4693 4294966617
115.8683 2713.9526 -679.02209 4294966617
119.95592 2713.6453 -679.83197 4294966617
123.24576 2713.5032 -679.8504 4294966617
125.3217 2713.3845 -679.84711 4294966617
127.41604 2713.3298 -679.38495 4294966617
129.39075 2713.1646 -679.82019 4294966617
131.30057 2713.0388 -679.74805 4294966617
133.41203 2712.9004 -679.64941 4294966617
135.418 2712.7964 -679.5163 4294966617
137.35695 2712.6919 -679.60168 4294966617
139.16734 2712.6296 -679.46259 4294966617
141.73589 2712.5261 -679.39899 4294966617
95.427155 2717.8989 -679.74207 4294966617
97.311348 2715.8804 -679.56311 4294966617
99.151558 2715.1746 -679.12054 4294966617
93.420944 2718.5955 -679.07037 4294966617
93.271942 2722.5864 -679.27362 4294966617
157.6752 2754.7988 -679.06769 4294966617
163.29639 2754.1101 -679.08881 4294966617
91.859337 2758.1333 -679.95081 4294966617
94.989418 2759.2351 -679.80695 4294966617
103.5972 2759.3743 -679.68585 4294966617
107.55182 2758.9597 -679.4129 4294966617
335.6496 2699.9963 -678.93317 4294966618
339.45316 2699.7327 -678.87366 4294966618
341.43558 2699.593 -678.76703 4294966618
293.51761 2702.9404 -678.76807 4294966618
295.52765 2702.8245 -678.67938 4294966618
300.79129 2702.4248 -678.7962 4294966618
303.54968 2702.2432 -678.78363 4294966618
305.1409 2702.1301 -678.86804 4294966618
319.85217 2701.1892 -678.70313 4294966618
