# .PCD v0.7 - Point Cloud Data file format
VERSION 0.7
FIELDS x y z rgba
SIZE 4 4 4 4
TYPE F F F U
COUNT 1 1 1 1
WIDTH 1147
HEIGHT 1
VIEWPOINT 0 0 0 1 0 0 0
POINTS 1147
DATA ascii
662.35693 3819.2983 -356.76053 4294966940
655.97095 3792.0596 -355.05325 4294966941
677.70288 3806.9119 -355.04178 4294966941
678.59296 3815.1736 -355.1192 4294966941
656.53558 3793.395 -354.56985 4294966942
657.54486 3794.7075 -354.94635 4294966942
670.33478 3794.5425 -354.65552 4294966942
673.02997 3794.0891 -354.97028 4294966942
674.65936 3794.4377 -354.89368 4294966942
660.07129 3796.0176 -354.95435 4294966942
676.45221 3795.259 -354.93307 4294966942
677.98004 3797.5 -354.77478 4294966942
678.09204 3799.8945 -354.79745 4294966942
677.94324 3802.4697 -354.93036 4294966942
677.89807 3808.9829 -354.7001 4294966942
678.47632 3811.8757 -354.79782 4294966942
664.27222 3818.7605 -354.96094 4294966942
674.84418 3818.8208 -354.90921 4294966942
676.52997 3818.0251 -354.77765 4294966942
677.60931 3817.2112 -354.91354 4294966942
662.44989 3819.3677 -354.80951 4294966942
672.70087 3819.1233 -354.73904 4294966942
659.56824 3822.9529 -354.9072 4294966942
659.8924 3826.0813 -354.79764 4294966942
656.46027 3793.3672 -353.06494 4294966943
669.58325 3794.8003 -353.02002 4294966943
673.24518 3794.2007 -353.05743 4294966943
678.37592 3811.8047 -353.02243 4294966943
664.13245 3818.8508 -353.07007 4294966943
655.73199 3790.8779 -352.83282 4294966944
674.71198 3794.5669 -352.86334 4294966944
660.24805 3796.177 -352.9285 4294966944
665.52271 3795.5718 -352.70969 4294966944
676.20331 3795.1978 -352.8472 4294966944
677.2644 3796.5471 -352.54773 4294966944
678.20074 3799.542 -352.78635 4294966944
677.64972 3804.7852 -352.94821 4294966944
678.5332 3815.2581 -352.74652 4294966944
667.0719 3818.856 -352.69626 4294966944
669.61182 3818.9902 -352.72745 4294966944
674.94812 3818.7107 -352.75879 4294966944
676.22968 3818.2078 -352.92773 4294966944
677.64728 3817.166 -352.74963 4294966944
660.64752 3820.6948 -352.94458 4294966944
662.33984 3819.522 -352.81906 4294966944
659.67847 3823.5188 -352.78351 4294966944
659.77264 3825.9644 -352.76529 4294966944
662.58392 3796.24 -351.11163 4294966945
678.4458 3815.8169 -351.02725 4294966945
674.60095 3818.8726 -351.0502 4294966945
655.53296 3789.8557 -350.97501 4294966946
655.9231 3792.1318 -350.93353 4294966946
656.47357 3793.6448 -350.98187 4294966946
657.35944 3794.7878 -350.95233 4294966946
669.47736 3794.8555 -350.60602 4294966946
673.0791 3794.5557 -350.58429 4294966946
674.7796 3794.6189 -350.93939 4294966946
659.08844 3795.7817 -350.8555 4294966946
677.237 3796.4883 -350.96841 4294966946
677.96423 3799.5088 -350.9364 4294966946
678.24756 3811.7422 -350.86035 4294966946
676.21423 3818.3564 -350.6842 4294966946
677.63397 3817.1499 -350.67639 4294966946
660.5033 3820.6492 -350.91669 4294966946
662.46838 3819.5261 -350.80518 4294966946
672.36853 3819.292 -350.66119 4294966946
659.44592 3823.5518 -350.76636 4294966946
659.72235 3826.1772 -350.85999 4294966946
656.38824 3793.6287 -349.125 4294966947
670.02429 3794.8918 -349.18051 4294966947
673.40668 3794.5562 -349.04718 4294966947
658.83301 3795.7766 -349.09262 4294966947
678.32391 3814.8057 -349.07031 4294966947
659.57495 3825.8308 -349.13449 4294966947
655.54224 3789.877 -348.90152 4294966948
655.85193 3792.1223 -348.91486 4294966948
674.90509 3794.5779 -348.82208 4294966948
657.44019 3795.0073 -348.65033 4294966948
660.39868 3796.1926 -348.81775 4294966948
665.28821 3795.7939 -348.99854 4294966948
667.67725 3795.2944 -348.68433 4294966948
676.52527 3795.3118 -348.89053 4294966948
677.49341 3796.9063 -348.89868 4294966948
677.89246 3799.6392 -348.63245 4294966948
677.64301 3809.0049 -348.88074 4294966948
678.1048 3811.4614 -348.93063 4294966948
674.68878 3818.9329 -348.37445 4294966948
675.86133 3818.4333 -348.56323 4294966948
677.59741 3817.1023 -348.81448 4294966948
662.50177 3819.5864 -348.73926 4294966948
664.04773 3819.0029 -348.71432 4294966948
667.3645 3819.0222 -348.71268 4294966948
669.50562 3819.1748 -348.79065 4294966948
672.15338 3819.3789 -348.74332 4294966948
659.87701 3822.3328 -348.64435 4294966948
657.26093 3794.9395 -347.03464 4294966949
660.20715 3796.2305 -347.04846 4294966949
662.39032 3796.3267 -347.01547 4294966949
676.69159 3795.4451 -347.38849 4294966949
678.12842 3811.8467 -347.22018 4294966949
669.45435 3819.2742 -347.04086 4294966949
655.57813 3789.3289 -346.94556 4294966950
656.41003 3793.8186 -346.91986 4294966950
670.01221 3794.947 -346.85519 4294966950
673.13239 3794.6179 -346.90918 4294966950
659.13904 3795.9746 -346.6973 4294966950
665.17792 3795.8867 -346.82748 4294966950
677.73145 3797.4346 -346.74826 4294966950
677.80811 3799.0698 -346.80994 4294966950
678.23022 3815.0171 -346.90796 4294966950
675.81982 3818.511 -346.92175 4294966950
677.56262 3817.0828 -346.91382 4294966950
660.83588 3820.7141 -346.95728 4294966950
662.58557 3819.623 -346.81567 4294966950
667.12982 3819.0923 -346.7807 4294966950
672.22894 3819.4929 -346.70956 4294966950
659.40985 3823.4143 -346.88391 4294966950
659.60248 3826.0017 -346.45795 4294966950
655.75146 3792.0476 -345.02066 4294966951
656.26007 3793.698 -345.10803 4294966951
670.09094 3794.9868 -345.17322 4294966951
659.84991 3796.2734 -345.26584 4294966951
678.06519 3815.7817 -345.04453 4294966951
662.63947 3819.6631 -345.02371 4294966951
664.12708 3819.0522 -345.03131 4294966951
667.25848 3819.1538 -345.02719 4294966951
659.50513 3825.8027 -345.09244 4294966951
673.48334 3794.7227 -344.60339 4294966952
674.94751 3794.6094 -344.68774 4294966952
657.39502 3795.2573 -344.83871 4294966952
662.41876 3796.4688 -344.81326 4294966952
667.38629 3795.5107 -344.71964 4294966952
677.50977 3796.8577 -344.88602 4294966952
677.80432 3798.2878 -344.86563 4294966952
677.41901 3801.1633 -344.02777 4294966952
677.87573 3811.343 -344.23358 4294966952
678.22351 3814.0867 -344.80054 4294966952
675.88483 3818.5281 -344.69107 4294966952
677.43256 3817.1948 -344.80609 4294966952
660.7782 3820.761 -344.97028 4294966952
669.56671 3819.3564 -344.81598 4294966952
672.57947 3819.6162 -344.44937 4294966952
674.62286 3819.0767 -344.76886 4294966952
659.47986 3823.7268 -344.64893 4294966952
655.72852 3792.1653 -343.11462 4294966953
676.67603 3795.6284 -343.0304 4294966953
675.79144 3818.6116 -343.10617 4294966953
672.30627 3819.6812 -343.02661 4294966953
656.24054 3793.9854 -342.59436 4294966954
673.59491 3794.8201 -342.94299 4294966954
657.23779 3795.3018 -342.86679 4294966954
658.93719 3796.1519 -342.89468 4294966954
660.17621 3796.4219 -342.70749 4294966954
670.48889 3795.0332 -342.87537 4294966954
677.08185 3797.9438 -342.90927 4294966954
677.45007 3804.7651 -342.27094 4294966954
677.65454 3808.4521 -342.42841 4294966954
677.91162 3815.2126 -342.72815 4294966954
677.37866 3817.2292 -342.94327 4294966954
660.63843 3820.9089 -342.84348 4294966954
662.21686 3819.8462 -342.7811 4294966954
664.09387 3819.134 -342.85138 4294966954
667.3493 3819.3174 -342.83279 4294966954
669.49866 3819.4631 -342.82761 4294966954
674.53833 3819.2117 -342.81488 4294966954
659.36499 3825.8469 -342.6983 4294966954
662.30396 3796.5701 -341.13525 4294966955
665.22839 3796.124 -341.16141 4294966955
673.60895 3795.4441 -341.04453 4294966955
675.87341 3796.5603 -341.08533 4294966955
677.66577 3808.1563 -341.3696 4294966955
677.89996 3811.634 -341.16452 4294966955
660.75769 3820.8062 -341.11053 4294966955
667.27728 3819.3003 -341.15738 4294966955
659.26459 3825.6453 -341.02286 4294966955
657.10632 3795.4128 -340.82599 4294966956
659.68628 3796.4756 -340.85452 4294966956
667.46753 3795.6589 -340.63623 4294966956
669.27551 3795.3799 -340.71338 4294966956
676.50269 3798.8508 -340.02124 4294966956
677.21466 3802.488 -340.32755 4294966956
677.60767 3806.7668 -340.5878 4294966956
677.55261 3815.9927 -340.92426 4294966956
675.79071 3818.6721 -340.78613 4294966956
677.31689 3817.262 -340.83795 4294966956
662.18298 3819.9055 -340.89319 4294966956
669.55225 3819.5073 -340.88162 4294966956
672.5979 3819.7766 -340.80716 4294966956
674.70044 3819.1968 -340.76666 4294966956
659.4668 3822.4216 -340.96823 4294966956
670.95648 3795.4221 -339.6908 4294966957
672.93781 3795.5129 -339.32547 4294966957
674.23822 3795.9675 -339.01187 4294966957
675.51312 3796.9558 -339.11166 4294966957
677.4649 3804.7778 -339.50195 4294966957
677.83807 3808.9819 -339.96368 4294966957
677.17548 3816.6262 -339.35385 4294966957
655.68158 3792.6262 -338.98703 4294966958
656.02795 3794.0195 -338.85016 4294966958
656.99731 3795.5435 -338.98141 4294966958
659.4389 3796.551 -338.95602 4294966958
662.97363 3796.5171 -338.71304 4294966958
667.66681 3795.6685 -338.97992 4294966958
672.36273 3795.6543 -338.07574 4294966958
675.50293 3797.4617 -338.05844 4294966958
677.21234 3802.9438 -338.59918 4294966958
677.74384 3806.6089 -338.16403 4294966958
678.06946 3811.2393 -338.64511 4294966958
677.78156 3814.2917 -338.84073 4294966958
676.11621 3818.5422 -338.86841 4294966958
660.646 3820.9226 -338.91083 4294966958
663.79297 3819.3486 -338.58347 4294966958
667.13214 3819.5059 -338.50467 4294966958
669.5929 3819.5752 -338.98703 4294966958
672.58386 3819.8547 -338.86304 4294966958
674.82141 3819.2417 -338.27344 4294966958
659.04181 3825.6812 -338.82678 4294966958
655.88239 3794.0669 -337.11288 4294966959
659.81921 3796.6997 -337.05228 4294966959
669.88977 3795.7017 -337.44385 4294966959
673.59503 3796.0869 -337.38812 4294966959
674.73096 3796.5588 -337.86465 4294966959
675.84869 3798.5513 -337.56152 4294966959
676.65283 3800.6377 -337.78677 4294966959
677.41718 3804.366 -337.72983 4294966959
678.11707 3809.1941 -337.46979 4294966959
678.22382 3812.4595 -337.36505 4294966959
676.90393 3816.8989 -337.36758 4294966959
667.28839 3819.5044 -337.07367 4294966959
669.57184 3819.6946 -337.11615 4294966959
659.17975 3825.7358 -337.28882 4294966959
658.38672 3796.4778 -336.85013 4294966960
662.64441 3796.6418 -336.86032 4294966960
666.37958 3796.0964 -336.59274 4294966960
671.95251 3795.9858 -336.26038 4294966960
674.27185 3797.1099 -336.22052 4294966960
675.72614 3799.2134 -336.02878 4294966960
676.40808 3800.6907 -336.05377 4294966960
677.60425 3805.1848 -336.56693 4294966960
678.31696 3811.0103 -336.96799 4294966960
678.13965 3813.6331 -336.48071 4294966960
676.15918 3818.5144 -336.65729 4294966960
660.5708 3821.0483 -336.88446 4294966960
672.63672 3819.9458 -336.61734 4294966960
659.25067 3823.6194 -336.79272 4294966960
655.26892 3792.7813 -335.0553 4294966961
656.33978 3795.2202 -335.03427 4294966961
657.25928 3796.1411 -335.51962 4294966961
659.48926 3796.7563 -335.22867 4294966961
669.461 3795.9102 -335.36865 4294966961
677.03088 3802.7671 -335.94254 4294966961
677.67255 3805.168 -335.18265 4294966961
678.06879 3807.3784 -335.68039 4294966961
678.42236 3811.1216 -335.67908 4294966961
677.56549 3815.4382 -335.61429 4294966961
676.33691 3817.5999 -335.07828 4294966961
660.72809 3820.9956 -335.08035 4294966961
672.53784 3820.0105 -335.12869 4294966961
667.19635 3796.1292 -334.52716 4294966962
670.21033 3796.0654 -334.05545 4294966962
671.22296 3796.0588 -334.75357 4294966962
672.52637 3796.3928 -334.95386 4294966962
673.3537 3797.0313 -334.40549 4294966962
674.61658 3798.3523 -334.19443 4294966962
675.97522 3800.397 -334.64566 4294966962
678.24445 3813.6658 -334.74222 4294966962
664.29736 3819.4404 -334.91708 4294966962
669.58704 3819.8557 -334.89709 4294966962
674.58173 3819.4272 -334.90085 4294966962
659.19666 3823.7625 -334.73685 4294966962
659.13208 3825.6975 -334.65332 4294966962
655.65271 3794.1978 -333.15747 4294966963
660.30811 3796.9368 -333.1474 4294966963
663.77301 3796.541 -333.99612 4294966963
668.78601 3796.0552 -333.90591 4294966963
669.59436 3796.2397 -333.03098 4294966963
671.7901 3796.689 -333.10141 4294966963
673.42603 3797.4268 -333.52219 4294966963
676.46057 3801.8904 -333.33395 4294966963
677.40424 3804.175 -333.74686 4294966963
678.0249 3806.4771 -333.77679 4294966963
678.43671 3809.186 -333.3031 4294966963
678.51569 3811.7922 -333.96881 4294966963
677.88513 3814.9614 -333.76715 4294966963
677.09497 3816.4485 -333.1745 4294966963
672.49695 3820.1292 -333.02109 4294966963
659.20374 3823.7307 -333.07211 4294966963
659.10071 3825.6672 -333.08942 4294966963
657.00757 3796.1711 -332.6947 4294966964
667.35931 3796.3691 -332.3251 4294966964
675.20172 3799.7874 -332.73041 4294966964
677.84131 3805.5767 -332.23499 4294966964
678.2782 3807.4949 -332.21039 4294966964
677.80139 3815.2051 -332.55988 4294966964
678.25897 3813.7354 -332.76642 4294966964
675.53845 3818.3257 -332.96881 4294966964
660.96667 3820.8965 -332.92957 4294966964
664.25647 3819.5305 -332.94479 4294966964
667.42596 3819.7258 -332.797 4294966964
659.55756 3822.6321 -332.79459 4294966964
656.10565 3795.283 -331.22037 4294966965
658.28467 3796.7852 -331.02014 4294966965
660.08435 3797.0254 -331.06778 4294966965
664.74359 3796.6462 -331.14987 4294966965
669.79639 3796.5415 -331.57437 4294966965
671.12 3796.9099 -331.17615 4294966965
675.76672 3801.1511 -331.2561 4294966965
676.99402 3803.3821 -331.82925 4294966965
678.46625 3811.7012 -331.59857 4294966965
677.5965 3815.4856 -331.5466 4294966965
678.15704 3813.7046 -331.06305 4294966965
655.12018 3792.1714 -330.78204 4294966966
662.68378 3796.8289 -330.94919 4294966966
668.58301 3796.6108 -330.38776 4294966966
672.40814 3797.7112 -330.62982 4294966966
674.25177 3799.2297 -330.83765 4294966966
677.55927 3804.9983 -330.50589 4294966966
678.14691 3806.8755 -330.98038 4294966966
678.42065 3809.1616 -330.36575 4294966966
675.83508 3818.7776 -330.96747 4294966966
676.62872 3817.2466 -330.83508 4294966966
660.78308 3821.0762 -330.86874 4294966966
664.28906 3819.6501 -330.76257 4294966966
667.27576 3819.8718 -330.89966 4294966966
669.54871 3820.0466 -330.92114 4294966966
672.60699 3820.0776 -330.88559 4294966966
659.37732 3823.1379 -330.74432 4294966966
658.87445 3825.7034 -330.68402 4294966966
658.44769 3797.0339 -329.11441 4294966967
666.84241 3796.7134 -329.18039 4294966967
668.70801 3796.7825 -329.17307 4294966967
670.32275 3797.0767 -329.47437 4294966967
673.31616 3798.8254 -329.06424 4294966967
674.82611 3800.4771 -329.16168 4294966967
676.44427 3802.7366 -329.85211 4294966967
678.02722 3806.7832 -329.3255 4294966967
678.30231 3812.0313 -329.7674 4294966967
677.49237 3815.282 -329.67419 4294966967
660.85663 3821.0786 -329.01526 4294966967
654.98401 3791.9849 -328.95648 4294966968
655.34204 3793.9453 -328.91306 4294966968
656.0528 3795.4509 -328.63251 4294966968
657.17664 3796.4497 -328.80533 4294966968
660.18683 3797.1199 -328.38928 4294966968
663.63818 3796.8757 -328.82968 4294966968
671.99548 3798.0432 -328.517 4294966968
677.23663 3804.5823 -328.68854 4294966968
678.23621 3811.0952 -328.1391 4294966968
676.33948 3817.9053 -328.78796 4294966968
664.28387 3819.7537 -328.74796 4294966968
667.43134 3819.9224 -328.83478 4294966968
669.79846 3820.208 -328.84897 4294966968
672.64929 3820.3257 -328.70096 4294966968
674.39142 3819.688 -328.67618 4294966968
659.12787 3823.7798 -328.86737 4294966968
659 3825.6658 -328.96237 4294966968
669.08319 3797.0901 -327.56451 4294966969
670.99847 3797.7908 -327.48215 4294966969
675.79968 3802.303 -327.77649 4294966969
677.77368 3806.2744 -327.73944 4294966969
678.15894 3808.5039 -327.54333 4294966969
677.65833 3813.8396 -327.12589 4294966969
654.92303 3788.9043 -326.80215 4294966970
654.89697 3791.9656 -326.82773 4294966970
655.28717 3794.054 -326.87375 4294966970
655.94293 3795.3618 -326.75998 4294966970
656.87018 3796.4001 -326.88641 4294966970
658.58551 3797.0928 -326.86783 4294966970
662.59991 3797.0801 -326.72287 4294966970
665.35437 3796.9277 -326.56729 4294966970
667.43835 3796.916 -326.84247 4294966970
670.67395 3797.8655 -326.08658 4294966970
673.24622 3799.5293 -326.48099 4294966970
676.97906 3804.5457 -326.89056 4294966970
677.67755 3806.72 -326.15292 4294966970
678.14233 3810.0981 -326.58398 4294966970
675.9743 3818.5737 -326.78275 4294966970
676.91266 3816.3789 -326.98773 4294966970
660.53564 3821.3167 -326.83362 4294966970
662.27405 3820.3931 -326.74258 4294966970
667.48102 3820.0188 -326.87653 4294966970
670.23535 3820.3469 -326.58759 4294966970
672.56146 3820.2407 -326.89911 4294966970
674.40454 3819.678 -326.55881 4294966970
659.26501 3823.2197 -326.74231 4294966970
658.9447 3825.6409 -326.90414 4294966970
654.80878 3789.4653 -325.01349 4294966971
654.82233 3792.0728 -325.06982 4294966971
655.78943 3795.2275 -325.05319 4294966971
667.00836 3796.9741 -325.57733 4294966971
675.71497 3802.6411 -325.70493 4294966971
676.98328 3804.9929 -325.20203 4294966971
677.94006 3811.573 -325.92508 4294966971
659.72467 3822.1865 -325.04361 4294966971
655.20764 3794.0728 -324.74295 4294966972
656.79871 3796.4597 -324.80228 4294966972
660.23883 3797.417 -324.63147 4294966972
663.45776 3797.1497 -324.88995 4294966972
668.76672 3797.2588 -324.99673 4294966972
671.2937 3798.2205 -324.30115 4294966972
677.47754 3806.792 -324.59125 4294966972
677.81476 3809.1091 -324.78854 4294966972
677.70642 3811.5264 -324.18591 4294966972
676.99896 3815.6523 -324.92838 4294966972
677.47949 3813.4988 -324.61761 4294966972
675.76764 3818.7102 -324.83069 4294966972
676.62909 3817.2969 -324.82458 4294966972
660.93329 3821.0735 -324.77512 4294966972
662.16986 3820.4775 -324.91574 4294966972
664.3363 3819.9202 -324.87585 4294966972
667.41705 3820.1404 -324.93253 4294966972
670.1532 3820.4185 -324.84158 4294966972
672.63574 3820.2583 -324.90222 4294966972
659.02399 3823.7368 -324.70938 4294966972
655.09552 3793.9858 -323.24844 4294966973
666.14618 3797.0974 -323.68954 4294966973
673.11359 3799.4795 -323.33035 4294966973
674.73914 3801.4214 -323.93817 4294966973
676.16779 3803.7168 -323.88934 4294966973
676.97797 3805.5952 -323.78204 4294966973
676.32275 3817.196 -323.53918 4294966973
662.03351 3820.4399 -323.01929 4294966973
664.40759 3820.0271 -323.0126 4294966973
654.67938 3790.4585 -322.88232 4294966974
655.68414 3795.3074 -322.82898 4294966974
656.82751 3796.636 -322.74686 4294966974
658.44678 3797.3376 -322.91614 4294966974
660.21472 3797.5837 -322.95547 4294966974
662.64233 3797.3784 -322.71545 4294966974
668.25305 3797.1841 -322.99753 4294966974
669.90851 3797.5503 -322.612 4294966974
671.72101 3798.3384 -322.29779 4294966974
675.56677 3802.9268 -322.21201 4294966974
676.49371 3805.0464 -322.37717 4294966974
677.30188 3808.1079 -322.78143 4294966974
677.40393 3811.6506 -322.74933 4294966974
676.86523 3815.1484 -322.69565 4294966974
675.62317 3818.7261 -322.99927 4294966974
670.55273 3820.5308 -322.97702 4294966974
672.52631 3820.3232 -322.76511 4294966974
659.56903 3822.3965 -322.76611 4294966974
658.62054 3825.573 -322.97495 4294966974
654.54596 3791.967 -321.01675 4294966975
665.11377 3797.2258 -321.22745 4294966975
674.37115 3800.9492 -321.81866 4294966975
677.02454 3813.7864 -321.45966 4294966975
675.90741 3817.4026 -321.1637 4294966975
654.92786 3794.0535 -320.58545 4294966976
655.53802 3795.2793 -320.94937 4294966976
656.52307 3796.5166 -320.96326 4294966976
660.02594 3797.8438 -320.98001 4294966976
662.88257 3797.4988 -320.5654 4294966976
668.05017 3797.1934 -320.7095 4294966976
671.00653 3797.7927 -320.30576 4294966976
673.00409 3799.198 -320.88458 4294966976
675.19727 3802.4497 -320.36786 4294966976
675.98389 3804.4292 -320.63522 4294966976
676.59473 3806.5215 -320.89737 4294966976
676.95886 3809.0339 -320.86429 4294966976
677.08911 3811.8997 -320.98029 4294966976
676.69122 3814.6838 -320.40323 4294966976
660.91907 3821.2117 -320.85419 4294966976
664.33728 3820.1418 -320.84552 4294966976
667.50275 3820.3389 -320.89658 4294966976
670.33423 3820.6226 -320.84723 4294966976
672.6283 3820.3372 -320.79294 4294966976
674.10242 3819.7773 -320.78824 4294966976
672.53827 3798.4541 -319.08685 4294966977
673.54291 3799.4424 -319.03809 4294966977
674.29193 3800.7153 -319.83569 4294966977
676.54016 3807.5664 -319.7243 4294966977
676.74969 3811.6931 -319.30673 4294966977
654.28412 3791.8345 -318.79514 4294966978
654.8515 3794.1411 -318.92334 4294966978
655.44421 3795.2891 -318.97266 4294966978
656.68018 3796.7256 -318.76065 4294966978
658.32074 3797.5293 -318.83698 4294966978
660.06696 3797.9209 -318.92871 4294966978
665.68732 3797.2239 -318.51819 4294966978
669.89258 3797.2322 -318.78903 4294966978
671.61304 3797.6921 -318.17191 4294966978
675.30701 3802.9397 -318.6756 4294966978
676.1153 3806.0144 -318.84421 4294966978
676.35785 3808.6812 -318.17328 4294966978
676.51001 3814.3342 -318.57446 4294966978
675.44281 3818.7813 -318.95114 4294966978
676.13391 3816.6409 -318.83438 4294966978
662.28235 3820.7195 -318.90509 4294966978
664.39044 3820.2659 -318.72858 4294966978
667.38843 3820.4624 -318.90125 4294966978
669.62238 3820.6675 -318.74084 4294966978
672.32758 3820.4009 -318.85703 4294966978
673.92786 3819.8406 -318.79834 4294966978
659.45691 3822.5691 -318.97852 4294966978
658.70422 3825.625 -318.78 4294966978
654.28308 3790.6001 -317.16544 4294966979
655.198 3795.3486 -317.29813 4294966979
668.2583 3797.0339 -317.84436 4294966979
670.48877 3797.1096 -317.02667 4294966979
673.44305 3798.8457 -317.05859 4294966979
674.328 3800.5156 -317.96652 4294966979
675.34662 3803.1265 -317.56677 4294966979
676.35333 3811.9375 -317.13043 4294966979
667.00507 3820.5691 -317.00772 4294966979
658.88898 3823.7942 -317.10266 4294966979
654.74237 3794.019 -316.98401 4294966980
668.89722 3796.9014 -316.0824 4294966980
672.53516 3797.7473 -316.48062 4294966980
674.38702 3800.3394 -316.68973 4294966980
674.98413 3801.8892 -316.34384 4294966980
675.73474 3805.5684 -316.58746 4294966980
676.2594 3815.0669 -316.9201 4294966980
675.61096 3818.3711 -316.90826 4294966980
660.98633 3821.3318 -316.6846 4294966980
662.24017 3820.7813 -316.99127 4294966980
664.54718 3820.3865 -316.9151 4294966980
670.00653 3820.8003 -316.96396 4294966980
673.6416 3820.0566 -316.70282 4294966980
666.6579 3797.085 -315.71783 4294966981
670.5249 3796.8914 -315.30374 4294966981
671.93793 3797.2722 -315.80933 4294966981
673.57288 3798.2671 -315.53442 4294966981
674.28259 3799.5298 -315.33557 4294966981
675.66626 3806.001 -315.30151 4294966981
676.12781 3814.7253 -315.20633 4294966981
660.80676 3821.4963 -315.08258 4294966981
664.78278 3820.5002 -315.03345 4294966981
670.53943 3820.9219 -315.18341 4294966981
654.10547 3791.7957 -314.56232 4294966982
654.73627 3794.0601 -314.70578 4294966982
656.5639 3796.7959 -314.95868 4294966982
668.69464 3796.8101 -314.16437 4294966982
672.08398 3797.0869 -314.35995 4294966982
673.03381 3797.665 -314.87759 4294966982
673.85791 3798.3901 -314.24435 4294966982
675.25787 3803.0288 -314.91147 4294966982
675.82483 3808.4636 -314.86658 4294966982
675.90881 3817.9485 -314.95572 4294966982
662.21838 3820.8794 -314.81631 4294966982
667.21295 3820.6399 -314.88751 4294966982
674.04938 3819.9998 -314.78732 4294966982
658.83905 3823.7954 -314.89828 4294966982
659.57849 3822.4639 -314.914 4294966982
654.4082 3793.6985 -313.01801 4294966983
655.1825 3795.2158 -313.11795 4294966983
670.91901 3796.7488 -313.94116 4294966983
673.20929 3797.6687 -313.01819 4294966983
674.46497 3799.4905 -313.91431 4294966983
674.95001 3801.394 -313.77982 4294966983
675.36298 3804.4382 -313.27197 4294966983
676.07391 3813.7175 -313.19211 4294966983
656.43781 3796.6882 -312.99594 4294966984
665.37402 3797.1965 -312.52338 4294966984
667.95404 3796.6719 -312.55942 4294966984
670.72028 3796.4971 -312.66653 4294966984
672.49146 3796.7544 -312.91049 4294966984
674.46289 3799.4492 -312.38864 4294966984
675.91956 3817.9365 -312.89731 4294966984
660.80731 3821.5693 -312.79968 4294966984
662.245 3820.9812 -312.87509 4294966984
667.78918 3820.8132 -312.98004 4294966984
672.63434 3820.7249 -312.88733 4294966984
674.13959 3820.2568 -312.76535 4294966984
675.27606 3819.1741 -312.70819 4294966984
659.40399 3822.7173 -312.98166 4294966984
654.23779 3793.5728 -310.86734 4294966986
655.05005 3795.1672 -310.73798 4294966986
658.49121 3797.7507 -310.90878 4294966986
668.39307 3796.6492 -310.77524 4294966986
670.60455 3796.647 -310.92758 4294966986
672.33051 3796.9829 -310.83728 4294966986
674.41888 3799.0806 -310.82391 4294966986
675.00977 3801.458 -310.92517 4294966986
675.90039 3813.6333 -310.89853 4294966986
662.18884 3820.9836 -310.92712 4294966986
667.55804 3821.0259 -310.98862 4294966986
670.46381 3821.2505 -310.85526 4294966986
675.29913 3819.2524 -310.93539 4294966986
658.72595 3823.895 -310.66415 4294966986
654.90393 3795.1355 -309.05063 4294966987
675.20374 3801.6572 -309.02481 4294966987
675.77917 3813.7136 -309.17044 4294966987
675.98956 3816.8413 -309.08752 4294966987
660.83673 3821.7341 -309.03662 4294966987
670.68121 3821.4041 -309.01489 4294966987
674.38873 3820.3745 -309.45224 4294966987
655.71576 3796.3408 -308.61282 4294966988
657.2677 3797.522 -308.65839 4294966988
668.16949 3796.7493 -308.80957 4294966988
672.21368 3797.1633 -308.84259 4294966988
674.73596 3799.657 -308.84186 4294966988
675.29218 3810.9172 -308.70822 4294966988
662.35931 3821.1582 -308.86243 4294966988
664.57288 3820.8279 -308.72849 4294966988
667.70746 3821.1448 -308.75034 4294966988
672.79669 3820.9814 -308.77081 4294966988
675.38599 3819.1379 -308.92264 4294966988
659.41815 3822.8276 -308.98196 4294966988
653.95575 3793.8694 -307.16272 4294966989
668.20032 3796.8176 -307.03552 4294966989
669.9895 3796.906 -307.49716 4294966989
654.69769 3795.3093 -306.94559 4294966990
655.83734 3796.833 -306.69901 4294966990
657.29486 3797.6807 -306.90344 4294966990
671.85559 3797.27 -306.83023 4294966990
674.52429 3799.731 -306.87488 4294966990
675.15778 3801.3923 -306.53995 4294966990
675.58398 3813.5732 -306.87912 4294966990
675.85529 3817.498 -306.78784 4294966990
662.38464 3821.269 -306.63104 4294966990
664.64386 3820.9333 -306.77045 4294966990
667.32489 3821.1016 -306.82755 4294966990
670.76086 3821.4783 -306.82834 4294966990
674.35022 3820.5203 -306.96283 4294966990
675.29144 3819.27 -306.92426 4294966990
658.59674 3824.1489 -306.81122 4294966990
659.646 3822.7048 -306.69656 4294966990
655.62012 3796.9302 -305.08148 4294966991
671.68823 3797.3408 -305.08359 4294966991
658.55902 3824.3721 -305.01956 4294966991
654.53174 3795.4634 -304.71057 4294966992
665.41956 3797.5249 -304.92068 4294966992
668.492 3796.8428 -304.55173 4294966992
670.74835 3797.135 -304.52881 4294966992
658.43152 3798.2024 -304.92361 4294966992
660.55383 3798.4785 -304.8707 4294966992
675.48322 3813.7681 -304.97919 4294966992
675.85767 3816.1289 -304.74445 4294966992
662.37915 3821.2012 -304.75845 4294966992
664.51282 3820.9875 -304.69458 4294966992
667.66241 3821.269 -304.9516 4294966992
670.76392 3821.5 -304.78799 4294966992
672.92737 3820.9993 -304.69873 4294966992
674.21649 3820.5107 -304.79947 4294966992
675.18555 3819.2288 -304.91425 4294966992
659.49371 3822.9683 -304.82574 4294966992
658.05774 3827.6423 -304.92435 4294966992
654.48395 3795.8281 -303.00406 4294966993
665.6532 3797.4949 -303.14944 4294966993
662.58044 3821.3469 -303.00177 4294966993
653.54443 3791.9465 -302.58472 4294966994
655.33514 3796.9966 -302.66257 4294966994
663.336 3797.8994 -302.99994 4294966994
668.61176 3796.8689 -302.6134 4294966994
671.87305 3797.5366 -302.86734 4294966994
658.12122 3798.2515 -302.77347 4294966994
660.47095 3798.5117 -302.98569 4294966994
673.42719 3798.6611 -302.92831 4294966994
674.78717 3801.5657 -302.57739 4294966994
675.38977 3814.7065 -302.78009 4294966994
675.36603 3818.21 -302.86523 4294966994
660.96942 3821.9683 -302.98312 4294966994
664.85529 3821.0422 -302.9606 4294966994
667.89203 3821.3164 -302.79828 4294966994
670.62177 3821.4878 -302.67154 4294966994
672.73486 3821.0046 -302.93607 4294966994
674.98492 3819.2324 -302.81259 4294966994
658.52844 3824.5168 -302.99677 4294966994
659.45508 3823.0916 -302.82501 4294966994
663.28192 3797.8821 -301.2005 4294966995
660.58826 3798.4631 -301.11404 4294966995
653.64783 3794.2483 -300.94315 4294966996
655.336 3797.2024 -300.87231 4294966996
666.17316 3797.397 -300.61642 4294966996
668.59973 3796.9946 -300.84735 4294966996
670.63177 3797.2371 -300.63837 4294966996
671.47675 3797.5146 -300.7861 4294966996
656.74963 3798.021 -300.76981 4294966996
673.1543 3798.5564 -300.83667 4294966996
674.55463 3801.4395 -300.71332 4294966996
675.11737 3813.6304 -300.79129 4294966996
675.28119 3817.3813 -300.79126 4294966996
662.25342 3821.3965 -300.81808 4294966996
664.92542 3821.114 -300.91293 4294966996
667.44165 3821.355 -300.86749 4294966996
670.58008 3821.4819 -300.96793 4294966996
672.6178 3820.885 -300.63229 4294966996
674.12787 3820.2319 -300.85294 4294966996
658.54175 3824.4763 -300.82724 4294966996
659.08075 3823.5718 -300.85355 4294966996
657.88464 3827.7224 -300.98172 4294966996
658.16394 3825.7607 -300.77368 4294966996
653.69232 3794.6365 -299.19397 4294966997
655.06451 3797.1072 -299.01501 4294966997
663.49994 3797.875 -299.03748 4294966997
660.92975 3798.3235 -299.01059 4294966997
668.80853 3797.1086 -298.88989 4294966998
671.83136 3797.7715 -298.70938 4294966998
658.06079 3798.3918 -298.65915 4294966998
672.92474 3798.6599 -298.7121 4294966998
674.22162 3801.7349 -298.93436 4294966998
674.40802 3804.0046 -298.85443 4294966998
675.18835 3817.0073 -298.90491 4294966998
662.51355 3821.4143 -298.94894 4294966998
665.08685 3821.2205 -298.76736 4294966998
667.43579 3821.4521 -298.91214 4294966998
672.52026 3820.8188 -298.99121 4294966998
673.66107 3820.1487 -298.64621 4294966998
674.57776 3819.0642 -298.7431 4294966998
658.56555 3824.6074 -298.763 4294966998
660.88544 3822.1633 -298.82043 4294966998
657.85913 3827.7168 -298.95044 4294966998
656.55835 3798.1555 -297.0336 4294966999
657.99054 3798.4226 -297.18979 4294966999
658.0307 3825.8181 -297.01016 4294966999
654.55005 3796.5525 -296.91785 4294967000
663.03296 3797.9475 -296.84946 4294967000
666.40033 3797.3635 -296.55627 4294967000
668.67706 3797.2124 -296.66418 4294967000
671.50891 3797.897 -296.82059 4294967000
673.37085 3799.9043 -296.9328 4294967000
674.10168 3805.3779 -296.73132 4294967000
674.8559 3817.9641 -296.94849 4294967000
662.57385 3821.563 -296.73672 4294967000
672.40479 3820.8315 -296.91434 4294967000
674.1311 3819.4077 -296.8923 4294967000
659.03815 3823.9839 -296.98709 4294967000
657.88611 3827.7539 -296.99966 4294967000
657.78595 3798.4707 -295.14221 4294967001
654.41846 3796.7102 -294.89423 4294967002
663.62646 3797.9282 -294.96075 4294967002
665.90625 3797.4683 -294.88422 4294967002
670.34656 3797.7075 -294.82266 4294967002
656.41907 3798.2759 -294.96548 4294967002
661.13806 3798.3083 -294.96744 4294967002
672.1958 3798.7993 -294.95511 4294967002
673.00958 3799.9976 -294.7442 4294967002
673.9408 3803.9387 -294.69827 4294967002
674.88983 3817.6975 -294.85394 4294967002
667.61011 3821.6472 -294.76727 4294967002
671.79956 3821.0632 -294.819 4294967002
673.69897 3819.7212 -294.94958 4294967002
659.1051 3823.8962 -294.92072 4294967002
661.19415 3822.3313 -294.72592 4294967002
657.99847 3827.8611 -294.74786 4294967002
663.32837 3797.9524 -293.11734 4294967003
657.58612 3798.7803 -293.08389 4294967003
661.2254 3798.498 -293.11432 4294967003
657.97473 3827.7461 -293.05945 4294967003
653.91113 3796.177 -292.96106 4294967004
654.76447 3797.5527 -292.75983 4294967004
666.25208 3797.459 -292.77466 4294967004
670.15424 3797.9746 -292.42114 4294967004
672.78284 3800.2974 -292.77887 4294967004
673.38757 3801.7498 -292.9039 4294967004
673.72925 3804.0593 -292.90271 4294967004
674.52887 3815.1328 -292.84964 4294967004
674.63409 3817.9851 -292.97311 4294967004
665.36749 3821.5876 -292.77521 4294967004
670.27191 3821.6663 -292.87268 4294967004
671.64319 3821.1521 -292.87421 4294967004
659.25159 3823.8586 -292.90652 4294967004
653.42249 3794.689 -291.11829 4294967005
672.56433 3820.6001 -291.02185 4294967005
653.74847 3796.231 -290.82568 4294967006
666.05341 3797.5774 -290.69479 4294967006
655.22662 3798.1663 -290.75546 4294967006
657.95935 3798.8179 -290.62457 4294967006
661.33887 3798.4248 -290.59946 4294967006
663.67352 3798.0549 -290.60345 4294967006
671.48846 3799.01 -290.93976 4294967006
672.47473 3800.4194 -290.7594 4294967006
673.45673 3803.9392 -290.87982 4294967006
673.4137 3806.6277 -290.92657 4294967006
673.83301 3818.9724 -290.9375 4294967006
674.45972 3816.0703 -290.92438 4294967006
662.61029 3821.9033 -290.85233 4294967006
665.09082 3821.7048 -290.71317 4294967006
668.15607 3821.9673 -290.78918 4294967006
670.50708 3821.7 -290.98975 4294967006
661.01971 3822.5339 -290.63715 4294967006
658.15625 3825.9573 -290.88162 4294967006
672.28094 3800.469 -289.332 4294967007
673.48749 3811.1902 -289.17642 4294967007
653.05402 3791.6921 -288.99875 4294967008
653.13995 3794.1113 -288.92816 4294967008
653.57428 3796.2192 -288.86649 4294967008
654.20435 3797.3123 -288.88556 4294967008
666.45276 3797.5518 -288.93997 4294967008
668.34247 3797.8616 -288.69577 4294967008
659.2193 3798.8684 -288.01642 4294967008
661.62994 3798.436 -288.99951 4294967008
669.70929 3798.2444 -288.79343 4294967008
671.69537 3799.6926 -288.88019 4294967008
672.8429 3801.917 -288.82001 4294967008
674.16479 3815.8562 -288.75424 4294967008
674.23151 3817.8752 -288.87418 4294967008
665.25677 3821.8252 -288.8548 4294967008
667.18365 3821.957 -288.93726 4294967008
670.9823 3821.6609 -288.82468 4294967008
672.44849 3820.6819 -288.86975 4294967008
658.91827 3824.4473 -288.91147 4294967008
661.26538 3822.4895 -288.89578 4294967008
657.95728 3827.7324 -288.77869 4294967008
658.21228 3825.8792 -288.89249 4294967008
653.48584 3796.1926 -287.04227 4294967009
661.41675 3798.5193 -287.14493 4294967009
671.12891 3799.4077 -287.07086 4294967009
653.01434 3793.8809 -286.98398 4294967010
666.51788 3797.5989 -286.99091 4294967010
668.25842 3797.9622 -286.72208 4294967010
654.96167 3798.1829 -286.70209 4294967010
656.31866 3798.7063 -286.80536 4294967010
657.98175 3798.9348 -286.77539 4294967010
669.63184 3798.4124 -286.86374 4294967010
672.65851 3802.7502 -286.70947 4294967010
670.7226 3821.811 -286.65802 4294967010
673.5564 3819.1748 -286.76453 4294967010
662.64648 3822.0647 -286.96698 4294967010
668.4198 3822.1467 -286.68213 4294967010
664.16888 3798.0708 -285.03412 4294967011
661.12592 3822.6196 -285.13083 4294967011
665.78552 3822.1733 -285.03152 4294967011
668.33368 3822.2085 -285.02252 4294967011
652.76892 3794.1216 -284.59528 4294967012
653.9389 3797.2412 -284.94614 4294967012
666.48682 3797.7234 -284.56955 4294967012
658.16913 3799.0881 -284.94211 4294967012
670.45581 3799.1997 -284.60596 4294967012
671.50696 3800.4041 -284.77258 4294967012
672.75287 3804.0115 -284.89673 4294967012
673.62811 3817.887 -284.85892 4294967012
670.51642 3821.8699 -284.61749 4294967012
672.435 3820.5854 -284.84323 4294967012
653.26532 3796.125 -283.26111 4294967013
655.14227 3798.3555 -283.14392 4294967013
669.99677 3799.0378 -283.10907 4294967013
665.80011 3822.1731 -283.03494 4294967013
652.76147 3790.1909 -282.61194 4294967014
652.82129 3794.0215 -282.86038 4294967014
666.75415 3797.8049 -282.85522 4294967014
658.58173 3798.9653 -282.9111 4294967014
668.27271 3798.2515 -282.97342 4294967014
671.22791 3800.4829 -282.9263 4294967014
672.45551 3804.0566 -282.80511 4294967014
673.4093 3815.9736 -282.84714 4294967014
670.7019 3821.614 -282.77432 4294967014
672.55878 3820.0229 -282.83276 4294967014
652.69025 3794.0405 -280.86859 4294967016
653.45251 3796.7046 -280.42578 4294967016
666.66968 3797.9495 -280.54092 4294967016
655.1496 3798.4868 -280.69971 4294967016
658.14136 3799.0769 -280.69049 4294967016
669.81348 3799.1829 -280.90219 4294967016
670.92578 3800.5205 -280.6246 4294967016
672.14478 3803.8081 -280.76108 4294967016
672.10236 3806.6545 -280.8569 4294967016
673.0705 3817.9458 -280.94678 4294967016
671.83356 3820.855 -280.9136 4294967016
672.75232 3819.1201 -280.93768 4294967016
665.40448 3822.2729 -280.92004 4294967016
668.51764 3822.394 -280.70651 4294967016
655.16095 3798.5747 -279.14304 4294967017
658.3869 3799.2988 -279.16425 4294967017
664.23785 3798.2815 -279.06012 4294967017
652.40668 3793.9231 -278.9252 4294967018
653.63879 3797.2764 -278.9198 4294967018
668.38702 3798.6592 -278.76468 4294967018
669.63977 3799.3499 -278.89102 4294967018
671.5152 3802.802 -278.75403 4294967018
672.5213 3814.5752 -278.45227 4294967018
672.75513 3817.9814 -278.99866 4294967018
671.61884 3820.8257 -278.88419 4294967018
672.38678 3819.5659 -278.94968 4294967018
658.97632 3824.1311 -278.68314 4294967018
662.64923 3822.4534 -278.80023 4294967018
665.70459 3822.4902 -278.64273 4294967018
668.58801 3822.426 -278.69382 4294967018
657.64337 3827.4246 -278.85959 4294967018
658.01251 3829.9961 -278.74622 4294967018
655.12677 3798.6599 -277.1214 4294967019
671.63696 3806.7229 -277.22458 4294967019
669.86182 3821.9182 -277.04919 4294967019
652.32947 3791.1589 -276.88556 4294967020
652.2406 3793.9556 -276.92398 4294967020
652.77808 3796.0576 -276.96271 4294967020
653.7467 3797.6655 -276.97989 4294967020
658.67334 3799.3945 -276.59592 4294967020
670.03827 3800.0901 -276.8793 4294967020
671.57117 3804.0337 -276.76141 4294967020
672.20636 3816.4341 -276.56647 4294967020
671.3139 3820.9614 -276.99387 4294967020
672.1499 3819.7727 -276.85449 4294967020
658.74951 3824.0752 -276.89008 4294967020
660.63837 3822.9519 -276.81381 4294967020
662.70404 3822.5378 -276.8743 4294967020
665.69562 3822.594 -276.87778 4294967020
668.6651 3822.4126 -276.90253 4294967020
657.46979 3827.8235 -276.68948 4294967020
657.84973 3830.2817 -276.86057 4294967020
658.30737 3832.7271 -276.9274 4294967020
652.02869 3794.0581 -275.22556 4294967021
653.40051 3797.5769 -275.06049 4294967021
656.49188 3799.1741 -275.71436 4294967021
671.27484 3805.8992 -275.18423 4294967021
657.54266 3829.9446 -275.12439 4294967021
652.10516 3791.0464 -274.81619 4294967022
652.4903 3795.9922 -274.73355 4294967022
666.53931 3798.5215 -274.52289 4294967022
669.4411 3799.7825 -274.65207 4294967022
670.19409 3802.0127 -274.59354 4294967022
670.85852 3804.2546 -274.3201 4294967022
671.41193 3808.3093 -274.93185 4294967022
671.8042 3813.5901 -274.71082 4294967022
671.7663 3818.5239 -274.6701 4294967022
671.32678 3820.707 -274.92496 4294967022
658.12201 3824.7375 -274.82791 4294967022
659.0777 3823.6763 -274.79446 4294967022
662.55225 3822.6174 -274.83118 4294967022
668.66333 3822.2744 -274.75043 4294967022
657.19006 3827.5442 -274.86069 4294967022
658.03827 3832.8965 -274.70718 4294967022
651.66174 3793.8357 -273.00641 4294967023
654.95569 3798.9275 -273.28314 4294967023
670.93091 3805.9844 -273.22861 4294967023
671.49945 3810.9524 -273.74695 4294967023
671.69232 3817.123 -273.31406 4294967023
671.32239 3819.5637 -273.0148 4294967023
657.2251 3830.1924 -273.02155 4294967023
658.07605 3834.8452 -273.05261 4294967023
652.40063 3796.3728 -272.81531 4294967024
653.57074 3798.1978 -272.61426 4294967024
656.75513 3799.3477 -272.80045 4294967024
661.37421 3798.9695 -272.37994 4294967024
668.80414 3800.7451 -272.94788 4294967024
671.16284 3808.5862 -272.41663 4294967024
671.49274 3812.6458 -272.01709 4294967024
671.01587 3821.072 -272.82809 4294967024
657.82648 3824.689 -272.82144 4294967024
660.2724 3823.2046 -272.94913 4294967024
663.30896 3822.7166 -272.77362 4294967024
665.77734 3822.8142 -272.91516 4294967024
668.77118 3822.3477 -272.72354 4294967024
657.01172 3827.2092 -272.73599 4294967024
657.711 3832.8481 -272.83905 4294967024
651.52997 3791.6504 -271.04312 4294967025
659.18567 3799.3992 -271.13776 4294967025
667.13812 3799.7844 -271.50638 4294967025
670.09973 3803.4585 -271.93228 4294967025
671.30823 3810.8359 -271.56818 4294967025
671.59985 3814.6379 -271.94568 4294967025
671.40607 3817.677 -271.35623 4294967025
670.58496 3820.2725 -271.11121 4294967025
657.99231 3836.8381 -271.21982 4294967025
651.54108 3793.9783 -270.99847 4294967026
651.92114 3796.092 -270.98187 4294967026
652.4209 3797.2131 -270.8349 4294967026
653.51324 3798.467 -270.77924 4294967026
656.47986 3799.4829 -270.98315 4294967026
668.78833 3801.4526 -270.55188 4294967026
670.6991 3806.2454 -270.91327 4294967026
671.03711 3808.9897 -270.14807 4294967026
671.47473 3813.6616 -270.75528 4294967026
671.41565 3817.1917 -270.09058 4294967026
669.11847 3821.6787 -270.88742 4294967026
657.55396 3824.5991 -270.75626 4294967026
659.06848 3823.5105 -270.99518 4294967026
662.99475 3822.8042 -270.99597 4294967026
666.40009 3822.991 -270.72699 4294967026
656.45605 3827.0649 -270.97223 4294967026
656.75616 3830.0071 -270.97479 4294967026
657.26941 3832.7322 -270.99643 4294967026
657.664 3834.8401 -270.97351 4294967026
651.95374 3797 -269.11963 4294967027
655.19226 3799.3787 -269.31158 4294967027
663.93842 3799.1694 -269.37485 4294967027
665.8866 3799.4744 -269.79443 4294967027
669.58368 3802.9209 -269.52695 4294967027
670.18842 3804.657 -269.31686 4294967027
671.31238 3812.0811 -269.68637 4294967027
671.44586 3815.1658 -269.50525 4294967027
671.12994 3818.4001 -269.48181 4294967027
670.73138 3819.5225 -269.67593 4294967027
660.44482 3823.0449 -269.38608 4294967027
668.08472 3822.054 -269.07721 4294967027
656.06335 3827.3845 -269.04886 4294967027
651.20813 3791.1411 -268.88434 4294967028
651.14294 3794.012 -268.81073 4294967028
653.13422 3798.5522 -268.89801 4294967028
659.15454 3799.4275 -268.6123 4294967028
667.51904 3800.5381 -268.96387 4294967028
668.80029 3801.8853 -268.59061 4294967028
670.61157 3806.7581 -268.6199 4294967028
671.0899 3810.2673 -268.32526 4294967028
671.23212 3817.3701 -268.76804 4294967028
669.62592 3820.8542 -268.89319 4294967028
663.60223 3823.0374 -268.74213 4294967028
666.58563 3822.5718 -268.00687 4294967028
656.28101 3826.2332 -268.12573 4294967028
656.89813 3832.9307 -268.97534 4294967028
657.44958 3836.6782 -268.78775 4294967028
650.72949 3793.6741 -267.26047 4294967029
656.34906 3799.7954 -267.49576 4294967029
659.05078 3799.4468 -267.23694 4294967029
669.48846 3803.5269 -267.19278 4294967029
670.20966 3805.3757 -267.56348 4294967029
670.83118 3808.6309 -267.56122 4294967029
671.19482 3811.675 -267.7334 4294967029
671.34326 3814.1597 -267.84326 4294967029
671.18054 3816.4331 -267.23331 4294967029
669.51147 3820.6829 -267.10641 4294967029
670.51727 3819.0911 -267.41904 4294967029
658.5296 3823.7666 -267.01132 4294967029
655.64551 3827.5576 -267.13348 4294967029
656.35944 3832.5813 -267.004 4294967029
651.55499 3797.1858 -266.94553 4294967030
652.82751 3798.7939 -266.55078 4294967030
654.88245 3799.531 -266.96039 4294967030
661.82153 3799.345 -266.83304 4294967030
665.63879 3799.9124 -266.79541 4294967030
668.00702 3801.4399 -266.8035 4294967030
670.25171 3806.0967 -266.38681 4294967030
670.98059 3810.4443 -266.55017 4294967030
671.11108 3812.4548 -266.16882 4294967030
671.23572 3814.4531 -266.42917 4294967030
668.10168 3821.7727 -266.72357 4294967030
656.54987 3824.9385 -266.86578 4294967030
663.78491 3823.1655 -266.94321 4294967030
665.84039 3822.6589 -266.14639 4294967030
655.67102 3829.8943 -266.80634 4294967030
656.62512 3834.7229 -266.57053 4294967030
650.22046 3793.6396 -265.00488 4294967031
655.69562 3799.9006 -265.65067 4294967031
670.63257 3808.751 -265.4234 4294967031
671.01593 3815.6343 -265.28027 4294967031
670.74133 3817.4541 -265.23373 4294967031
669.29236 3820.5757 -265.25986 4294967031
658.31018 3823.7637 -265.20825 4294967031
660.33392 3823.2651 -265.05618 4294967031
655.47351 3826.438 -265.03632 4294967031
656.54926 3836.8792 -265.02054 4294967031
651.11694 3797.4045 -264.86179 4294967032
652.77954 3799.1267 -264.866 4294967032
659.48627 3799.4353 -264.51938 4294967032
664.03265 3799.4934 -264.19476 4294967032
665.83563 3800.01 -264.05017 4294967032
667.229 3800.9351 -264.61746 4294967032
668.63928 3802.5503 -264.88132 4294967032
669.57153 3804.5051 -264.7753 4294967032
670.18958 3806.6516 -264.77301 4294967032
670.70862 3811.1121 -264.30286 4294967032
670.86487 3813.6714 -264.30045 4294967032
668.12927 3821.6667 -264.83148 4294967032
670.16602 3819.0483 -264.84769 4294967032
663.54059 3823.0652 -264.63986 4294967032
666.39404 3822.4299 -264.08185 4294967032
655.11517 3829.7358 -264.72375 4294967032
655.84399 3832.6155 -264.99649 4294967032
649.80267 3793.7275 -263.24503 4294967033
649.97034 3795.9436 -263.08582 4294967033
650.55548 3797.4277 -263.07495 4294967033
668.46863 3802.6953 -263.20178 4294967033
670.22449 3808.7129 -263.12109 4294967033
670.58051 3815.7473 -263.3873 4294967033
670.28479 3817.9001 -263.5556 4294967033
668.14435 3821.417 -263.17136 4294967033
658.31378 3823.7722 -263.14709 4294967033
654.89703 3830.0088 -263.15179 4294967033
655.40173 3832.791 -263.22232 4294967033
651.4975 3798.6838 -262.68317 4294967034
654.07391 3799.9292 -262.75629 4294967034
659.41284 3799.3901 -262.84601 4294967034
661.59296 3799.3206 -262.99634 4294967034
665.15668 3799.7183 -262.70792 4294967034
669.68115 3805.7976 -262.96518 4294967034
669.46521 3819.5598 -262.86441 4294967034
656.51929 3824.6824 -262.927 4294967034
660.83844 3823.4731 -262.95364 4294967034
663.61847 3823.1313 -262.513 4294967034
666.97791 3822.1992 -262.50897 4294967034
654.87909 3827.6387 -262.98538 4294967034
663.75378 3799.3757 -261.97186 4294967035
665.07819 3799.6853 -261.43063 4294967035
666.6925 3800.7473 -261.95621 4294967035
668.17255 3802.4448 -261.965 4294967035
668.94708 3804.2473 -261.4165 4294967035
669.91388 3817.0193 -261.71912 4294967035
668.54645 3820.6575 -261.76065 4294967035
657.03424 3824.2324 -261.05389 4294967035
660.89423 3823.5674 -261.10867 4294967035
665.65466 3822.6736 -261.78876 4294967035
654.11023 3829.7036 -261.10764 4294967035
655.21021 3834.6174 -261.41971 4294967035
649.20032 3793.3733 -260.67947 4294967036
650.07245 3797.6455 -260.73309 4294967036
650.88824 3798.8228 -260.29703 4294967036
652.94452 3799.8748 -260.711 4294967036
660.18396 3799.3633 -260.65399 4294967036
662.26666 3799.2971 -260.19592 4294967036
664.09448 3799.4214 -260.51596 4294967036
665.30408 3799.9128 -260.07339 4294967036
667.89301 3802.4888 -260.37018 4294967036
669.54956 3807.1721 -260.99939 4294967036
669.91943 3812.3213 -260.65924 4294967036
667.22968 3821.6948 -260.86017 4294967036
668.83051 3819.4075 -260.39053 4294967036
663.57385 3823.1775 -260.47018 4294967036
665.36481 3822.6851 -260.14331 4294967036
654.16235 3827.7776 -260.8403 4294967036
649.50427 3797.6191 -259.04587 4294967037
653.94055 3800.1675 -259.25415 4294967037
663.82532 3799.4763 -259.06326 4294967037
666.52911 3801.0679 -259.06332 4294967037
668.63654 3804.5332 -259.54977 4294967037
669.47607 3816.6838 -259.79297 4294967037
657.0069 3824.137 -259.11578 4294967037
653.62622 3829.9634 -259.14554 4294967037
648.65332 3793.7151 -258.95288 4294967038
650.94629 3799.2246 -258.94717 4294967038
657.42871 3799.6323 -258.6062 4294967038
660.29742 3799.3906 -258.79901 4294967038
665.03943 3800.0303 -258.47641 4294967038
667.69531 3802.6401 -258.70447 4294967038
668.97516 3807.1177 -258.60834 4294967038
668.64264 3818.4524 -258.30225 4294967038
667.31116 3820.8374 -258.32855 4294967038
661.15094 3823.5574 -258.68982 4294967038
663.96033 3822.9651 -258.5481 4294967038
665.89374 3822.2388 -258.94424 4294967038
655.39459 3825.0486 -258.89322 4294967038
648.021 3793.9285 -257.0965 4294967039
648.71802 3797.8286 -257.05652 4294967039
654.67419 3800.1511 -257.30402 4294967039
659.70813 3799.5325 -257.06351 4294967039
662.05164 3799.4475 -257.72568 4294967039
663.90784 3799.7361 -257.62308 4294967039
666.93445 3802.0679 -257.46027 4294967039
667.98767 3803.9819 -257.62729 4294967039
669.13037 3815.6169 -257.91614 4294967039
652.96967 3829.5164 -257.20502 4294967039
649.4541 3798.853 -256.44916 4294967040
652.22064 3799.9619 -256.86948 4294967040
663.18225 3799.8215 -256.36487 4294967040
665.23151 3800.7629 -256.66302 4294967040
667.98346 3805.5913 -256.22003 4294967040
668.35553 3817.7998 -256.45605 4294967040
666.83435 3820.8225 -256.4071 4294967040
667.82611 3819.6458 -256.99561 4294967040
658.87927 3823.9341 -256.76971 4294967040
662.13007 3823.2935 -256.06253 4294967040
665.2442 3822.1584 -256.83337 4294967040
647.42981 3790.8271 -255.00351 4294967041
647.45313 3796.2854 -255.12325 4294967041
649.01923 3798.9595 -255.15775 4294967041
650.82336 3799.927 -255.16228 4294967041
652.59143 3800.1216 -255.37325 4294967041
654.65692 3800.1345 -255.06128 4294967041
