# .PCD v0.7 - Point Cloud Data file format
VERSION 0.7
FIELDS x y z rgba
SIZE 4 4 4 4
TYPE F F F U
COUNT 1 1 1 1
WIDTH 1146
HEIGHT 1
VIEWPOINT 0 0 0 1 0 0 0
POINTS 1146
DATA ascii
323.51611 3803.7554 -737.04022 4294966559
327.32626 3803.7019 -737.13141 4294966559
335.27176 3803.5867 -737.64691 4294966559
337.59006 3803.7246 -737.70233 4294966559
339.40253 3801.8894 -737.19391 4294966559
343.42847 3802.7837 -737.6499 4294966559
345.50769 3801.8843 -737.37183 4294966559
351.4776 3802.7847 -737.67786 4294966559
353.41461 3802.7861 -737.66309 4294966559
355.39026 3801.8274 -737.41962 4294966559
357.24615 3801.8093 -737.53546 4294966559
367.46994 3801.6243 -737.60461 4294966559
371.3735 3801.6479 -737.64325 4294966559
373.36694 3801.8203 -737.67218 4294966559
375.39108 3801.7637 -737.6745 4294966559
379.46802 3801.5339 -737.66504 4294966559
381.63779 3801.8511 -737.69006 4294966559
383.28979 3801.9197 -737.77777 4294966559
385.34531 3801.8618 -737.74316 4294966559
387.44641 3802.2424 -737.67657 4294966559
389.49588 3802.188 -737.61627 4294966559
391.17831 3802.2544 -737.57764 4294966559
393.48413 3802.0762 -737.55023 4294966559
395.3616 3802.1953 -737.51471 4294966559
397.59332 3802.188 -737.46399 4294966559
399.32336 3802.6975 -737.43567 4294966559
401.6106 3802.5591 -737.43146 4294966559
313.63687 3804.8899 -737.55048 4294966559
315.6756 3805.5645 -737.5705 4294966559
319.26471 3805.8804 -737.46442 4294966559
321.54846 3805.8999 -737.50769 4294966559
323.29587 3805.979 -737.6062 4294966559
325.38293 3805.8567 -737.62274 4294966559
327.38153 3805.8872 -737.64679 4294966559
329.64465 3805.9314 -737.68311 4294966559
333.11508 3806.1377 -737.78992 4294966559
339.3222 3806.1782 -737.99329 4294966559
375.81061 3804.5168 -737.70862 4294966559
377.22931 3805.6328 -737.66052 4294966559
379.59436 3805.7632 -737.62329 4294966559
381.58185 3804.5845 -737.6568 4294966559
385.32074 3804.7737 -737.61938 4294966559
387.75204 3806.8909 -737.5329 4294966559
389.68338 3804.6772 -737.54315 4294966559
391.46832 3804.769 -737.50525 4294966559
393.40781 3804.7253 -737.46716 4294966559
395.47119 3804.7366 -737.42535 4294966559
397.31833 3805.7703 -737.40552 4294966559
399.47549 3804.8723 -737.41119 4294966559
295.53839 3807.9331 -737.04089 4294966559
297.14264 3807.9678 -737.1922 4294966559
317.43204 3808.3948 -737.59656 4294966559
321.25864 3808.7012 -737.55389 4294966559
323.38898 3808.6316 -737.56421 4294966559
325.60092 3808.874 -737.56763 4294966559
327.32843 3808.5813 -737.58612 4294966559
295.41562 3810.8555 -737.01471 4294966559
297.20502 3810.637 -737.16248 4294966559
325.66513 3810.8242 -737.5473 4294966559
327.46707 3812.9302 -737.4649 4294966559
329.45712 3810.8838 -737.56781 4294966559
331.40939 3810.6331 -737.61121 4294966559
337.26898 3811.752 -737.56982 4294966559
339.53687 3812.792 -737.43713 4294966559
341.10553 3810.7107 -737.66278 4294966559
343.36926 3811.8591 -737.54749 4294966559
345.5643 3811.8098 -737.58826 4294966559
357.41647 3812.9661 -737.67761 4294966559
377.69397 3810.9038 -737.72778 4294966559
379.69397 3810.7607 -737.67242 4294966559
407.21213 3810.9312 -737.65222 4294966559
409.31992 3810.9639 -737.54388 4294966559
413.49319 3811.2817 -737.3407 4294966559
419.48022 3811.1282 -737.18475 4294966559
421.40457 3810.9238 -737.11115 4294966559
423.56436 3811.3257 -737.16425 4294966559
425.38901 3811.1316 -737.08826 4294966559
427.55423 3811.3101 -737.09125 4294966559
429.5098 3811.2407 -737.0957 4294966559
431.52347 3811.2952 -737.14264 4294966559
325.6239 3815.009 -737.44214 4294966559
331.55768 3815.0283 -737.42694 4294966559
337.43454 3814.7661 -737.35815 4294966559
341.48676 3814.9839 -737.36438 4294966559
343.31778 3815.0081 -737.41693 4294966559
347.40512 3814.8623 -737.60223 4294966559
359.47354 3814.8525 -737.96204 4294966559
409.27585 3813.4968 -737.91022 4294966559
411.55865 3813.3149 -737.71783 4294966559
413.59787 3813.5239 -737.68231 4294966559
415.51132 3813.8564 -737.73224 4294966559
417.57886 3814.1069 -737.76184 4294966559
419.19257 3814.0046 -737.70123 4294966559
421.8974 3814.0413 -737.77502 4294966559
423.51392 3813.7678 -737.68121 4294966559
425.59698 3814.9424 -737.57526 4294966559
429.4592 3813.8762 -737.60767 4294966559
431.37573 3814.146 -737.70624 4294966559
343.45844 3817.2827 -737.79834 4294966559
345.62091 3816.9756 -737.79114 4294966559
347.46182 3817.1013 -737.9267 4294966559
409.32053 3817.9272 -737.96521 4294966559
411.72742 3816.4065 -737.94806 4294966559
413.59329 3816.5481 -737.7959 4294966559
415.49356 3818.8406 -737.05566 4294966559
417.41687 3817.7827 -737.50647 4294966559
419.44077 3817.4414 -737.38617 4294966559
421.45691 3817.4521 -737.41803 4294966559
423.58313 3816.1743 -737.80951 4294966559
427.5368 3816.0989 -737.50873 4294966559
297.63837 3821.1926 -737.23096 4294966559
299.41348 3820.9861 -737.11212 4294966559
301.14822 3820.894 -737.10034 4294966559
327.41739 3819.2415 -737.91357 4294966559
329.66171 3819.3201 -737.97229 4294966559
391.81729 3821.8879 -737.1369 4294966559
395.64539 3820.8484 -737.87238 4294966559
399.13095 3820.5779 -737.79395 4294966559
401.58667 3820.5173 -737.82263 4294966559
405.00229 3820.2131 -737.59784 4294966559
407.45325 3819.6582 -737.46887 4294966559
411.52869 3819.1487 -737.1778 4294966559
271.4054 3823.4753 -737.1026 4294966559
283.51782 3823.8237 -737.35333 4294966559
285.28137 3823.5735 -737.31299 4294966559
287.43097 3824.1868 -737.50891 4294966559
289.49268 3823.9136 -737.47253 4294966559
291.61304 3824.5637 -737.69055 4294966559
295.39429 3824.5613 -737.70819 4294966559
297.18576 3823.9092 -737.75403 4294966559
299.39362 3823.7749 -737.7901 4294966559
301.42542 3823.8608 -737.8053 4294966559
347.41174 3824.6289 -737.94897 4294966559
351.43015 3824.5264 -737.68335 4294966559
353.32407 3824.4727 -737.65717 4294966559
355.30612 3824.4739 -737.55933 4294966559
356.96533 3824.2844 -737.57599 4294966559
362.03949 3824.1487 -737.32751 4294966559
363.18292 3824.1506 -737.18628 4294966559
365.52338 3823.9878 -737.44592 4294966559
369.14874 3822.947 -737.99695 4294966559
373.30585 3822.7847 -737.83771 4294966559
375.10989 3822.6929 -737.97906 4294966559
381.466 3822.8162 -737.22357 4294966559
383.63849 3822.5798 -737.3205 4294966559
384.9523 3822.4597 -737.35638 4294966559
387.40884 3822.1584 -737.39471 4294966559
389.61707 3822.1638 -737.30054 4294966559
259.65286 3825.8611 -737.13269 4294966559
261.29944 3826.8457 -737.12512 4294966559
263.76102 3825.6096 -737.14301 4294966559
265.30023 3826.8237 -737.21295 4294966559
267.63855 3825.6145 -737.35797 4294966559
268.09055 3827.998 -737.1543 4294966559
269.60529 3826.1738 -737.51752 4294966559
275.54782 3826.2695 -737.75201 4294966559
279.56467 3826.9182 -737.83099 4294966559
283.50211 3827.8774 -737.63092 4294966559
285.68625 3826.9792 -737.66199 4294966559
287.45953 3826.7732 -737.6814 4294966559
289.8613 3826.8604 -737.75433 4294966559
293.44531 3827.2603 -737.74591 4294966559
295.31998 3826.9519 -737.84985 4294966559
317.75562 3827.7405 -737.78082 4294966559
323.78735 3827.4976 -737.21179 4294966559
325.56326 3826.7732 -737.92535 4294966559
331.37463 3826.5154 -737.56012 4294966559
335.22461 3826.2661 -737.72406 4294966559
338.01138 3825.9883 -737.93555 4294966559
257.53619 3828.2019 -737.03949 4294966559
259.65787 3828.05 -737.07672 4294966559
263.89252 3828.0359 -737.09277 4294966559
285.53653 3829.0093 -737.09326 4294966559
287.43365 3829.0259 -737.17596 4294966559
291.48068 3828.9507 -737.28351 4294966559
294.78809 3828.8674 -737.22174 4294966559
297.48553 3828.2268 -737.72919 4294966559
299.30673 3828.1746 -737.82233 4294966559
303.81812 3828.0254 -737.92822 4294966559
391.3663 3797.9675 -736.60425 4294966560
393.35211 3797.3672 -736.3562 4294966560
397.26367 3797.0684 -736.45947 4294966560
399.51056 3797.0586 -736.52649 4294966560
419.25198 3797.4468 -736.84009 4294966560
421.31076 3796.8491 -736.60095 4294966560
423.17938 3796.3508 -736.2832 4294966560
424.98633 3796.856 -736.46143 4294966560
425.46811 3795.5115 -736.09918 4294966560
427.09259 3796.6924 -736.45813 4294966560
429.26453 3795.4307 -736.15015 4294966560
431.3306 3796.5815 -736.39404 4294966560
339.5697 3800.6675 -736.44794 4294966560
343.32849 3800.2822 -736.39441 4294966560
345.54135 3800.0867 -736.35315 4294966560
347.15015 3800.2644 -736.50073 4294966560
349.48483 3800.604 -736.75397 4294966560
351.62827 3800.3677 -736.66626 4294966560
359.24567 3799.9988 -736.81781 4294966560
363.43399 3799.8174 -736.90436 4294966560
367.24518 3798.563 -736.3493 4294966560
369.71933 3798.373 -736.33179 4294966560
373.51755 3798.197 -736.30029 4294966560
375.52884 3798.5337 -736.58185 4294966560
377.53867 3798.4819 -736.60284 4294966560
379.64807 3798.4453 -736.6275 4294966560
381.18518 3798.4402 -736.66547 4294966560
383.33054 3798.4819 -736.71625 4294966560
385.35049 3798.2458 -736.57574 4294966560
389.53714 3798.1174 -736.60669 4294966560
421.31396 3800.0784 -736.91022 4294966560
423.26682 3799.7229 -736.80389 4294966560
425.30005 3800.1702 -736.69531 4294966560
427.58542 3799.9175 -736.65448 4294966560
429.32169 3800.249 -736.62396 4294966560
313.23709 3802.8267 -736.83063 4294966560
317.55927 3802.571 -736.27875 4294966560
319.24576 3802.5288 -736.28259 4294966560
323.58081 3802.5139 -736.44934 4294966560
325.39035 3802.4958 -736.48041 4294966560
329.65195 3802.0686 -736.69324 4294966560
333.48502 3801.8413 -736.93042 4294966560
335.25842 3801.7886 -736.91589 4294966560
421.30533 3802.8267 -736.76251 4294966560
427.49088 3802.8081 -736.51166 4294966560
291.47592 3805.7947 -736.41467 4294966560
295.1286 3805.6252 -736.38715 4294966560
297.39899 3805.8337 -736.84381 4294966560
423.3718 3806.8672 -736.63123 4294966560
425.8746 3804.8486 -736.51624 4294966560
429.43039 3806.8721 -736.51135 4294966560
431.42554 3804.9465 -736.43823 4294966560
249.54283 3809.8464 -736.05365 4294966560
253.36819 3809.9734 -736.07172 4294966560
255.21088 3809.842 -736.01471 4294966560
260.95023 3809.7222 -736.23523 4294966560
263.48819 3809.717 -736.1369 4294966560
265.3168 3809.6729 -736.34515 4294966560
269.52533 3809.6602 -736.42053 4294966560
271.05518 3809.6462 -736.30231 4294966560
273.69788 3809.5825 -736.28253 4294966560
278.91852 3808.1541 -736.0083 4294966560
279.23239 3809.9038 -736.31439 4294966560
281.284 3807.8596 -736.09204 4294966560
283.27936 3808.8623 -736.53772 4294966560
287.14551 3807.6611 -736.75635 4294966560
291.25491 3807.8823 -736.86975 4294966560
293.16577 3807.8997 -736.92578 4294966560
429.44333 3808.9888 -736.75085 4294966560
431.29282 3808.9224 -736.76642 4294966560
233.63719 3811.5732 -736.08624 4294966560
237.0127 3811.3486 -736.13287 4294966560
239.27003 3811.7563 -736.03101 4294966560
241.43306 3811.6929 -736.09882 4294966560
243.77536 3811.5266 -736.11249 4294966560
245.29362 3811.6707 -736.32288 4294966560
247.3439 3811.5815 -736.37634 4294966560
249.57265 3812.0688 -736.26294 4294966560
251.68086 3811.9214 -736.40558 4294966560
253.28067 3811.9158 -736.43518 4294966560
255.40198 3812.2288 -736.43848 4294966560
259.51086 3812.1475 -736.45313 4294966560
263.45309 3812.4282 -736.40857 4294966560
265.18741 3812.2014 -736.41205 4294966560
267.75638 3812.4443 -736.42505 4294966560
269.38828 3812.1304 -736.43597 4294966560
273.75748 3812.3191 -736.33087 4294966560
275.00351 3812.54 -736.30701 4294966560
277.47159 3811.2666 -736.33557 4294966560
281.56686 3810.1274 -736.55634 4294966560
291.33865 3810.3879 -736.91443 4294966560
293.45535 3811.772 -736.9021 4294966560
227.00459 3813.771 -736.12311 4294966560
229.26202 3813.9629 -736.12946 4294966560
233.68832 3814.1162 -736.07043 4294966560
235.39029 3813.9668 -736.0943 4294966560
237.65538 3814.427 -736.06476 4294966560
239.27286 3813.6001 -736.13763 4294966560
241.625 3814.5229 -736.09064 4294966560
243.59958 3814.4519 -736.12085 4294966560
247.35092 3814.658 -736.20526 4294966560
249.47258 3814.5947 -736.26904 4294966560
251.21199 3814.4927 -736.33398 4294966560
253.76591 3814.7644 -736.37579 4294966560
265.43262 3814.7549 -736.40991 4294966560
269.16016 3814.7739 -736.39996 4294966560
271.67035 3814.8521 -736.34784 4294966560
273.23477 3814.6504 -736.32196 4294966560
245.20975 3816.8794 -736.03748 4294966560
249.45145 3818.8843 -736.10297 4294966560
265.45197 3816.8525 -736.39276 4294966560
267.67825 3818.8855 -736.45416 4294966560
269.74081 3818.8108 -736.45111 4294966560
273.41177 3818.9128 -736.45367 4294966560
287.17236 3818.5669 -736.46942 4294966560
301.45282 3817.0156 -736.87494 4294966560
423.58255 3818.4167 -736.81543 4294966560
429.34351 3817.7573 -736.76276 4294966560
265.43372 3820.6045 -736.57977 4294966560
267.30878 3821.0747 -736.64471 4294966560
271.24966 3821.144 -736.72894 4294966560
287.58621 3821.1318 -736.80231 4294966560
396.03015 3821.9592 -736.04663 4294966560
399.23773 3821.7058 -736.00043 4294966560
406.93738 3820.9692 -736.21466 4294966560
241.73079 3823.0337 -736.03741 4294966560
243.07265 3822.7329 -736.01355 4294966560
251.55853 3823.9019 -736.44202 4294966560
257.31195 3823.031 -736.65118 4294966560
259.45325 3822.9421 -736.69238 4294966560
263.42435 3822.926 -736.79559 4294966560
267.28458 3822.9771 -736.87744 4294966560
357.09583 3824.9553 -736.19434 4294966560
361.70593 3824.5146 -736.63092 4294966560
362.97787 3824.5508 -736.25446 4294966560
369.71774 3824.0588 -736.04327 4294966560
371.57437 3823.8584 -736.17401 4294966560
372.65475 3823.7688 -736.24097 4294966560
375.45648 3823.5977 -736.24335 4294966560
377.79434 3823.4202 -736.24347 4294966560
380.9473 3823.0862 -736.45508 4294966560
383.79019 3822.75 -736.71912 4294966560
385.01044 3822.8318 -736.26984 4294966560
387.48328 3822.7188 -736.04218 4294966560
231.18486 3827.8223 -736.06976 4294966560
233.54559 3826.6948 -736.20483 4294966560
235.34341 3825.5447 -736.1676 4294966560
237.49922 3826.675 -736.31683 4294966560
239.41359 3825.4375 -736.3194 4294966560
241.68161 3825.5303 -736.40039 4294966560
243.47978 3825.7117 -736.45331 4294966560
244.769 3827.9106 -736.65704 4294966560
245.26364 3825.3682 -736.40607 4294966560
253.75038 3825.739 -736.79468 4294966560
255.48738 3826.7964 -736.93365 4294966560
257.13913 3825.7161 -736.98688 4294966560
321.41458 3827.9504 -736.80933 4294966560
325.24051 3827.666 -736.37408 4294966560
329.18262 3827.1287 -736.85468 4294966560
331.67831 3827.2317 -736.15906 4294966560
333.41269 3826.8657 -736.77582 4294966560
335.72458 3826.9365 -736.02277 4294966560
337.68964 3826.553 -736.72711 4294966560
341.46237 3826.4685 -736.03027 4294966560
343.86673 3826.1553 -736.4566 4294966560
345.13254 3826.0396 -736.38196 4294966560
349.38406 3825.6328 -736.02802 4294966560
351.4119 3825.4126 -736.04321 4294966560
353.31778 3825.2402 -736.13269 4294966560
354.9924 3825.0435 -736.2854 4294966560
227.94479 3830.0974 -736.0697 4294966560
229.32083 3830.0178 -736.08319 4294966560
233.60857 3829.8523 -736.15356 4294966560
235.75446 3828.0083 -736.51941 4294966560
237.61604 3829.9216 -736.35522 4294966560
239.55412 3828.9355 -736.45862 4294966560
241.55246 3829.0938 -736.47852 4294966560
243.40256 3829.8774 -736.46942 4294966560
245.42258 3830.2231 -736.42224 4294966560
247.45029 3828.9814 -736.57239 4294966560
249.61594 3828.9937 -736.64539 4294966560
251.55685 3829.8972 -736.48804 4294966560
253.51134 3829.2246 -736.75146 4294966560
255.08409 3830.0046 -736.68018 4294966560
257.18207 3830.9626 -736.36865 4294966560
259.23883 3830.3853 -736.604 4294966560
261.44296 3830.6602 -736.38513 4294966560
263.30258 3829.6121 -736.73517 4294966560
265.44897 3829.8979 -736.52148 4294966560
271.39026 3829.679 -736.65466 4294966560
273.50848 3829.6616 -736.70721 4294966560
275.71503 3829.4336 -736.87604 4294966560
279.14481 3829.1343 -736.94666 4294966560
281.30289 3829.8098 -736.46552 4294966560
283.56995 3829.2136 -736.948 4294966560
297.32144 3829.5522 -736.2027 4294966560
301.58014 3829.1421 -736.11652 4294966560
307.08786 3828.7573 -736.10083 4294966560
317.52896 3828.0476 -736.10229 4294966560
249.73323 3831.1304 -736.14581 4294966560
253.59177 3831.1624 -736.17249 4294966560
401.64999 3794.7866 -735.15686 4294966561
403.17584 3794.5715 -735.0611 4294966561
407.38211 3793.9475 -735.00714 4294966561
417.47641 3794.9302 -735.43311 4294966561
419.22369 3794.9041 -735.25195 4294966561
421.51068 3794.6777 -735.32013 4294966561
423.64017 3794.3457 -735.18396 4294966561
425.20587 3794.0918 -735.16272 4294966561
427.48685 3794.3088 -735.43036 4294966561
431.51355 3794.1101 -735.36432 4294966561
363.7128 3797.8296 -735.10815 4294966561
369.38452 3797.4175 -735.06445 4294966561
371.47211 3797.3074 -735.06427 4294966561
373.37411 3797.209 -735.04828 4294966561
375.56522 3797.3972 -735.62048 4294966561
377.36346 3797.2124 -735.44568 4294966561
379.28891 3797.1018 -735.45544 4294966561
381.54013 3797.001 -735.52209 4294966561
383.51141 3796.865 -735.44012 4294966561
385.63474 3796.8721 -735.5199 4294966561
387.61368 3796.6895 -735.41254 4294966561
389.39932 3796.7522 -735.60382 4294966561
391.53986 3796.4656 -735.54395 4294966561
395.729 3795.4766 -735.05634 4294966561
399.19839 3795.1675 -735.29047 4294966561
327.38971 3800.8486 -735.47363 4294966561
329.42654 3800.6416 -735.51447 4294966561
331.32404 3800.5693 -735.5423 4294966561
333.49661 3800.2141 -735.73267 4294966561
335.80038 3799.7268 -735.1792 4294966561
337.55554 3799.605 -735.1319 4294966561
341.3833 3799.4475 -735.16119 4294966561
343.75546 3799.3123 -735.20215 4294966561
347.43042 3799.0078 -735.04083 4294966561
349.54102 3799.0593 -735.30829 4294966561
351.51602 3799.115 -735.56372 4294966561
353.6188 3798.9092 -735.62299 4294966561
355.38654 3798.9385 -735.60114 4294966561
357.74203 3798.9128 -735.87811 4294966561
361.13776 3798.2532 -735.55768 4294966561
295.23532 3803.7712 -735.37964 4294966561
311.49045 3801.2207 -735.16516 4294966561
317.12988 3801.4663 -735.23572 4294966561
319.53378 3801.2747 -735.21399 4294966561
321.43466 3801.1616 -735.24884 4294966561
323.4816 3801.0122 -735.17389 4294966561
325.75119 3801.0603 -735.41736 4294966561
273.35638 3806.019 -735.02893 4294966561
279.11118 3806.3435 -735.27856 4294966561
281.34027 3806.4634 -735.55231 4294966561
283.29868 3806.0562 -735.62762 4294966561
285.57535 3805.1184 -735.29974 4294966561
289.18973 3804.1694 -735.24414 4294966561
293.64029 3804.1565 -735.57715 4294966561
235.53998 3809.8887 -735.47571 4294966561
238.91188 3809.6677 -735.53229 4294966561
241.67058 3809.7651 -735.6369 4294966561
243.52196 3809.6348 -735.66913 4294966561
245.36731 3809.7576 -735.771 4294966561
247.32155 3809.6863 -735.8219 4294966561
251.59662 3808.4451 -735.26465 4294966561
255.61993 3808.3779 -735.23846 4294966561
259.47433 3808.1057 -735.51392 4294966561
261.26526 3807.9993 -735.45923 4294966561
263.24356 3807.7598 -735.49585 4294966561
266.93271 3807.7576 -735.73615 4294966561
271.19379 3807.7319 -735.82104 4294966561
273.45624 3807.6816 -735.83923 4294966561
275.39954 3807.8164 -735.84808 4294966561
220.77705 3811.6187 -735.31458 4294966561
223.65717 3811 -735.27979 4294966561
225.00562 3811.7585 -735.61975 4294966561
229.00505 3810.4783 -735.44501 4294966561
231.33002 3810.9763 -735.67688 4294966561
218.92737 3813.5554 -735.13947 4294966561
221.62531 3813.5107 -735.58752 4294966561
223.37491 3814.7695 -735.69208 4294966561
225.17105 3813.8372 -735.87122 4294966561
218.89436 3818.8298 -735.15942 4294966561
220.53165 3816.1821 -735.34589 4294966561
228.89693 3816.1282 -735.7583 4294966561
231.43933 3816.7849 -735.70789 4294966561
241.60637 3817.793 -735.88898 4294966561
241.5556 3820.8428 -735.85193 4294966561
245.40326 3820.8564 -735.92206 4294966561
409.96625 3820.8508 -735.54657 4294966561
411.42966 3820.6389 -735.51117 4294966561
413.69907 3820.4312 -735.21881 4294966561
416.81537 3820.0261 -735.53522 4294966561
419.99936 3819.8965 -735.41656 4294966561
423.55878 3819.6196 -735.39227 4294966561
427.71185 3819.3477 -735.33203 4294966561
239.19139 3822.9297 -735.98608 4294966561
364.52274 3824.5605 -735.67084 4294966561
227.66634 3827.667 -735.97028 4294966561
322.92557 3827.897 -735.86304 4294966561
327.05591 3827.8064 -735.21948 4294966561
343.35864 3826.3962 -735.5296 4294966561
345.29477 3826.2534 -735.11365 4294966561
347.13986 3826.0967 -735.25781 4294966561
221.09503 3830.1746 -735.40344 4294966561
222.16457 3828.3665 -735.36029 4294966561
225.7511 3828.9951 -735.80957 4294966561
277.00793 3830.8901 -735.20599 4294966561
281.53143 3830.603 -735.24243 4294966561
283.57242 3830.4019 -735.53845 4294966561
285.69843 3830.3848 -735.42157 4294966561
287.85596 3830.3828 -735.32251 4294966561
289.27594 3830.158 -735.66797 4294966561
293.48431 3829.843 -735.85217 4294966561
299.50955 3829.7817 -735.54199 4294966561
306.08661 3829.1917 -735.57709 4294966561
319.21301 3828.3684 -735.59387 4294966561
321.4516 3828.282 -735.49036 4294966561
221.57542 3832.0969 -735.17316 4294966561
223.42339 3831.8274 -735.23126 4294966561
225.76634 3831.9802 -735.29437 4294966561
229.46623 3831.6113 -735.40417 4294966561
231.56499 3831.241 -735.50092 4294966561
233.54413 3831.6897 -735.19574 4294966561
235.37343 3831.1243 -735.54486 4294966561
239.45677 3831.1262 -735.74872 4294966561
241.3038 3831.6704 -735.5376 4294966561
244.69324 3831.9333 -735.56909 4294966561
249.28645 3832.2988 -735.23145 4294966561
253.72525 3832.2141 -735.30786 4294966561
255.28569 3832.2434 -735.16003 4294966561
259.38855 3831.9482 -735.13171 4294966561
262.81592 3831.7061 -735.29968 4294966561
265.68661 3831.575 -735.07074 4294966561
269.40176 3831.3713 -735.10028 4294966561
271.56207 3831.3433 -735.03357 4294966561
275.38354 3831.0444 -735.18738 4294966561
369.23972 3797.0308 -734.0285 4294966562
393.59259 3795.7126 -734.89874 4294966562
335.41074 3799.0139 -734.04517 4294966562
337.49084 3799.0737 -734.07825 4294966562
339.45557 3798.9612 -734.05481 4294966562
343.7832 3798.8464 -734.00208 4294966562
345.46765 3799.0972 -734.97748 4294966562
297.40179 3803.2815 -734.89655 4294966562
259.13797 3806.7898 -734.42743 4294966562
261.74857 3806.7253 -734.63873 4294966562
263.50763 3806.4963 -734.64984 4294966562
265.51962 3806.5085 -734.87427 4294966562
267.43134 3806.1663 -734.73181 4294966562
269.69351 3805.72 -734.63953 4294966562
275.52039 3805.9587 -734.87891 4294966562
279.31812 3805.1997 -734.42926 4294966562
281.42474 3805.1465 -734.6756 4294966562
283.65552 3804.7981 -734.74261 4294966562
216.80659 3809.6042 -734.00287 4294966562
219.71925 3809.8506 -734.48975 4294966562
221.68123 3809.4734 -734.38281 4294966562
226.05692 3809.4834 -734.66339 4294966562
229.12685 3808.5872 -734.06622 4294966562
231.41223 3809.1343 -734.75879 4294966562
235.15471 3808.5183 -734.57776 4294966562
237.80003 3808.3774 -734.64227 4294966562
239.48781 3808.3352 -734.73358 4294966562
241.47961 3808.2139 -734.75708 4294966562
243.50745 3808.2339 -734.87207 4294966562
247.53215 3808.0249 -734.99646 4294966562
249.38052 3807.2515 -734.29767 4294966562
251.22141 3807.2 -734.34222 4294966562
253.61919 3807.166 -734.34326 4294966562
209.25294 3811.6462 -734.21924 4294966562
211.50911 3811.9666 -734.06488 4294966562
213.47047 3810.4961 -734.05457 4294966562
214.87288 3811.2505 -734.20856 4294966562
217.036 3811.896 -734.65613 4294966562
219.43842 3810.7271 -734.87274 4294966562
221.13982 3810.5132 -734.93524 4294966562
204.36946 3814.7742 -734.30957 4294966562
205.18202 3813.4529 -734.09283 4294966562
210.69106 3815.3777 -734.52393 4294966562
214.92233 3814.3538 -734.77234 4294966562
206.94801 3816.363 -734.22717 4294966562
215.20807 3817.2522 -734.97498 4294966562
209.95421 3821.0659 -734.45978 4294966562
213.40991 3819.7065 -734.82892 4294966562
409.97217 3821.4722 -734.0224 4294966562
413.78342 3820.9817 -734.07343 4294966562
417.08841 3820.5051 -734.23419 4294966562
419.94885 3820.4043 -734.1568 4294966562
421.40811 3820.3445 -734.07965 4294966562
425.207 3820.0496 -734.1098 4294966562
367.70935 3824.7139 -734.05475 4294966562
373.09366 3824.3528 -734.04895 4294966562
377.20349 3823.8889 -734.44012 4294966562
379.21732 3823.7073 -734.47009 4294966562
381.81995 3823.5396 -734.01697 4294966562
383.86938 3823.4573 -734.28162 4294966562
391.21594 3822.8831 -734.19519 4294966562
395.62991 3822.5427 -734.44684 4294966562
397.3696 3822.4492 -734.20569 4294966562
399.58649 3822.1165 -734.0791 4294966562
401.88651 3822.1025 -734.73566 4294966562
405.04865 3822.0154 -734.29144 4294966562
329.82523 3827.8623 -734.31201 4294966562
331.43646 3827.7092 -734.93555 4294966562
333.52945 3827.6323 -734.19147 4294966562
335.5412 3827.4829 -734.18805 4294966562
349.4342 3826.1716 -734.54132 4294966562
351.44162 3825.9353 -734.79144 4294966562
353.22379 3825.7114 -734.35583 4294966562
355.26324 3825.5544 -734.26196 4294966562
357.15451 3825.5508 -734.07898 4294966562
359.47809 3825.2749 -734.22223 4294966562
363.13947 3825.062 -734.01678 4294966562
208.13264 3829.5002 -734.01172 4294966562
210.09209 3829.5391 -734.26758 4294966562
211.82643 3830.9165 -734.13654 4294966562
212.00574 3829.0295 -734.49799 4294966562
215.08255 3830.2542 -734.4718 4294966562
219.20784 3830.3042 -734.95685 4294966562
283.22754 3830.8926 -734.31207 4294966562
287.33832 3830.7798 -734.05646 4294966562
288.56927 3830.6382 -734.5459 4294966562
290.6405 3830.5854 -734.20648 4294966562
293.62323 3830.2126 -734.77057 4294966562
294.92749 3830.3447 -734.43988 4294966562
297.7644 3829.8555 -734.71466 4294966562
325.49237 3828.0085 -734.78961 4294966562
217.786 3832.5542 -734.04926 4294966562
219.16837 3832.687 -734.59467 4294966562
221.57591 3833.0444 -734.56744 4294966562
223.30437 3832.7114 -734.82751 4294966562
227.49768 3832.9893 -734.62 4294966562
231.5696 3832.3066 -734.90552 4294966562
235.32945 3832.4055 -734.65472 4294966562
237.05771 3832.1484 -734.94318 4294966562
247.25569 3832.9714 -734.09564 4294966562
251.84622 3832.4978 -734.98706 4294966562
255.06279 3832.6179 -734.05627 4294966562
257.87781 3832.5063 -734.11591 4294966562
259.59189 3832.4468 -734.01459 4294966562
261.09531 3832.1785 -734.48328 4294966562
267.34412 3831.5322 -734.99567 4294966562
273.54941 3831.23 -734.99768 4294966562
275.01709 3831.4622 -734.08978 4294966562
279.36746 3831.2776 -734.172 4294966562
395.87982 3794.8579 -733.8598 4294966563
397.48856 3794.4988 -733.77545 4294966563
399.41223 3794.1025 -733.61359 4294966563
402.88278 3793.6704 -733.41675 4294966563
419.24521 3793.9863 -733.38672 4294966563
423.37637 3793.4226 -733.85858 4294966563
427.60699 3793.2778 -733.74597 4294966563
429.37802 3793.1206 -733.81555 4294966563
431.20197 3793.0088 -733.8573 4294966563
357.40683 3797.7383 -733.80182 4294966563
361.18231 3797.436 -733.94501 4294966563
365.56238 3797.2749 -733.94733 4294966563
371.69983 3796.8508 -733.82837 4294966563
373.28043 3796.7876 -733.98328 4294966563
374.79089 3796.6526 -733.86212 4294966563
377.6394 3796.4502 -733.88599 4294966563
379.17511 3796.4021 -733.98822 4294966563
381.72791 3796.2222 -733.9408 4294966563
383.4931 3796.1006 -733.85742 4294966563
385.81006 3796.0005 -733.74084 4294966563
389.47055 3795.7556 -733.66528 4294966563
391.40967 3795.6172 -733.92163 4294966563
393.26288 3795.332 -733.87183 4294966563
307.37241 3800.9854 -733.09589 4294966563
315.4407 3800.9141 -733.76636 4294966563
321.50854 3800.4709 -733.84583 4294966563
323.2579 3800.3284 -733.75879 4294966563
325.87766 3800.1948 -733.81354 4294966563
329.07184 3799.8408 -733.79193 4294966563
333.39462 3799.1692 -733.96259 4294966563
347.4653 3798.5686 -733.90009 4294966563
351.45456 3798.3679 -733.98456 4294966563
283.54181 3803.8403 -733.16925 4294966563
287.33218 3803.2903 -733.43585 4294966563
289.33817 3803.2839 -733.52094 4294966563
291.9375 3803.0364 -733.30579 4294966563
295.31778 3802.6416 -733.64502 4294966563
309.53146 3801.0413 -733.1488 4294966563
313.27896 3801.0154 -733.6521 4294966563
249.37965 3806.5264 -733.20703 4294966563
251.60631 3806.3691 -733.13959 4294966563
255.58578 3806.7075 -733.98553 4294966563
257.18042 3806.3682 -733.70013 4294966563
261.75696 3805.6746 -733.21222 4294966563
263.54156 3805.4336 -733.04449 4294966563
265.18588 3805.291 -733.10187 4294966563
269.45987 3804.9658 -733.24017 4294966563
271.72943 3804.7063 -733.33698 4294966563
275.10205 3804.8391 -733.77106 4294966563
277.35443 3804.4463 -733.10095 4294966563
279.29236 3804.2913 -733.07813 4294966563
281.26736 3804.0764 -733.05792 4294966563
215.51654 3809.1306 -733.38995 4294966563
221.98624 3808.5413 -733.05969 4294966563
223.38829 3808.9482 -733.95355 4294966563
227.44017 3808.1848 -733.08533 4294966563
233.49254 3807.7556 -733.29803 4294966563
237.87027 3807.397 -733.27582 4294966563
241.07254 3807.3894 -733.68127 4294966563
201.42326 3812.6851 -733.40656 4294966563
204.19891 3811.3257 -733.25122 4294966563
207.54306 3811.8213 -733.68616 4294966563
209.28062 3810.0969 -733.21478 4294966563
196.09067 3815.5149 -733.20807 4294966563
198.05035 3813.7527 -733.19775 4294966563
201.49127 3813.6831 -733.82312 4294966563
199.20772 3817.6499 -733.29688 4294966563
201.47507 3816.3616 -733.74908 4294966563
408.18796 3821.8989 -733.33386 4294966563
411.45886 3821.3391 -733.96155 4294966563
429.35989 3819.7534 -733.91315 4294966563
385.23361 3823.3511 -733.94714 4294966563
387.60825 3823.1394 -733.65479 4294966563
205.98596 3826.8518 -733.86255 4294966563
206.5034 3825.1494 -733.93463 4294966563
337.97134 3827.2471 -733.9892 4294966563
203.7944 3828.3652 -733.49603 4294966563
206.57983 3828.5278 -733.88519 4294966563
286.05957 3830.8594 -733.91785 4294966563
205.46179 3831.1682 -733.27753 4294966563
207.35989 3832.4739 -733.06555 4294966563
208.99017 3831.4148 -733.67883 4294966563
211.38889 3833.0449 -733.07239 4294966563
213.56488 3833.2119 -733.53778 4294966563
214.03252 3833.4441 -733.68378 4294966563
215.3239 3832.6533 -733.78949 4294966563
227.73978 3833.9744 -733.20508 4294966563
233.48795 3833.6248 -733.20605 4294966563
239.24222 3833.4233 -733.34607 4294966563
249.45419 3832.9438 -733.97705 4294966563
262.7041 3832.2603 -733.95959 4294966563
265.77856 3832.0874 -733.88672 4294966563
277.69571 3831.3657 -733.89984 4294966563
225.40331 3834.095 -733.21545 4294966563
395.65152 3794.4497 -732.19629 4294966564
397.60522 3794.2246 -732.10596 4294966564
419.40167 3793.6931 -732.02576 4294966564
421.81464 3793.3564 -732.01624 4294966564
425.46521 3793.2258 -732.52411 4294966564
429.40958 3792.8767 -732.1106 4294966564
431.34906 3792.7375 -732.19904 4294966564
353.43555 3797.8311 -732.09961 4294966564
363.32117 3797.2383 -732.21179 4294966564
367.47287 3796.9792 -732.05609 4294966564
381.64297 3795.7734 -732.05243 4294966564
385.58395 3795.5479 -732.18738 4294966564
389.42267 3795.5583 -732.21521 4294966564
391.69037 3795.3096 -732.08081 4294966564
392.78033 3795.1812 -732.349 4294966564
315.36639 3800.623 -732.05084 4294966564
319.41901 3800.1069 -732.01453 4294966564
327.13571 3799.5471 -732.08569 4294966564
339.51392 3798.6135 -732.24707 4294966564
343.65646 3798.4634 -732.11182 4294966564
345.51004 3798.335 -732.08105 4294966564
349.33344 3798.1133 -732.15173 4294966564
285.48016 3803.2998 -732.06683 4294966564
289.25531 3802.7996 -732.09668 4294966564
291.19211 3802.7874 -732.16998 4294966564
297.1123 3802.1892 -732.09589 4294966564
240.83299 3806.9133 -732.44348 4294966564
243.7693 3806.8899 -732.99219 4294966564
247.79843 3806.2205 -732.02948 4294966564
253.78004 3806.158 -732.89319 4294966564
259.47662 3805.7842 -732.9248 4294966564
269.15668 3804.6199 -732.11536 4294966564
271.63257 3804.407 -732.10028 4294966564
211.4478 3809.0542 -732.04932 4294966564
212.11107 3809.489 -732.99805 4294966564
213.57744 3808.9285 -732.00458 4294966564
232.07579 3807.7012 -732.80798 4294966564
234.7606 3807.3103 -732.18573 4294966564
193.50108 3812.1924 -732.46265 4294966564
194.20201 3811.3477 -732.09381 4294966564
197.56696 3812.3328 -732.92889 4294966564
199.74448 3812.3225 -732.94269 4294966564
189.6662 3815.0835 -732.50415 4294966564
191.66399 3814.6587 -732.60468 4294966564
193.10808 3815.0066 -732.97443 4294966564
195.29372 3813.3308 -732.91217 4294966564
403.29767 3822.135 -732.04553 4294966564
208.6758 3833.1992 -732.74164 4294966564
236.99602 3833.8752 -732.31213 4294966564
249.19717 3833.5151 -732.26361 4294966564
251.84911 3833.3352 -732.08301 4294966564
253.57524 3833.0732 -732.11682 4294966564
254.50003 3832.9648 -732.31329 4294966564
265.49042 3832.532 -732.24384 4294966564
269.62573 3832.3225 -732.27856 4294966564
271.41055 3832.2134 -732.11969 4294966564
278.99179 3831.6189 -732.04303 4294966564
287.21323 3831.1584 -732.06769 4294966564
216.19664 3834.5591 -732.56671 4294966564
220.14197 3834.6094 -732.55835 4294966564
221.72345 3834.7417 -732.00153 4294966564
401.12787 3793.634 -731.93182 4294966565
403.0643 3793.4314 -731.91058 4294966565
405.49075 3793.0952 -731.80737 4294966565
409.47757 3793.1453 -731.43762 4294966565
411.57318 3793.2998 -731.65045 4294966565
413.69101 3793.5386 -731.46387 4294966565
358.20697 3797.4827 -731.66504 4294966565
359.30771 3797.376 -731.93988 4294966565
361.36755 3797.2163 -731.97394 4294966565
369.33029 3796.7024 -731.98993 4294966565
373.63855 3796.5049 -731.91443 4294966565
375.48264 3796.3403 -731.8985 4294966565
377.56012 3796.0623 -731.97107 4294966565
379.293 3796.1074 -731.96582 4294966565
387.5694 3795.678 -731.84802 4294966565
311.42645 3800.8062 -731.7298 4294966565
313.33786 3800.7637 -731.58087 4294966565
323.07782 3799.8464 -731.94525 4294966565
328.70822 3799.3572 -731.75586 4294966565
331.45709 3799.0273 -731.50256 4294966565
333.25897 3798.8198 -731.56067 4294966565
335.58084 3798.6902 -731.52814 4294966565
337.33786 3798.7405 -731.95544 4294966565
341.30798 3798.7163 -731.93628 4294966565
279.3642 3803.8472 -731.77863 4294966565
281.5033 3803.6499 -731.78943 4294966565
293.25217 3802.4543 -731.81976 4294966565
305.23126 3801.4067 -731.43146 4294966565
309.59894 3801.0393 -731.4248 4294966565
239.58429 3806.905 -731.94543 4294966565
243.99542 3806.542 -731.82343 4294966565
251.56503 3805.926 -731.76288 4294966565
253.58426 3805.802 -731.89441 4294966565
255.68929 3805.5249 -731.86804 4294966565
258.91528 3805.4824 -731.93353 4294966565
261.72903 3805.2466 -731.85608 4294966565
275.879 3804.0786 -731.47833 4294966565
277.03836 3804.0701 -731.91876 4294966565
207.29698 3809.5415 -731.65625 4294966565
209.45897 3809.1619 -731.69049 4294966565
231.68225 3807.4275 -731.98108 4294966565
237.94833 3807.0212 -731.71674 4294966565
189.60136 3811.8342 -731.50928 4294966565
190.85866 3811.6396 -731.52063 4294966565
195.22438 3810.9739 -731.70221 4294966565
198.71089 3810.9668 -731.98718 4294966565
184.60207 3813.793 -731.06854 4294966565
185.78644 3814.9009 -731.45624 4294966565
187.27101 3813.4944 -731.58875 4294966565
409.60297 3821.8613 -731.27313 4294966565
411.17676 3821.6487 -731.46136 4294966565
413.80716 3821.2488 -731.69855 4294966565
415.79019 3821.0085 -731.76642 4294966565
417.29483 3820.8596 -731.80603 4294966565
420.0545 3820.6658 -731.60297 4294966565
421.34531 3820.6292 -731.836 4294966565
423.33765 3820.5093 -731.66132 4294966565
425.51938 3820.3823 -731.76959 4294966565
427.397 3820.2612 -731.77478 4294966565
431.47168 3820.0496 -731.9729 4294966565
375.31213 3823.9695 -731.39508 4294966565
387.59253 3823.0078 -731.01434 4294966565
393.29028 3822.522 -731.09186 4294966565
395.54175 3822.3726 -731.05682 4294966565
397.40021 3822.2349 -731.05676 4294966565
399.36407 3822.0896 -731.19281 4294966565
404.99017 3822.136 -731.70142 4294966565
328.90787 3827.8892 -731.75848 4294966565
333.47647 3827.4084 -731.04724 4294966565
338.04532 3827.1833 -731.34235 4294966565
345.06052 3826.5361 -731.33801 4294966565
347.66113 3826.1321 -731.15289 4294966565
349.54276 3826.0786 -731.31256 4294966565
351.31052 3825.8633 -731.21899 4294966565
290.63571 3830.8386 -731.26282 4294966565
321.22958 3828.1655 -731.3222 4294966565
206.23221 3833.8877 -731.98315 4294966565
257.88409 3832.8877 -731.8324 4294966565
263.11771 3832.4702 -731.99561 4294966565
267.17114 3832.4385 -731.9903 4294966565
275.89499 3831.7129 -731.21991 4294966565
277.35675 3831.6829 -731.76678 4294966565
281.60461 3831.4761 -731.89911 4294966565
285.65067 3831.1582 -731.72607 4294966565
209.33614 3835.0596 -731.26556 4294966565
213.94608 3835.0928 -731.29919 4294966565
225.46866 3834.5508 -731.8996 4294966565
395.1347 3794.8811 -730.18469 4294966566
427.57352 3792.9204 -730.04834 4294966566
429.2529 3792.7932 -730.18353 4294966566
431.32614 3792.6694 -730.03009 4294966566
275.05698 3803.8547 -730.02655 4294966566
239.39395 3806.7683 -730.02057 4294966566
245.82828 3806.2488 -730.16779 4294966566
265.11343 3804.7053 -730.11078 4294966566
269.17523 3804.4578 -730.08539 4294966566
271.70746 3804.2454 -730.04816 4294966566
273.34338 3804.1418 -730.04669 4294966566
203.25977 3809.5767 -730.10687 4294966566
205.05023 3809.2961 -730.28754 4294966566
208.88562 3808.9988 -730.15222 4294966566
211.50606 3808.8535 -730.71692 4294966566
213.49141 3808.7585 -730.7002 4294966566
215.3214 3808.3865 -730.81549 4294966566
217.7271 3808.3167 -730.92126 4294966566
221.50417 3807.8484 -730.78497 4294966566
186.08469 3812.3726 -730.78607 4294966566
187.7926 3811.3396 -730.43066 4294966566
193.63911 3810.2361 -730.02295 4294966566
402.12582 3821.9741 -730.80005 4294966566
361.51404 3824.9663 -730.84137 4294966566
373.07669 3824.0371 -730.98138 4294966566
379.97058 3823.4924 -730.57782 4294966566
383.73892 3823.2322 -730.96808 4294966566
391.55106 3822.6187 -730.86505 4294966566
407.58566 3822.0161 -730.96857 4294966566
323.23712 3828.041 -730.9389 4294966566
284.10516 3831.1187 -730.35657 4294966566
213.29973 3835.3232 -730.00177 4294966566
216.44167 3835.3389 -730.28717 4294966566
221.44905 3835.1133 -730.0202 4294966566
224.85126 3834.6873 -730.4472 4294966566
397.50717 3794.4229 -729.78192 4294966567
399.37482 3794.113 -729.59332 4294966567
403.19333 3793.656 -729.5907 4294966567
405.46674 3793.5063 -729.67554 4294966567
407.34708 3793.5486 -729.43915 4294966567
409.74918 3793.5667 -729.58887 4294966567
417.29083 3793.8113 -729.94 4294966567
419.4313 3793.6921 -729.94641 4294966567
421.4913 3793.5376 -729.8855 4294966567
423.69113 3793.3718 -729.53125 4294966567
357.85095 3797.9656 -729.12714 4294966567
361.26395 3797.6084 -729.66754 4294966567
363.64667 3797.491 -729.68353 4294966567
367.74841 3797.1865 -729.73816 4294966567
369.39236 3797.062 -729.64124 4294966567
371.32581 3796.8464 -729.8443 4294966567
373.57053 3796.7109 -729.50909 4294966567
375.42465 3796.6101 -729.21582 4294966567
377.39679 3796.3828 -729.60889 4294966567
381.47052 3796.2314 -729.15869 4294966567
385.31207 3795.9556 -729.58875 4294966567
387.34195 3795.8623 -729.57471 4294966567
389.46399 3795.7512 -729.52814 4294966567
391.7027 3795.5186 -729.74414 4294966567
393.59634 3795.2539 -729.85394 4294966567
312.87711 3800.9431 -729.4928 4294966567
319.41751 3800.3398 -729.43158 4294966567
325.68423 3799.9285 -729.37561 4294966567
333.67487 3799.0405 -729.14227 4294966567
335.86551 3798.9338 -729.17755 4294966567
339.52014 3798.9116 -729.48328 4294966567
341.36951 3798.8853 -729.64722 4294966567
343.71069 3798.8357 -729.57611 4294966567
345.48444 3798.8286 -729.12598 4294966567
347.38419 3798.6296 -729.71448 4294966567
351.43393 3798.4189 -729.62836 4294966567
277.15341 3803.9199 -729.67499 4294966567
279.39078 3803.5564 -729.81628 4294966567
283.55203 3803.197 -729.83997 4294966567
287.57462 3802.9412 -729.79504 4294966567
289.30927 3802.8955 -729.40784 4294966567
291.59488 3802.7021 -729.53925 4294966567
295.2334 3802.4734 -729.58472 4294966567
298.87842 3802.1809 -729.90045 4294966567
307.30609 3801.4741 -729.17328 4294966567
309.38693 3801.2981 -729.19958 4294966567
311.50131 3801.1008 -729.26678 4294966567
237.61296 3806.9348 -729.89258 4294966567
242.11607 3806.6033 -729.20349 4294966567
243.49857 3806.4768 -729.95648 4294966567
247.66423 3806.0959 -729.97498 4294966567
249.33066 3805.8445 -729.71838 4294966567
253.42555 3805.668 -729.95374 4294966567
257.24515 3805.2749 -729.97009 4294966567
259.49246 3805.2131 -729.54297 4294966567
261.36511 3805.0264 -729.91528 4294966567
263.44434 3805.0188 -729.84003 4294966567
267.03833 3804.5703 -729.81238 4294966567
193.77936 3809.9973 -729.02478 4294966567
195.77249 3809.6763 -729.00702 4294966567
201.89439 3809.5728 -729.33862 4294966567
207.05005 3809.1509 -729.93597 4294966567
233.79956 3807.0527 -729.83276 4294966567
185.86147 3810.9727 -729.19928 4294966567
191.04869 3810.509 -729.99652 4294966567
197.68344 3810.084 -729.9845 4294966567
424.94617 3820.1577 -729.29626 4294966567
387.02975 3822.9189 -729.18457 4294966567
389.41977 3822.7517 -729.02777 4294966567
349.19266 3825.8523 -729.0968 4294966567
307.41846 3830.5464 -729.01343 4294966567
251.49832 3833.1516 -729.45551 4294966567
257.38245 3832.7556 -729.44116 4294966567
259.16034 3832.5867 -729.26917 4294966567
263.20972 3832.2002 -729.17102 4294966567
265.45999 3832.1301 -729.07129 4294966567
209.17151 3835.5203 -729.64642 4294966567
212.03879 3835.3638 -729.05414 4294966567
219.5303 3835.2346 -729.87415 4294966567
244.8024 3806.4412 -728.61414 4294966568
197.18767 3809.6438 -728.85876 4294966568
200.9516 3809.5618 -728.04761 4294966568
210.99356 3808.7708 -728.12482 4294966568
216.82382 3808.593 -728.17487 4294966568
186.54602 3810.7913 -728.70874 4294966568
189.78238 3810.4307 -728.91779 4294966568
191.29684 3810.2422 -728.71155 4294966568
399.26498 3821.9814 -728.97095 4294966568
402.47284 3821.8203 -728.55432 4294966568
405.14468 3821.8679 -728.78369 4294966568
407.43631 3821.8547 -728.91205 4294966568
411.30038 3821.3779 -728.84302 4294966568
415.25781 3820.8132 -728.87836 4294966568
417.67862 3820.5254 -728.72845 4294966568
419.70862 3820.4075 -728.88684 4294966568
421.50787 3820.2039 -728.80457 4294966568
427.60422 3819.9587 -728.6673 4294966568
365.49152 3824.5171 -728.7002 4294966568
371.59421 3824.1631 -728.94775 4294966568
372.77707 3823.9854 -728.70782 4294966568
381.4075 3823.3691 -728.90857 4294966568
385.32315 3823.0371 -728.78595 4294966568
391.65543 3822.4783 -728.84479 4294966568
335.31619 3827.0337 -728.82928 4294966568
339.79364 3826.7859 -728.97205 4294966568
345.53848 3826.2749 -728.64093 4294966568
351.48907 3825.6709 -728.79852 4294966568
353.50986 3825.5049 -728.90723 4294966568
357.37567 3825.2375 -728.73047 4294966568
253.74599 3832.8157 -728.87994 4294966568
267.20679 3832.0022 -728.76642 4294966568
273.54892 3831.5371 -728.99084 4294966568
275.4838 3831.3508 -728.75464 4294966568
278.92926 3831.0801 -728.95868 4294966568
283.44186 3831.0107 -728.70142 4294966568
400.33023 3794.5034 -727.82385 4294966569
409.40921 3794.2854 -727.31384 4294966569
325.70697 3800.3567 -727.00458 4294966569
293.42569 3802.9946 -727.08539 4294966569
296.76096 3802.7629 -727.16705 4294966569
241.23802 3806.9788 -727.36108 4294966569
249.28671 3806.3096 -727.55249 4294966569
251.18152 3806.2415 -727.17529 4294966569
253.16502 3806.0474 -727.39221 4294966569
255.79144 3805.8862 -727.2511 4294966569
257.43396 3805.7466 -727.35229 4294966569
259.44791 3805.6689 -727.09351 4294966569
267.30762 3805.1003 -727.06183 4294966569
269.09122 3804.9355 -727.13428 4294966569
271.80905 3804.7297 -727.07166 4294966569
273.42181 3804.593 -727.04535 4294966569
279.10379 3804.144 -727.15668 4294966569
206.72534 3809.0737 -727.75293 4294966569
209.13841 3808.9622 -727.5307 4294966569
213.30443 3808.7681 -727.6261 4294966569
228.74586 3807.6975 -727.96155 4294966569
235.26689 3807.4988 -727.09851 4294966569
239.43373 3807.1865 -727.1059 4294966569
184.52788 3810.7715 -727.35919 4294966569
390.72394 3822.5742 -727.56342 4294966569
350.74271 3825.6121 -727.21564 4294966569
309.18991 3830.3762 -727.03351 4294966569
313.16071 3828.844 -727.03125 4294966569
306.186 3831.2668 -727.45111 4294966569
216.25992 3835.1467 -727.43311 4294966569
222.87863 3834.6179 -727.37598 4294966569
401.83301 3794.803 -726.70496 4294966570
403.43396 3794.8606 -726.37238 4294966570
407.17035 3794.5935 -726.48993 4294966570
411.72589 3794.4978 -726.77344 4294966570
413.48337 3794.4856 -726.89417 4294966570
415.43591 3794.4753 -726.91779 4294966570
419.60181 3794.3179 -726.67841 4294966570
421.34271 3794.116 -726.97467 4294966570
423.57138 3793.8987 -726.73065 4294966570
425.45413 3793.8887 -726.59412 4294966570
427.51007 3793.7498 -726.68457 4294966570
431.33456 3793.3093 -726.8587 4294966570
367.68704 3797.9341 -726.63141 4294966570
368.95636 3797.8196 -726.78796 4294966570
371.53891 3797.5955 -726.6424 4294966570
375.32361 3797.1592 -726.68158 4294966570
377.5687 3796.8896 -726.76465 4294966570
379.54669 3796.7676 -726.85547 4294966570
387.45224 3796.3533 -726.83942 4294966570
389.60684 3796.3003 -726.8241 4294966570
391.69073 3796.0696 -726.95673 4294966570
393.44928 3795.9343 -726.82794 4294966570
395.89044 3795.5093 -726.86664 4294966570
321.64008 3800.6941 -726.78198 4294966570
337.50696 3799.3518 -726.97076 4294966570
341.43179 3799.4458 -726.8905 4294966570
343.52145 3799.5034 -726.45422 4294966570
345.172 3799.4226 -726.56006 4294966570
349.41467 3799.2607 -726.66174 4294966570
351.44077 3799.0869 -726.65869 4294966570
353.15869 3798.946 -726.64429 4294966570
361.25378 3798.2573 -726.83588 4294966570
363.74802 3798.1304 -726.86121 4294966570
365.31488 3798.0559 -726.86066 4294966570
287.60153 3803.4324 -726.9563 4294966570
291.59067 3803.2522 -726.69916 4294966570
307.60742 3802.033 -726.71826 4294966570
309.76532 3801.8042 -726.94879 4294966570
243.77702 3806.7893 -726.90387 4294966570
247.78967 3806.5522 -726.92816 4294966570
261.7988 3805.5349 -726.98187 4294966570
277.27621 3804.3169 -726.93048 4294966570
200.11893 3809.8074 -726.65094 4294966570
237.41003 3807.387 -726.95374 4294966570
397.25586 3821.9885 -726.5412 4294966570
399.54913 3821.845 -726.4765 4294966570
402.40015 3821.7256 -726.4776 4294966570
403.63605 3821.6819 -726.1452 4294966570
407.49747 3821.595 -726.45337 4294966570
411.31625 3821.1704 -726.49707 4294966570
415.28717 3820.4685 -726.27618 4294966570
417.70782 3820.324 -726.30798 4294966570
425.54684 3819.9463 -726.24628 4294966570
427.2836 3819.8425 -726.61517 4294966570
359.34158 3824.9771 -726.37354 4294966570
369.46524 3824.1345 -726.68408 4294966570
370.9082 3824.0225 -726.60809 4294966570
372.87109 3823.8445 -726.09473 4294966570
376.27643 3823.6177 -726.46674 4294966570
383.60706 3823.0566 -726.12372 4294966570
385.21371 3822.9487 -726.40839 4294966570
387.43509 3822.7288 -726.47369 4294966570
389.61841 3822.5857 -726.52435 4294966570
393.73209 3822.2175 -726.3089 4294966570
333.45435 3826.8916 -726.08862 4294966570
335.36118 3826.7827 -726.04462 4294966570
338.07889 3826.6619 -726.02869 4294966570
341.26486 3826.4839 -726.23779 4294966570
345.28494 3825.9785 -726.328 4294966570
347.28537 3825.7837 -726.60693 4294966570
349.49185 3825.6265 -726.354 4294966570
353.27484 3825.3174 -726.15338 4294966570
357.09155 3825.1155 -726.26868 4294966570
311.75989 3829.3721 -726.52295 4294966570
253.617 3832.6316 -726.51288 4294966570
261.49615 3831.999 -726.71075 4294966570
263.00528 3831.9666 -726.01001 4294966570
265.19418 3831.8931 -726.83069 4294966570
275.64658 3831.2354 -726.31433 4294966570
277.31879 3831.1658 -726.77075 4294966570
278.58304 3831.0696 -726.57623 4294966570
306.96579 3831.4797 -726.74847 4294966570
217.42813 3834.8804 -726.66864 4294966570
199.0809 3809.8877 -725.38983 4294966571
208.75131 3809.3179 -725.54712 4294966571
187.49727 3810.3132 -725.9057 4294966571
193.50554 3810.0852 -725.73254 4294966571
421.41928 3820.0425 -725.97363 4294966571
361.33762 3824.7998 -725.99915 4294966571
343.97186 3826.1177 -725.64594 4294966571
257.44635 3832.2168 -725.78271 4294966571
273.51788 3831.2117 -725.78058 4294966571
413.91162 3794.875 -724.71539 4294966572
416.23291 3794.8857 -724.08813 4294966572
417.3858 3794.7844 -724.74658 4294966572
419.45782 3794.5852 -724.62262 4294966572
422.12698 3794.3879 -724.4339 4294966572
429.49695 3793.8174 -724.47614 4294966572
431.42789 3793.6387 -724.70752 4294966572
373.44339 3797.7437 -724.24225 4294966572
375.38065 3797.5071 -724.7821 4294966572
