# .PCD v0.7 - Point Cloud Data file format
VERSION 0.7
FIELDS x y z rgba
SIZE 4 4 4 4
TYPE F F F U
COUNT 1 1 1 1
WIDTH 1146
HEIGHT 1
VIEWPOINT 0 0 0 1 0 0 0
POINTS 1146
DATA ascii
465.67761 868.55737 -216.6801 4294967080
465.93433 871.12604 -216.89238 4294967080
466.25323 874.83356 -216.78029 4294967080
477.13617 932.53406 -216.55457 4294967080
477.44766 944.09357 -216.91313 4294967080
475.87677 946.76392 -216.5584 4294967080
465.5014 866.71606 -215.35524 4294967081
465.84219 870.37451 -215.05907 4294967081
466.04691 872.45282 -215.97348 4294967081
477.11078 932.79449 -215.31729 4294967081
477.01334 934.79065 -215.38168 4294967081
476.04846 946.72656 -215.1134 4294967081
477.16528 945.18536 -215.29465 4294967081
466.07452 873.45349 -214.18083 4294967082
477.35757 940.44513 -214.86526 4294967082
477.36716 943.67407 -214.43474 4294967082
474.57703 947.66284 -214.03636 4294967082
477.19409 939.06409 -213.05318 4294967083
477.28314 944.18597 -213.75757 4294967083
476.95193 945.21027 -213.44701 4294967083
477.02084 934.78601 -212.57152 4294967084
476.13309 946.8053 -212.71167 4294967084
473.52142 948.31372 -212.48839 4294967084
477.18576 932.39954 -211.21097 4294967085
476.60611 946.29071 -211.08572 4294967085
477.02881 934.51898 -210.3551 4294967086
477.03024 936.59418 -210.89294 4294967086
477.47644 941.94678 -210.51512 4294967086
477.31845 944.07947 -210.42644 4294967086
477.09952 945.31976 -210.87334 4294967086
477.33804 939.95844 -209.93797 4294967087
474.63913 948.09875 -209.67912 4294967087
469.22583 922.83691 -208.59409 4294967088
470.67374 924.2077 -208.90652 4294967088
477.21396 931.15955 -208.30498 4294967088
477.02103 934.93152 -208.75575 4294967088
476.91544 936.82263 -208.8414 4294967088
477.36203 943.56628 -208.75996 4294967088
477.02539 945.22681 -208.83398 4294967088
470.73972 924.43121 -207.21248 4294967089
477.0462 934.60669 -207.01294 4294967089
477.138 938.90741 -207.07349 4294967089
476.66589 946.33563 -207.54614 4294967089
468.22351 921.48743 -206.87115 4294967090
473.23489 925.61542 -206.37869 4294967090
477.25381 932.20801 -206.96086 4294967090
477.32703 941.05695 -206.34793 4294967090
477.29456 943.76251 -206.73618 4294967090
476.98337 945.21124 -206.97404 4294967090
477.20493 940.37421 -205.25082 4294967091
468.34534 922.75836 -204.78601 4294967092
469.80719 924.28851 -204.17259 4294967092
476.75903 928.40692 -204.86301 4294967092
477.29092 931.05267 -204.57603 4294967092
477.02371 934.74274 -204.96718 4294967092
476.95013 936.8421 -204.77794 4294967092
477.38504 943.40369 -204.61954 4294967092
476.63138 946.25696 -204.25803 4294967092
477.18839 945.18085 -204.6817 4294967092
467.31482 921.09351 -203.36055 4294967093
468.01425 922.88525 -203.16933 4294967093
471.95959 925.38373 -203.39389 4294967093
475.57761 927.20886 -202.86685 4294967094
476.79575 928.60754 -202.98187 4294967094
477.29333 932.16528 -202.96249 4294967094
476.94287 934.9812 -201.57838 4294967095
477.15634 943.76947 -201.6254 4294967095
467.34061 922.87457 -200.97127 4294967096
472.17545 925.60974 -200.30626 4294967096
475.18805 926.99414 -200.87373 4294967096
477.07602 929.77307 -200.31773 4294967096
476.81253 938.70215 -200.58247 4294967096
477.04245 940.93396 -200.26881 4294967096
476.93237 945.37103 -200.5939 4294967096
473.49753 926.17407 -199.5368 4294967097
475.53137 927.37622 -199.36172 4294967097
475.13754 948.07251 -199.79289 4294967097
469.30176 924.96362 -198.95862 4294967098
476.75119 928.66119 -198.21239 4294967098
477.34378 931.73413 -198.74673 4294967098
476.98337 934.45624 -198.89342 4294967098
477.061 941.31714 -198.97878 4294967098
477.16272 943.97186 -198.51634 4294967098
476.85489 945.95184 -198.82822 4294967098
471.69531 925.84265 -197.23364 4294967099
473.62146 926.37866 -197.03783 4294967099
477.33029 931.76941 -197.12744 4294967099
476.93478 934.54858 -197.14713 4294967099
476.95197 945.91016 -197.04041 4294967099
475.28464 948.16418 -197.14015 4294967099
465.40097 921.70099 -196.40863 4294967100
475.52277 927.42322 -196.79228 4294967100
477.03815 929.76508 -196.5062 4294967100
477.04303 941.09222 -196.54636 4294967100
477.23502 944.19104 -196.88129 4294967100
476.64465 946.77832 -196.71541 4294967100
464.81384 919.50977 -195.06473 4294967101
476.63379 947.12903 -195.26953 4294967101
477.02124 945.97534 -195.19295 4294967101
474.36774 948.4267 -195.12149 4294967101
465.44125 923.08405 -194.87775 4294967102
466.61139 924.58972 -194.23531 4294967102
469.68857 925.61072 -194.9892 4294967102
473.64557 926.5564 -194.56129 4294967102
475.61719 927.57971 -194.97816 4294967102
477.0697 929.96857 -194.86053 4294967102
477.19525 931.83667 -194.92131 4294967102
476.86017 934.63287 -194.56779 4294967102
476.69791 936.74274 -194.59177 4294967102
477.12866 941.34381 -194.46999 4294967102
477.25137 943.82025 -194.63109 4294967102
476.14014 947.90125 -194.68803 4294967102
464.28171 919.62152 -193.09859 4294967103
471.27951 926.10376 -193.02696 4294967103
476.50296 928.62915 -193.07013 4294967103
477.32471 943.66956 -193.25098 4294967103
475.71454 948.3053 -193.57562 4294967103
465.26813 923.89362 -192.98416 4294967104
469.13873 925.88049 -192.41379 4294967104
475.57712 927.52844 -192.80234 4294967104
476.97067 929.83759 -192.92717 4294967104
477.10013 931.68579 -192.78046 4294967104
476.83115 934.763 -192.82085 4294967104
476.582 947.52637 -192.38322 4294967104
477.16394 945.67816 -192.93022 4294967104
475.211 948.6153 -192.79823 4294967104
463.76099 919.7384 -191.35214 4294967105
463.98383 922.19556 -191.16983 4294967105
473.672 926.60852 -191.49655 4294967105
476.01151 948.23535 -191.17859 4294967105
465.0795 924.70148 -190.74158 4294967106
469.58789 926.02319 -190.3609 4294967106
471.8652 926.18829 -190.95593 4294967106
475.54871 927.58148 -190.92944 4294967106
476.98315 929.77814 -190.73526 4294967106
477.09085 931.8902 -190.93965 4294967106
476.82819 934.64722 -190.79584 4294967106
477.07718 941.06116 -190.38853 4294967106
477.35458 944.5351 -190.17322 4294967106
477.04965 946.98816 -190.89088 4294967106
474.0195 948.96991 -190.80151 4294967106
463.63559 923.56512 -189.30235 4294967107
473.63034 926.61786 -189.08302 4294967107
477.04242 940.87634 -189.05672 4294967107
471.97159 949.33624 -189.88589 4294967107
463.04358 919.72101 -188.69067 4294967108
467.01398 926.02686 -188.84828 4294967108
472.01614 926.19586 -188.40158 4294967108
476.63531 929.11481 -188.75238 4294967108
477.07739 931.38916 -188.97542 4294967108
477.32309 944.57574 -188.73949 4294967108
477.15906 945.96057 -188.87828 4294967108
474.75589 948.85541 -188.57243 4294967108
476.17209 948.21631 -188.41728 4294967108
462.58231 919.91327 -187.09694 4294967109
465.19431 925.63275 -187.42325 4294967109
469.29849 926.18945 -187.16402 4294967109
476.31006 928.51666 -187.27174 4294967109
477.11807 941.83258 -187.52567 4294967109
473.2366 949.164 -187.11139 4294967109
462.37909 922.14624 -186.28824 4294967110
463.0481 923.52374 -186.53699 4294967110
471.91354 926.18536 -186.92033 4294967110
477.17798 931.37036 -186.99341 4294967110
477.20654 944.28003 -186.8615 4294967110
476.74445 946.56299 -186.54559 4294967110
474.78125 948.66254 -186.36877 4294967110
462.47781 922.77014 -185.21347 4294967111
467.00854 926.32837 -185.30688 4294967111
475.17242 927.46637 -185.55121 4294967111
477.2135 931.25391 -185.0576 4294967111
476.89606 941.38287 -185.03659 4294967111
474.37866 948.80475 -185.09352 4294967111
462.06345 919.54742 -184.94135 4294967112
463.49219 925.12329 -184.58641 4294967112
465.10229 926.01471 -184.98996 4294967112
469.28354 926.30194 -184.92355 4294967112
472.18216 926.25128 -184.90048 4294967112
476.0766 928.6889 -184.28101 4294967112
476.65216 938.95428 -184.72208 4294967112
477.05438 943.98969 -184.74364 4294967112
476.62921 946.41003 -184.80632 4294967112
472.41809 949.27173 -184.54665 4294967112
466.71359 926.46277 -183.11795 4294967113
476.67911 934.2077 -183.34415 4294967113
476.45898 946.46667 -183.10562 4294967113
472.46854 949.28546 -183.11621 4294967113
461.61835 919.22955 -182.79156 4294967114
462.04773 923.55011 -182.81812 4294967114
476.5007 936.19086 -182.41171 4294967114
476.63879 940.47815 -182.92848 4294967114
461.19016 919.65509 -181.2394 4294967115
462.92209 925.12012 -181.37312 4294967115
476.61249 932.65662 -181.38179 4294967115
476.45102 934.18695 -181.0204 4294967115
476.56824 941.38611 -181.1174 4294967115
476.84717 943.44592 -181.59724 4294967115
461.49899 923.26941 -180.63184 4294967116
466.46362 926.53101 -180.96352 4294967116
469.75211 926.27203 -180.5065 4294967116
475.32596 928.31958 -180.62872 4294967116
476.29871 936.58844 -180.43562 4294967116
476.33871 939.08435 -180.66524 4294967116
476.41275 946.12653 -180.82716 4294967116
474.00104 948.78473 -180.72005 4294967116
464.51523 926.28009 -179.01617 4294967117
475.89975 929.82617 -179.09666 4294967117
476.2009 938.87299 -179.01067 4294967117
475.26193 947.74799 -179.5721 4294967117
476.43433 945.68585 -179.19035 4294967117
461.02951 923.33868 -178.57628 4294967118
462.02225 924.94434 -178.47769 4294967118
471.69913 926.55682 -178.76718 4294967118
476.38986 931.74323 -178.27271 4294967118
476.22379 934.91302 -178.58861 4294967118
476.14502 936.64868 -178.67484 4294967118
460.05566 922.05273 -177.14139 4294967119
462.63919 925.78632 -177.41026 4294967119
464.25302 926.49707 -177.38846 4294967119
475.8613 929.83691 -177.08295 4294967119
476.14496 931.99976 -177.05667 4294967119
461.32346 925.14124 -176.56993 4294967120
466.832 926.69318 -176.71042 4294967120
475.04941 928.33557 -176.25299 4294967120
459.55014 921.88239 -175.05708 4294967121
467.57297 926.73566 -175.33565 4294967121
476.07126 934.38965 -175.45807 4294967121
459.8869 923.74371 -174.76094 4294967122
462.56693 926.3819 -174.67627 4294967122
473.7052 927.10339 -174.95901 4294967122
459.21271 922.85425 -173.38858 4294967123
461.84256 926.57324 -173.25021 4294967123
470.56403 926.50299 -173.13794 4294967123
465.01086 927.05048 -173.49275 4294967123
459.54349 924.55347 -172.77234 4294967124
472.63885 926.93451 -172.93909 4294967124
473.7312 927.32965 -172.57172 4294967124
476.08896 931.1076 -172.73915 4294967124
459.47235 925.00128 -171.5975 4294967125
462.16827 927.10675 -171.22951 4294967125
458.15976 922.33325 -170.95767 4294967126
460.6076 926.41046 -170.87894 4294967126
470.40933 926.78894 -170.78058 4294967126
473.94073 927.43597 -170.83188 4294967126
462.25082 927.47052 -169.26692 4294967127
467.79568 927.05096 -169.17867 4294967127
473.97186 927.7218 -169.2776 4294967127
457.86829 923.76764 -168.55022 4294967128
459.34418 925.88245 -168.83099 4294967128
471.4538 926.7439 -168.7282 4294967128
472.56177 927.1095 -168.79971 4294967128
470.96106 950.40753 -168.59268 4294967128
474.37125 948.37463 -168.20822 4294967128
457.28055 921.91949 -167.35411 4294967129
460.75317 927.1543 -167.72298 4294967129
474.64969 928.77582 -167.66075 4294967129
458.20621 925.14764 -166.95033 4294967130
459.17694 926.33374 -166.88824 4294967130
470.63672 927.02472 -166.65118 4294967130
472.38849 927.22369 -166.63235 4294967130
475.43576 930.36469 -166.6069 4294967130
472.00635 950.00751 -166.91946 4294967130
456.87051 921.71985 -165.50618 4294967131
457.06064 923.99536 -165.02911 4294967131
458.32452 926.05933 -165.14006 4294967131
462.36636 927.98114 -165.21266 4294967131
474.21683 947.81195 -165.26338 4294967131
467.3288 927.26233 -164.84094 4294967132
471.0318 927.08698 -164.00871 4294967132
472.2785 927.37329 -164.43575 4294967132
473.8143 928.30493 -164.80342 4294967132
470.47617 950.40118 -164.5172 4294967132
473.43369 948.7674 -164.78638 4294967132
456.32806 921.77393 -163.15256 4294967133
465.651 927.61371 -163.13696 4294967133
468.39792 927.0816 -163.33429 4294967133
473.10886 949.07208 -163.65817 4294967133
456.57623 923.67975 -162.86967 4294967134
456.91415 925.24451 -162.61235 4294967134
458.63309 927.14569 -162.87439 4294967134
460.70078 927.99438 -162.9648 4294967134
470.24365 927.24512 -162.77571 4294967134
472.15408 927.48871 -162.9041 4294967134
473.39401 928.29773 -162.78896 4294967134
474.16544 929.59705 -162.5275 4294967134
473.93063 947.57227 -162.40987 4294967134
472.16302 949.83832 -162.52606 4294967134
459.09665 927.80444 -161.17424 4294967135
463.20886 928.19751 -161.32985 4294967135
473.50137 929.12622 -161.24776 4294967135
457.22134 926.65918 -160.46167 4294967136
465.27039 927.77795 -160.95494 4294967136
468.88458 927.05249 -160.42029 4294967136
470.62149 927.34967 -160.66432 4294967136
474.04355 930.81696 -160.37013 4294967136
470.70105 950.51062 -160.59825 4294967136
471.67023 950.05463 -160.97498 4294967136
473.0314 949.00415 -160.97964 4294967136
456.12109 925.47144 -159.20662 4294967137
458.79745 928.0368 -159.13441 4294967137
473.72656 930.93805 -159.10513 4294967137
474.01221 933.87964 -159.01231 4294967137
473.94135 946.83557 -159.43459 4294967137
455.32324 921.24664 -158.68675 4294967138
456.77203 926.92499 -158.59604 4294967138
460.48773 928.3551 -158.84673 4294967138
463.03622 928.27167 -158.55618 4294967138
465.77286 927.66943 -158.77904 4294967138
468.77267 927.2002 -158.32314 4294967138
471.51428 927.95886 -158.5856 4294967138
470.87964 950.74438 -158.95435 4294967138
472.88239 948.95428 -158.40335 4294967138
457.21249 927.68243 -157.18823 4294967139
460.36661 928.66644 -157.48308 4294967139
465.76233 927.70331 -157.23886 4294967139
468.31171 927.54016 -157.09315 4294967139
472.96902 930.12469 -157.29959 4294967139
473.70935 933.10461 -157.26595 4294967139
455.00812 923.87091 -156.89951 4294967140
455.61993 926.12915 -156.84753 4294967140
458.44046 928.30005 -156.87334 4294967140
471.48865 928.37225 -156.7397 4294967140
472.29596 929.22455 -156.3707 4294967140
473.12384 938.92053 -156.87102 4294967140
472.22656 949.80841 -156.83218 4294967140
473.20465 948.11615 -156.74791 4294967140
454.63861 924.96838 -155.09579 4294967141
457.01703 927.9245 -155.53574 4294967141
460.50876 928.7655 -155.32603 4294967141
463.0936 928.31995 -155.28918 4294967141
469.00217 927.72552 -155.17752 4294967141
472.92398 938.85449 -155.10075 4294967141
455.52722 926.96747 -154.39561 4294967142
458.24054 928.67572 -154.90668 4294967142
472.31903 929.78552 -154.8813 4294967142
473.20346 933.70203 -154.58739 4294967142
472.9527 936.42657 -154.63702 4294967142
473.16263 943.52893 -154.78242 4294967142
473.41653 946.02966 -154.99641 4294967142
471.53128 950.24164 -154.94469 4294967142
453.89886 921.51825 -153.00151 4294967143
454.26517 924.95569 -153.19057 4294967143
456.61249 928.19885 -153.14238 4294967143
458.12848 928.70142 -153.10847 4294967143
472.59518 948.83289 -153.98248 4294967143
455.23825 927.16284 -152.86765 4294967144
460.8638 928.80646 -152.65981 4294967144
463.61676 928.18591 -152.5896 4294967144
467.76572 927.53741 -152.82539 4294967144
469.95343 928.15173 -152.87721 4294967144
470.97845 928.83929 -152.62706 4294967144
472.64624 931.92273 -152.88066 4294967144
472.84076 933.79608 -152.20721 4294967144
472.61597 940.7536 -152.57957 4294967144
472.98087 947.89703 -152.44508 4294967144
470.34286 949.92468 -152.53973 4294967144
453.37518 924.03662 -151.13246 4294967145
454.00381 925.85486 -151.13132 4294967145
457.21884 928.60498 -151.76987 4294967145
458.59241 929.01617 -151.19785 4294967145
472.70511 943.44019 -151.71129 4294967145
454.78101 927.27698 -150.6933 4294967146
466.37094 927.6803 -150.43272 4294967146
470.88214 928.97198 -150.98503 4294967146
471.76328 930.26196 -150.96309 4294967146
472.26352 931.54468 -150.76692 4294967146
472.58316 933.87677 -150.31195 4294967146
472.99817 946.18634 -150.99796 4294967146
452.91373 921.51398 -149.07904 4294967147
453.29044 925.86072 -149.12376 4294967147
458.77533 929.17065 -149.37454 4294967147
470.31595 928.84692 -149.0833 4294967147
471.62888 930.48871 -149.61087 4294967147
472.02612 938.84424 -149.52811 4294967147
468.83011 950.27759 -149.85426 4294967147
470.98291 949.15778 -149.625 4294967147
452.69577 923.75299 -148.44485 4294967148
456.54376 928.86591 -148.82797 4294967148
461.155 928.83154 -148.88747 4294967148
466.89163 927.63507 -148.65683 4294967148
468.46014 928.02203 -148.86772 4294967148
472.30042 943.30267 -148.92563 4294967148
452.36597 923.97321 -147.25183 4294967149
463.72797 928.36853 -147.03682 4294967149
468.52567 928.17615 -147.06081 4294967149
471.17545 930.40503 -147.17873 4294967149
472.10065 934.11151 -147.29535 4294967149
469.26361 949.76038 -147.07001 4294967149
452.29099 921.75189 -146.765 4294967150
455.00748 928.47095 -146.70625 4294967150
458.10889 929.29333 -146.75829 4294967150
461.71579 928.69019 -146.58687 4294967150
471.43918 930.92249 -146.77174 4294967150
471.86813 942.57129 -146.82043 4294967150
467.62546 950.39032 -146.16687 4294967150
471.17346 948.25592 -146.88913 4294967150
452.25131 925.7688 -145.27008 4294967151
466.14337 950.74261 -145.03047 4294967151
451.69217 923.67151 -144.91479 4294967152
463.50668 928.45337 -144.85742 4294967152
466.32892 927.99176 -144.59254 4294967152
469.29449 928.78656 -144.81377 4294967152
471.38354 937.56738 -144.53397 4294967152
471.86185 945.52069 -144.81956 4294967152
468.41367 950.00818 -144.39305 4294967152
470.43826 948.55359 -144.01923 4294967152
451.29181 921.53131 -143.10977 4294967153
451.57889 925.61395 -143.08751 4294967153
471.13058 931.90295 -143.8652 4294967153
451.19476 923.77692 -142.97406 4294967154
452.72098 927.31122 -142.84331 4294967154
456.64633 929.34613 -142.95068 4294967154
460.99426 929.02771 -142.86119 4294967154
464.32416 928.33289 -142.83894 4294967154
470.18289 930.56512 -142.14233 4294967154
471.30975 933.95148 -142.30415 4294967154
450.71286 924.03302 -141.16254 4294967155
454.56128 929.03058 -141.03073 4294967155
471.10938 947.54364 -141.26227 4294967155
466.82504 950.565 -141.94897 4294967155
469.2717 949.57428 -141.96573 4294967155
464.44122 951.20447 -141.30377 4294967155
450.81619 919.05682 -140.93677 4294967156
451.78094 927.07404 -140.98755 4294967156
461.61688 929.01758 -140.70938 4294967156
464.21414 928.45966 -140.34576 4294967156
466.48947 928.52869 -140.68634 4294967156
470.28015 931.36017 -140.55276 4294967156
470.76599 937.30835 -140.8074 4294967156
470.82016 942.53687 -140.99896 4294967156
470.6701 948.77948 -140.94003 4294967156
450.16193 921.88562 -139.06108 4294967157
452.8786 928.6073 -139.16016 4294967157
467.54636 928.97614 -139.02173 4294967157
470.48993 933.46442 -139.02194 4294967157
470.62494 943.74176 -139.01909 4294967157
465.87189 951.10571 -139.1138 4294967157
450.31964 917.00116 -138.74779 4294967158
450.21704 919.50745 -138.70094 4294967158
450.08423 923.63739 -138.91779 4294967158
456.71631 929.71814 -138.96854 4294967158
459.047 929.49646 -138.48769 4294967158
461.42737 929.10492 -138.76343 4294967158
466.67288 928.7489 -138.89001 4294967158
470.33981 936.41443 -138.15279 4294967158
470.31876 940.82318 -138.99869 4294967158
470.65659 947.76654 -138.7975 4294967158
469.12091 949.53235 -138.79546 4294967158
470.64941 948.00549 -138.53165 4294967158
463.98383 951.80298 -138.15976 4294967158
449.8313 918.87665 -137.03021 4294967159
450.07248 925.61188 -137.39389 4294967159
451.63306 928.0387 -137.60315 4294967159
457.22308 929.80597 -137.36621 4294967159
461.97766 929.05713 -137.14351 4294967159
470.1937 935.77997 -137.0757 4294967159
470.42584 948.16937 -137.23647 4294967159
461.99393 951.94543 -137.9847 4294967159
452.7319 929.02155 -136.91705 4294967160
454.8754 929.77136 -136.81622 4294967160
466.50742 928.88763 -136.80287 4294967160
469.47998 931.06067 -136.86206 4294967160
470.1088 933.60657 -136.65025 4294967160
469.97293 939.43793 -136.78191 4294967160
470.24307 943.56537 -136.72804 4294967160
468.56564 950.66125 -136.78157 4294967160
461.67007 952.03088 -136.61134 4294967160
463.99078 952.23199 -136.45963 4294967160
466.6286 951.85577 -136.08813 4294967160
449.56979 916.58142 -135.68657 4294967161
451.52835 928.68311 -135.07181 4294967161
454.46997 929.93237 -135.06587 4294967161
457.01297 929.99207 -135.31425 4294967161
459.23276 929.6795 -135.11339 4294967161
468.91974 930.62274 -135.05345 4294967161
469.64343 938.66699 -135.24608 4294967161
470.25537 946.19336 -135.26004 4294967161
467.44049 951.5036 -135.22072 4294967161
449.34695 914.35675 -134.74789 4294967162
449.06146 923.2962 -134.48174 4294967162
449.79153 926.81427 -134.63403 4294967162
462.02963 929.06213 -134.55835 4294967162
465.53967 928.90643 -134.42398 4294967162
466.77225 928.96539 -134.55699 4294967162
469.3447 931.62775 -134.55151 4294967162
469.73825 933.44244 -134.63481 4294967162
469.77335 936.12384 -134.6926 4294967162
469.60757 941.40247 -134.30861 4294967162
469.74506 942.80377 -134.5032 4294967162
469.48755 949.53894 -134.34578 4294967162
459.72928 952.11121 -134.99455 4294967162
464.08337 952.38367 -134.94261 4294967162
448.95883 916.44989 -133.27513 4294967163
462.91989 928.93677 -133.17163 4294967163
468.04684 929.76062 -133.06912 4294967163
469.3638 940.80591 -133.04866 4294967163
465.27783 952.46594 -133.21332 4294967163
448.81952 912.91431 -132.96426 4294967164
449.62784 927.40393 -132.74739 4294967164
452.67062 929.77179 -132.96692 4294967164
459.30609 929.69415 -132.85805 4294967164
465.07321 929.01624 -132.67853 4294967164
466.57037 929.19983 -132.74101 4294967164
456.01428 930.22333 -132.79471 4294967164
469.29642 932.74255 -132.77538 4294967164
469.31625 937.71918 -132.23534 4294967164
469.46036 943.24341 -132.69687 4294967164
469.88428 946.84747 -132.39705 4294967164
461.61948 952.43555 -132.89677 4294967164
468.22946 951.0639 -132.63594 4294967164
462.03958 929.19531 -131.15009 4294967165
453.94095 930.35828 -131.01022 4294967165
457.27133 930.11761 -131.06711 4294967165
468.75095 931.65564 -131.22267 4294967165
469.60742 948.07904 -131.05669 4294967165
463.15543 952.71381 -131.55382 4294967165
448.15305 911.1687 -130.81363 4294967166
448.07547 913.50934 -130.19055 4294967166
448.28204 916.49835 -130.73154 4294967166
448.10162 923.85724 -130.15262 4294967166
448.41895 926.00189 -130.78171 4294967166
451.12372 929.51166 -130.77272 4294967166
460.13263 929.54498 -130.58937 4294967166
465.04358 929.08984 -130.47032 4294967166
466.50558 929.31488 -130.37706 4294967166
468.95038 932.82867 -130.4761 4294967166
469.15878 935.89539 -130.89009 4294967166
468.93939 938.80347 -130.58607 4294967166
468.92355 940.58362 -130.51303 4294967166
469.04889 942.88922 -130.50627 4294967166
469.40701 945.55634 -130.9928 4294967166
468.93005 949.88794 -130.95276 4294967166
464.48334 952.75916 -130.46184 4294967166
466.83582 951.97211 -130.73286 4294967166
467.87354 951.26654 -130.81192 4294967166
447.77014 923.00568 -129.08467 4294967167
452.86359 930.33655 -129.62276 4294967167
454.82715 930.47296 -129.37398 4294967167
457.07776 930.21222 -129.06941 4294967167
468.71924 933.0434 -129.15535 4294967167
447.41821 911.91211 -128.21132 4294967168
447.55997 914.97339 -128.28894 4294967168
447.60779 917.2196 -128.22173 4294967168
447.77011 918.99066 -128.81757 4294967168
449.10922 928.32709 -128.97488 4294967168
459.44257 929.73279 -128.73943 4294967168
462.44751 929.16931 -128.48183 4294967168
465.03473 929.29279 -128.16037 4294967168
468.74365 937.71228 -128.78177 4294967168
468.73849 942.91333 -128.89676 4294967168
469.00604 946.02502 -128.34528 4294967168
468.73779 949.08459 -128.55585 4294967168
462.59402 952.8327 -128.17682 4294967168
465.03586 952.73578 -128.30821 4294967168
467.68683 951.17365 -128.78564 4294967168
446.69479 905.73853 -127.15184 4294967169
447.32004 921.5321 -127.43488 4294967169
468.30475 932.16644 -127.96399 4294967169
468.66965 935.75128 -127.31358 4294967169
468.41107 940.85718 -127.53559 4294967169
468.41531 942.88348 -127.39373 4294967169
468.18024 949.97913 -127.26436 4294967169
467.40201 951.14026 -127.22475 4294967169
446.80527 909.3645 -126.69627 4294967170
446.96225 916.67816 -126.20927 4294967170
447.19302 919.11267 -126.56483 4294967170
447.05023 923.77277 -126.80982 4294967170
447.05997 925.70587 -126.57565 4294967170
447.67603 927.44702 -126.62659 4294967170
460.14508 929.67316 -126.19063 4294967170
463.26553 929.18103 -126.17441 4294967170
457.23486 930.30383 -126.53294 4294967170
467.62213 931.27576 -126.78658 4294967170
468.3653 933.69727 -126.59479 4294967170
468.61423 947.98944 -126.3136 4294967170
464.74789 952.76648 -126.51678 4294967170
446.65018 911.70868 -125.82772 4294967171
446.76013 914.03772 -125.90568 4294967171
446.47565 923.8623 -125.2206 4294967171
449.58057 929.94415 -125.00137 4294967171
452.91046 930.65948 -125.45109 4294967171
467.99283 938.94098 -125.17584 4294967171
468.30118 948.32941 -125.31602 4294967171
445.82599 905.44122 -124.5307 4294967172
445.96722 907.93872 -124.42301 4294967172
446.23648 910.41492 -124.7639 4294967172
446.56274 918.64563 -124.72208 4294967172
446.32178 921.08246 -124.37919 4294967172
446.91275 927.48889 -124.71233 4294967172
464.53735 929.54718 -124.41982 4294967172
467.06134 930.93372 -124.72623 4294967172
468.12823 933.24261 -124.66683 4294967172
468.06366 936.40942 -124.37275 4294967172
468.05206 945.40356 -124.80804 4294967172
465.77774 952.26202 -124.90469 4294967172
445.68362 910.20905 -123.24878 4294967173
445.85855 912.62823 -123.50585 4294967173
445.87173 916.08142 -123.22629 4294967173
445.96573 925.83472 -123.81344 4294967173
452.56674 930.74371 -123.25764 4294967173
467.42053 949.16809 -123.45287 4294967173
445.04013 905.69214 -122.2973 4294967174
445.25693 908.65784 -122.33802 4294967174
445.52942 923.42053 -122.7265 4294967174
447.01938 928.91583 -122.91704 4294967174
460.12604 929.63751 -122.16512 4294967174
463.4191 929.33673 -122.63673 4294967174
455.35303 930.46301 -122.70849 4294967174
457.62692 930.07709 -122.75795 4294967174
466.19083 930.37982 -122.70231 4294967174
467.69574 934.83618 -122.63885 4294967174
467.40317 942.961 -122.901 4294967174
444.81964 910.84546 -121.00639 4294967175
444.81018 923.7215 -121.05686 4294967175
444.91885 925.98822 -121.26329 4294967175
448.6279 930.33258 -121.35333 4294967175
450.23624 930.69342 -121.43767 4294967175
466.88498 932.49286 -121.20477 4294967175
467.11389 945.53326 -121.45565 4294967175
446.4364 929.1814 -120.92314 4294967176
457.74924 929.95911 -120.98786 4294967176
460.2016 929.5993 -120.49081 4294967176
462.68161 929.46204 -120.11428 4294967176
452.99121 930.70898 -120.76604 4294967176
455.327 930.48303 -120.62337 4294967176
467.10471 933.75586 -120.65914 4294967176
467.06259 947.53131 -120.59955 4294967176
466.76053 949.53705 -120.57016 4294967176
444.01959 923.45123 -119.18701 4294967177
444.02985 925.92603 -119.24146 4294967177
459.05972 929.78021 -119.01678 4294967177
454.62466 930.55853 -119.15176 4294967177
464.21115 930.14032 -119.12154 4294967177
465.50626 930.97302 -119.01662 4294967177
467.00751 935.8855 -119.16931 4294967177
443.62204 911.92389 -118.08023 4294967178
445.22937 928.88531 -118.92062 4294967178
460.82489 929.53027 -118.60666 4294967178
462.62531 929.78241 -118.58653 4294967178
448.00037 930.68542 -118.62795 4294967178
450.65536 930.96423 -118.88828 4294967178
466.19556 932.28632 -118.67914 4294967178
466.66998 933.5575 -118.995 4294967178
466.34338 946.50366 -118.51717 4294967178
465.55838 951.4649 -118.49958 4294967178
443.12491 926.05676 -117.19807 4294967179
453.31363 930.83148 -117.07642 4294967179
443.28607 919.96307 -116.92528 4294967180
443.42987 927.70831 -116.92842 4294967180
444.49182 929.36096 -116.72955 4294967180
458.25256 929.89355 -116.64314 4294967180
446.90469 930.68561 -116.85285 4294967180
462.57413 930.0437 -116.29626 4294967180
464.52621 930.81171 -116.87851 4294967180
465.52042 932.11133 -116.64031 4294967180
465.99655 933.3476 -116.63184 4294967180
466.24332 935.10065 -116.07982 4294967180
465.87704 949.88824 -116.57988 4294967180
442.37814 920.88641 -115.06397 4294967181
442.06583 926.09106 -115.05861 4294967181
442.61649 927.65686 -115.05648 4294967181
444.99191 930.35699 -115.11825 4294967181
448.76483 931.2912 -115.29391 4294967181
453.75592 930.89624 -115.27594 4294967181
465.65063 947.7002 -115.13419 4294967181
464.81302 951.91351 -115.98886 4294967181
442.00467 923.72357 -114.79789 4294967182
460.00925 929.80658 -114.42142 4294967182
450.78156 931.20001 -114.71481 4294967182
462.46857 930.23663 -114.68707 4294967182
463.92429 930.87067 -114.91694 4294967182
465.32382 949.94226 -114.96309 4294967182
461.82288 953.4118 -114.36213 4294967182
460.14941 929.97192 -113.1199 4294967183
446.16797 931.09259 -113.32824 4294967183
449.19717 931.34161 -113.31349 4294967183
451.26675 931.14868 -113.03445 4294967183
455.75275 930.50085 -113.06698 4294967183
462.44586 930.4599 -113.2704 4294967183
464.548 932.03613 -113.28092 4294967183
441.38968 916.7807 -112.98377 4294967184
441.10278 922.30066 -112.81969 4294967184
442.29175 929.20068 -112.89085 4294967184
464.63107 933.08423 -112.50948 4294967184
464.88916 947.85046 -112.31529 4294967184
464.3364 951.69025 -112.84951 4294967184
444.36472 930.97198 -111.39843 4294967185
454.12772 930.54187 -111.64537 4294967185
457.44766 930.08722 -111.55796 4294967185
440.30579 918.89575 -110.91995 4294967186
440.23083 928.02081 -110.87586 4294967186
457.96167 930.02002 -110.86819 4294967186
464.34921 949.76978 -110.71465 4294967186
463.48648 952.17859 -110.93716 4294967186
460.15686 930.28961 -109.81202 4294967187
462.74002 952.20667 -109.04199 4294967187
438.97568 919.06482 -108.80016 4294967188
438.57739 923.64612 -108.68141 4294967188
439.54489 929.38019 -108.81656 4294967188
453.98529 929.82788 -108.98222 4294967188
458.49847 929.88727 -108.2978 4294967188
462.02466 931.54077 -108.35287 4294967188
463.87589 948.10864 -108.40132 4294967188
463.20132 951.13599 -108.70618 4294967188
437.7767 920.96454 -107.18921 4294967189
438.08035 927.53271 -107.42456 4294967189
439.80548 930.07874 -107.74057 4294967189
444.15845 930.32605 -107.79011 4294967189
460.23553 930.55157 -107.00983 4294967189
437.7915 928.10358 -106.97376 4294967190
453.75888 929.00616 -106.23978 4294967190
455.70114 929.40918 -106.79715 4294967190
457.81949 929.67139 -106.6563 4294967190
462.43787 933.06012 -106.1879 4294967190
462.99289 949.97101 -106.32558 4294967190
436.16736 922.98743 -105.08736 4294967191
439.33365 929.71777 -105.99936 4294967191
456.37775 929.25818 -105.0402 4294967191
439.29608 931.07336 -105.01319 4294967191
460.10577 930.94141 -105.10034 4294967191
461.22357 932.03412 -105.04124 4294967191
435.78027 926.05341 -104.94845 4294967192
437.35086 929.94604 -104.93121 4294967192
451.43878 928.08398 -104.7088 4294967192
453.33859 928.56702 -104.99403 4294967192
458.30298 930.1095 -104.85777 4294967192
462.19632 935.90375 -104.31767 4294967192
460.19165 953.67834 -104.99226 4294967192
462.14426 951.38672 -104.45956 4294967192
458.19336 954.50946 -104.14171 4294967192
434.67557 923.21179 -103.13159 4294967193
434.79294 925.67291 -103.37518 4294967193
435.12613 928.23077 -103.74323 4294967193
456.32159 929.55914 -103.05119 4294967193
436.56885 930.24475 -103.82207 4294967193
439.8392 931.0506 -103.70097 4294967193
461.03244 932.66595 -103.36626 4294967193
461.57269 933.88495 -103.5529 4294967193
462.18414 950.12268 -103.16377 4294967193
451.4393 928.31177 -102.27379 4294967194
453.97476 928.90637 -102.91976 4294967194
435.73544 930.20313 -102.92367 4294967194
437.45422 931.43402 -102.96939 4294967194
459.68674 931.29053 -102.78632 4294967194
461.56366 937.31799 -102.47577 4294967194
462.19772 947.81464 -102.8301 4294967194
461.04367 952.59302 -102.68682 4294967194
436.07303 960.18512 -102.39052 4294967194
433.19528 923.17206 -101.16451 4294967195
433.30975 925.8183 -101.50674 4294967195
434.96063 931.38922 -101.15807 4294967195
436.87698 931.92419 -101.37609 4294967195
439.75259 931.72498 -101.5751 4294967195
461.51703 947.49243 -101.10289 4294967195
461.20743 951.56207 -101.16722 4294967195
438.51532 957.45007 -101.31073 4294967195
432.98053 929.03595 -100.83566 4294967196
449.15485 928.34448 -100.90728 4294967196
451.7804 929.25323 -100.44102 4294967196
454.19818 929.75928 -100.52425 4294967196
456.49258 930.36591 -100.36509 4294967196
460.06479 932.66156 -100.78305 4294967196
461.19479 935.38684 -100.83916 4294967196
461.27615 950.21552 -100.38047 4294967196
457.46533 954.78448 -100.44206 4294967196
458.37338 954.46051 -100.36183 4294967196
435.16025 958.59955 -100.27896 4294967196
431.6727 928.26556 -99.472679 4294967197
436.13724 932.52478 -99.327293 4294967197
439.03934 932.5415 -99.794258 4294967197
440.90524 932.30292 -99.204758 4294967197
443.45096 930.88336 -99.177307 4294967197
458.6322 954.30109 -99.505661 4294967197
434.54105 958.76404 -99.722694 4294967197
438.92496 957.03351 -99.764725 4294967197
432.7171 960.91211 -99.058517 4294967197
447.22131 929.54437 -98.948586 4294967198
451.49335 929.98566 -98.633881 4294967198
432.61401 931.24512 -98.643074 4294967198
454.34665 930.45465 -98.391251 4294967198
459.09357 932.34235 -98.804367 4294967198
459.97842 934.00958 -98.569229 4294967198
460.43201 935.59998 -98.660126 4294967198
460.60431 947.63129 -98.802773 4294967198
460.80008 950.47162 -98.687256 4294967198
459.64688 953.37164 -98.642899 4294967198
433.85782 958.65314 -98.768959 4294967198
436.90717 957.34222 -98.672295 4294967198
434.50827 932.45398 -97.829803 4294967199
436.60959 932.80768 -97.650269 4294967199
439.08765 932.80164 -97.49939 4294967199
438.54053 956.73181 -97.478867 4294967199
433.97754 958.13116 -97.299126 4294967199
436.76163 957.11469 -97.450279 4294967199
431.85922 960.20148 -97.434715 4294967199
443.42642 931.76703 -96.810005 4294967200
447.379 930.74933 -96.738495 4294967200
452.35458 930.78357 -96.426605 4294967200
455.38315 931.06482 -96.278244 4294967200
457.69189 931.88708 -96.772812 4294967200
458.85593 932.87482 -96.935555 4294967200
459.24246 933.96356 -96.520264 4294967200
459.6275 938.04803 -96.900879 4294967200
459.48199 947.13763 -96.480202 4294967200
460.07443 949.97351 -96.993294 4294967200
459.55838 951.85315 -96.505463 4294967200
432.41006 958.99438 -96.926292 4294967200
430.28598 961.63861 -96.396225 4294967200
431.19424 931.69238 -95.369797 4294967201
434.3129 932.59155 -95.704987 4294967201
436.77151 932.76544 -95.487976 4294967201
439.12241 932.71912 -95.466248 4294967201
441.48215 932.41968 -95.128304 4294967201
449.54315 931.1051 -95.125832 4294967201
459.02869 951.83661 -95.64106 4294967201
441.25946 956.25153 -95.258553 4294967201
454.75406 955.33472 -95.889671 4294967201
456.84604 954.74115 -95.608757 4294967201
431.5965 958.49347 -95.133186 4294967201
433.69562 957.65009 -95.00634 4294967201
454.68222 931.40094 -94.404984 4294967202
458.68976 934.62378 -94.691452 4294967202
458.4776 947.18433 -94.33213 4294967202
458.74835 949.9137 -94.577972 4294967202
438.10593 956.65961 -94.809845 4294967202
429.71109 959.42017 -94.27681 4294967202
428.06613 961.94135 -94.315506 4294967202
426.79654 928.0434 -93.626572 4294967203
434.46753 932.33673 -93.392563 4294967203
437.37439 932.5025 -93.354042 4294967203
439.43216 932.4516 -93.061951 4294967203
457.22433 932.8324 -93.135208 4294967203
457.57925 944.88281 -93.116432 4294967203
431.14325 958.15161 -93.312599 4294967203
433.88638 957.14429 -93.544487 4294967203
427.42654 960.67206 -93.15905 4294967203
427.36307 930.72717 -92.537552 4294967204
429.26456 931.43317 -92.932739 4294967204
432.57925 932.2392 -92.032249 4294967204
450.62955 931.11853 -92.318405 4294967204
453.00452 931.39502 -92.347107 4294967204
454.66019 931.71014 -92.381165 4294967204
455.66174 931.91272 -92.727486 4294967204
457.67841 935.06177 -92.410034 4294967204
457.76871 947.41626 -92.7687 4294967204
457.96188 949.78296 -92.601044 4294967204
457.49652 951.96625 -92.48819 4294967204
439.09195 956.6499 -92.958961 4294967204
454.97031 955.16626 -92.441772 4294967204
429.35873 958.84424 -92.79052 4294967204
437.03036 957.01202 -92.986229 4294967204
425.9895 961.90448 -92.586853 4294967204
425.08868 963.97046 -92.021812 4294967204
424.95309 928.76813 -91.884956 4294967205
425.84 930.87445 -91.341202 4294967205
427.02451 931.74243 -91.072525 4294967205
437.4136 932.15802 -91.002014 4294967205
456.15512 953.35724 -91.111023 4294967205
453.45114 955.60669 -91.141129 4294967205
427.31339 958.82599 -91.075363 4294967205
430.74948 957.93475 -91.781425 4294967205
434.9382 957.29449 -91.417816 4294967205
437.18399 957.21881 -91.10331 4294967205
424.34531 961.66455 -91.139023 4294967205
423.77689 930.0368 -90.574272 4294967206
439.3952 932.17389 -90.797295 4294967206
441.5658 932.09631 -90.619774 4294967206
454.1189 931.92529 -90.708809 4294967206
456.47809 934.21356 -90.793106 4294967206
456.78812 937.88354 -90.276123 4294967206
456.85498 950.41785 -90.29599 4294967206
438.78958 956.95001 -90.867523 4294967206
443.34793 956.46338 -90.231987 4294967206
453.70779 955.33643 -90.330872 4294967206
423.0972 961.94586 -90.240654 4294967206
423.11609 963.84723 -90.447823 4294967206
425.21564 932.53473 -89.082664 4294967207
427.28894 932.42572 -89.435173 4294967207
430.80151 932.39758 -89.806915 4294967207
435.4581 931.89679 -89.235039 4294967207
452.60181 931.52075 -89.903938 4294967207
450.31171 956.00433 -89.911453 4294967207
423.42068 959.45276 -89.080048 4294967207
427.12579 958.07385 -89.467064 4294967207
428.89935 957.61926 -89.49675 4294967207
431.02505 957.44086 -89.975357 4294967207
435.04599 957.48907 -89.295433 4294967207
421.73056 931.42767 -88.261116 4294967208
437.43222 931.87152 -88.780579 4294967208
439.52151 931.90344 -88.528824 4294967208
445.83878 931.72742 -88.823685 4294967208
448.20453 931.46539 -88.521965 4294967208
450.77548 931.6521 -88.671272 4294967208
454.20667 932.64319 -88.921066 4294967208
455.77573 935.51898 -88.249214 4294967208
454.58575 953.28009 -88.226257 4294967208
455.349 951.83325 -88.367203 4294967208
441.30057 956.9491 -88.785515 4294967208
452.09998 955.48657 -88.111092 4294967208
431.94135 957.41815 -88.766258 4294967208
437.4501 957.42841 -88.803726 4294967208
439.35507 957.22784 -88.980415 4294967208
421.31757 961.10474 -88.541138 4294967208
420.77054 963.73462 -88.61953 4294967208
419.17059 928.10083 -87.351791 4294967209
429.07202 932.90063 -87.309364 4294967209
441.42392 931.83746 -87.252823 4294967209
444.19141 931.77301 -87.02565 4294967209
424.73044 933.2666 -87.322021 4294967209
453.97293 953.08032 -87.05172 4294967209
421.48001 958.85266 -87.09639 4294967209
427.13123 957.49243 -87.661354 4294967209
429.49774 957.29114 -87.424667 4294967209
432.70557 957.41095 -87.046326 4294967209
419.84305 960.29919 -87.23378 4294967209
418.97052 963.82849 -87.327354 4294967209
419.84436 931.85809 -86.741257 4294967210
431.24146 932.45856 -86.929367 4294967210
435.30649 931.74896 -86.748688 4294967210
448.38086 931.57526 -86.177551 4294967210
450.4267 932.06982 -86.160446 4294967210
451.47031 932.27594 -86.562378 4294967210
454.76059 937.02289 -86.624512 4294967210
454.07123 951.77673 -86.258064 4294967210
450.49695 955.89606 -86.318977 4294967210
423.1077 958.27112 -86.966766 4294967210
435.64145 957.51855 -86.983261 4294967210
437.54089 957.49811 -86.970062 4294967210
439.22061 957.4079 -86.995369 4294967210
442.56696 957.1098 -86.335831 4294967210
418.94067 961.68353 -86.952637 4294967210
417.08484 927.88086 -85.81424 4294967211
417.54337 931.69196 -85.14106 4294967211
451.14584 932.74548 -85.140327 4294967211
422.63599 933.56702 -85.757683 4294967211
426.78696 933.57025 -85.542862 4294967211
452.44861 933.48236 -85.209068 4294967211
421.47195 957.99487 -85.491371 4294967211
427.24911 957.17535 -85.49234 4294967211
430.13541 957.29004 -85.34697 4294967211
439.01996 957.46454 -85.016769 4294967211
417.17682 961.53448 -85.754059 4294967211
416.83664 963.58398 -85.936668 4294967211
415.47797 930.01196 -84.474426 4294967212
441.62289 931.62555 -84.70974 4294967212
446.55847 931.66718 -84.227882 4294967212
449.88644 932.24707 -84.581032 4294967212
419.54987 933.10901 -84.851105 4294967212
428.40387 933.30035 -84.546524 4294967212
453.48801 935.7157 -84.272873 4294967212
452.72577 953.30548 -84.802711 4294967212
418.86511 958.56641 -84.774384 4294967212
435.39996 957.49933 -84.62191 4294967212
441.52353 957.33026 -84.997063 4294967212
415.68716 961.52679 -84.74073 4294967212
415.14117 918.8255 -83.714264 4294967213
412.77747 927.83948 -83.001335 4294967213
415.28421 932.18414 -83.445061 4294967213
417.54086 933.24481 -83.18589 4294967213
419.53873 933.64038 -83.409828 4294967213
421.08591 933.7876 -83.564476 4294967213
425.00327 933.84943 -83.679359 4294967213
427.46222 933.5473 -83.292488 4294967213
415.17737 959.35052 -83.186943 4294967213
424.7341 957.26593 -83.376343 4294967213
427.79431 957.32562 -83.187973 4294967213
430.85226 957.33191 -83.277412 4294967213
442.57394 957.40131 -83.30957 4294967213
413.34085 918.90479 -82.380997 4294967214
413.32605 921.9057 -82.567711 4294967214
413.4928 931.67993 -82.879524 4294967214
446.23743 931.9057 -82.619698 4294967214
449.61914 932.74274 -82.942337 4294967214
451.32184 934.34491 -82.614868 4294967214
452.25677 935.6098 -82.65712 4294967214
450.56509 954.61694 -82.452156 4294967214
418.40112 957.88373 -82.164963 4294967214
432.65353 957.34979 -82.879684 4294967214
435.76978 957.51538 -82.952728 4294967214
439.34744 957.50085 -82.542145 4294967214
444.24457 957.32709 -82.380569 4294967214
412.94489 960.45575 -82.451469 4294967214
411.96521 920.67786 -81.425568 4294967215
411.0849 923.05084 -81.093407 4294967215
411.46991 933.31647 -81.000435 4294967215
415.22092 933.80017 -81.088791 4294967215
417.35461 934.03369 -81.314827 4294967215
419.12158 934.11627 -81.134407 4294967215
423.08792 934.16742 -81.18219 4294967215
416.76614 958.20239 -81.842056 4294967215
420.90854 957.48102 -81.973785 4294967215
425.18939 957.43823 -81.34655 4294967215
428.89297 957.42242 -81.116852 4294967215
410.90433 961.50769 -81.808334 4294967215
408.82544 963.14636 -81.282692 4294967215
411.5351 915.99554 -80.890419 4294967216
411.28714 918.7674 -80.735413 4294967216
409.11633 924.78217 -80.175842 4294967216
447.91153 932.81653 -80.606689 4294967216
409.52316 933.18402 -80.015007 4294967216
413.0878 933.5567 -80.899643 4294967216
449.6116 934.24408 -80.470062 4294967216
446.13977 956.53009 -80.34935 4294967216
447.36545 956.08759 -80.596764 4294967216
449.01566 954.92212 -80.988152 4294967216
412.79208 959.24713 -80.962738 4294967216
427.62891 957.45404 -80.913445 4294967216
432.879 957.49896 -80.818993 4294967216
437.36038 957.60229 -80.746826 4294967216
439.16898 957.66107 -80.211937 4294967216
442.1517 957.41791 -80.18335 4294967216
407.66391 961.58215 -80.04026 4294967216
406.41742 963.52411 -80.035202 4294967216
409.66995 920.74432 -79.756775 4294967217
405.40289 931.33215 -79.079727 4294967217
407.4054 933.46021 -79.196205 4294967217
413.30472 934.27576 -79.573761 4294967217
414.797 934.35815 -79.523758 4294967217
417.23401 934.46594 -79.828445 4294967217
418.84317 934.44562 -79.255119 4294967217
421.40945 934.25824 -79.140778 4294967217
408.67456 959.95966 -79.410881 4294967217
411.5986 958.96832 -79.367561 4294967217
412.78979 958.69653 -79.654381 4294967217
414.90704 958.31061 -79.796959 4294967217
416.9567 957.99396 -79.755005 4294967217
419.08624 957.75989 -79.108727 4294967217
421.93771 957.70538 -79.169365 4294967217
431.45786 957.67505 -79.124619 4294967217
407.5123 960.50592 -79.245979 4294967217
407.38831 920.79089 -78.345917 4294967218
408.89944 918.909 -78.969368 4294967218
407.7316 922.68304 -78.935623 4294967218
431.3078 932.86523 -78.862457 4294967218
409.44037 934.20837 -78.697464 4294967218
444.07336 956.77618 -78.444016 4294967218
445.5015 956.2854 -78.794884 4294967218
447.1796 955.13922 -78.924576 4294967218
425.48209 957.65912 -78.992104 4294967218
427.55908 957.66833 -78.800987 4294967218
429.18738 957.67889 -78.77607 4294967218
433.09116 957.74023 -78.492088 4294967218
435.84293 957.77631 -78.567787 4294967218
437.87311 957.82404 -78.377502 4294967218
439.88901 957.72919 -78.222374 4294967218
405.56836 961.50439 -78.733925 4294967218
403.23593 963.89575 -78.504875 4294967218
405.3194 922.87292 -77.800026 4294967219
440.23083 931.54126 -77.999886 4294967219
415.04211 934.80829 -77.503967 4294967219
405.5585 959.80054 -77.077621 4294967219
407.32928 959.35291 -77.243034 4294967219
408.75906 959.04529 -77.614273 4294967219
411.18802 958.58588 -77.776077 4294967219
412.54645 958.29254 -77.807251 4294967219
414.83337 958.04211 -77.601677 4294967219
417.12659 957.96344 -77.35614 4294967219
419.90698 957.90991 -77.397408 4294967219
441.65051 957.31213 -77.577614 4294967219
401.33847 962.38086 -77.163361 4294967219
403.07758 962.14459 -77.862061 4294967219
400.95996 966.16168 -77.514259 4294967219
435.98434 932.0907 -76.4562 4294967220
437.815 931.87714 -76.222298 4294967220
407.32684 935.19409 -76.254936 4294967220
443.74228 956.12872 -76.083687 4294967220
423.38849 957.88409 -76.939636 4294967220
427.80878 957.90088 -76.806473 4294967220
431.43805 957.9137 -76.740654 4294967220
433.85248 957.93823 -76.587158 4294967220
439.62714 957.64575 -76.285233 4294967220
399.20392 962.45087 -76.260849 4294967220
403.14432 960.59821 -76.804169 4294967220
397.29541 964.89319 -76.090607 4294967220
399.45569 964.7644 -76.82608 4294967220
411.41638 935.14703 -75.888596 4294967221
442.27979 956.50836 -75.557655 4294967221
403.38739 959.49017 -75.063568 4294967221
407.26871 958.78668 -75.753883 4294967221
411.11502 958.32947 -75.568268 4294967221
412.89157 958.2348 -75.363571 4294967221
415.71637 958.21313 -75.261368 4294967221
422.05627 958.00439 -75.796913 4294967221
435.77298 958.08154 -75.618515 4294967221
397.28128 962.33875 -75.564064 4294967221
399.24152 960.91248 -75.282661 4294967221
393.85471 963.29285 -75.033112 4294967221
395.44086 964.78687 -75.607178 4294967221
393.7673 966.07367 -75.147591 4294967221
431.50586 932.97308 -74.801765 4294967222
436.21344 932.30542 -74.124092 4294967222
440.00696 932.51453 -74.446297 4294967222
444.21341 954.10559 -74.73629 4294967222
417.37534 958.20288 -74.967957 4294967222
418.9761 958.16687 -74.838654 4294967222
425.29645 958.08521 -74.962418 4294967222
429.42722 958.10809 -74.757225 4294967222
432.42984 958.26453 -74.215904 4294967222
433.91397 958.21466 -74.124756 4294967222
436.95044 957.98132 -74.459953 4294967222
400.7858 960.07233 -74.854317 4294967222
389.3754 964.40576 -74.208031 4294967222
391.2771 931.90936 -73.684288 4294967223
390.66656 933.50031 -73.018471 4294967223
404.79733 935.78485 -73.598328 4294967223
406.75616 935.56964 -73.389 4294967223
399.08868 959.85828 -73.511459 4294967223
401.00259 959.45801 -73.417938 4294967223
405.54858 958.76208 -73.784477 4294967223
408.95602 958.50592 -73.448112 4294967223
389.27563 961.5011 -73.338234 4294967223
391.61176 960.77655 -73.004898 4294967223
393.70731 960.89496 -73.453033 4294967223
395.49551 960.66467 -73.785904 4294967223
397.65283 960.06592 -73.312271 4294967223
384.80905 964.59589 -73.210526 4294967223
387.1152 964.1308 -73.75177 4294967223
387.10205 929.33374 -72.253471 4294967224
385.20062 931.87042 -72.18116 4294967224
387.31781 931.95679 -72.64196 4294967224
436.29944 932.92841 -72.082779 4294967224
386.7843 933.80164 -72.019043 4294967224
392.20953 935.18494 -72.557068 4294967224
397.5611 935.48846 -72.213623 4294967224
437.65201 933.0274 -72.340569 4294967224
439.73071 933.26935 -72.8256 4294967224
440.92233 955.28308 -72.574341 4294967224
441.58936 954.2287 -72.520805 4294967224
411.19403 958.52924 -72.897919 4294967224
413.1994 958.48596 -72.985825 4294967224
415.44376 958.4433 -72.927559 4294967224
419.25177 958.37164 -72.843605 4294967224
420.71057 958.4256 -72.143623 4294967224
423.35623 958.31226 -72.990715 4294967224
425.23044 958.3241 -72.784203 4294967224
428.19894 958.42426 -72.434456 4294967224
435.88773 957.75989 -72.126183 4294967224
437.99261 957.23071 -72.964905 4294967224
382.97116 962.45886 -72.244339 4294967224
385.5647 961.63477 -72.567795 4294967224
387.53665 961.30988 -72.775955 4294967224
378.90491 964.26257 -72.187515 4294967224
381.52921 964.64447 -72.733047 4294967224
383.03952 965.1214 -72.9347 4294967224
385.56946 929.28003 -71.897301 4294967225
379.74048 931.67377 -71.065659 4294967225
