# .PCD v0.7 - Point Cloud Data file format
VERSION 0.7
FIELDS x y z rgba
SIZE 4 4 4 4
TYPE F F F U
COUNT 1 1 1 1
WIDTH 1146
HEIGHT 1
VIEWPOINT 0 0 0 1 0 0 0
POINTS 1146
DATA ascii
183.83524 979.80072 -610.85657 4294966686
188.61894 979.25171 -610.74207 4294966686
121.36461 983.98389 -610.99567 4294966686
123.5073 983.78998 -610.61719 4294966686
125.32079 983.66681 -610.68408 4294966686
127.58727 983.5069 -610.51703 4294966686
129.50337 983.59021 -610.24176 4294966686
131.81328 983.50354 -610.66748 4294966686
133.25508 983.40808 -610.87292 4294966686
147.38582 982.45355 -610.76062 4294966686
149.39561 982.31738 -610.81409 4294966686
151.35733 982.1944 -610.84479 4294966686
153.26833 982.08734 -610.88855 4294966686
155.17828 981.97644 -610.72961 4294966686
157.61983 981.61603 -610.53693 4294966686
159.41289 981.54419 -610.70807 4294966686
161.08723 981.46637 -610.95325 4294966686
77.527061 986.94 -610.88269 4294966686
79.358757 986.82617 -610.85986 4294966686
81.779282 986.66388 -610.61786 4294966686
83.510002 986.54028 -610.78278 4294966686
85.355904 986.44086 -610.61749 4294966686
87.541451 986.21533 -610.19501 4294966686
93.447197 985.81378 -610.08301 4294966686
97.106567 985.65826 -610.24042 4294966686
99.470139 985.46771 -610.09058 4294966686
101.34621 985.43683 -610.74567 4294966686
115.43642 984.37048 -610.79822 4294966686
117.40406 984.22241 -610.854 4294966686
119.45061 984.09332 -610.83344 4294966686
29.772898 989.77838 -610.58771 4294966686
32.879253 989.77179 -610.78918 4294966686
35.122612 989.65649 -610.97211 4294966686
45.628902 988.92908 -610.82813 4294966686
47.362537 988.84845 -610.59369 4294966686
49.351509 988.71881 -610.60651 4294966686
51.397247 988.59869 -610.79407 4294966686
53.284397 988.4859 -610.70319 4294966686
55.606899 988.28296 -610.13147 4294966686
56.982365 988.03137 -610.47107 4294966686
59.487915 988.05383 -610.61908 4294966686
61.484867 987.70789 -610.58014 4294966686
64.000572 987.8269 -610.75476 4294966686
65.726746 987.57111 -610.82385 4294966686
67.196899 987.65002 -610.86792 4294966686
-13.955564 992.57599 -610.98169 4294966686
-12.94184 992.51361 -610.70093 4294966686
-5.9178276 992.03107 -610.88898 4294966686
-1.9719255 991.75476 -610.77417 4294966686
-0.98134482 991.67706 -610.37677 4294966686
1.7116812 991.54297 -610.72882 4294966686
5.834331 991.32916 -610.81909 4294966686
7.221179 991.25726 -610.94006 4294966686
14.171042 990.78577 -610.35797 4294966686
17.574881 990.55902 -610.51855 4294966686
22.971104 990.23645 -610.73242 4294966686
25.193386 990.24945 -610.19623 4294966686
27.714159 990.11676 -610.66455 4294966686
193.68056 990.57806 -610.97247 4294966686
119.40928 995.28766 -610.03601 4294966686
160.13461 995.49316 -610.50372 4294966686
193.78912 994.93951 -610.8299 4294966686
111.54438 997.67578 -610.5448 4294966686
158.71526 996.98285 -610.09485 4294966686
60.208195 1001.8892 -610.52972 4294966686
107.94241 1001.0359 -610.10223 4294966686
108.97914 999.60168 -610.78613 4294966686
156.10771 1000.9596 -610.22583 4294966686
194.09029 999.83948 -610.65759 4294966686
11.290799 1004.4868 -610.25336 4294966686
58.178391 1004.0419 -610.58618 4294966686
105.95504 1004.8591 -610.03448 4294966686
106.73469 1002.984 -610.30463 4294966686
56.364807 1007.1707 -610.88678 4294966686
105.37875 1006.8695 -610.50916 4294966686
155.00273 1006.683 -610.03821 4294966686
7.0421257 1009.4561 -610.26477 4294966686
55.870682 1008.6324 -610.50684 4294966686
5.6409097 1012.7924 -610.16638 4294966686
55.318382 1012.6637 -610.10016 4294966686
105.51649 1011.9857 -610.10864 4294966686
156.29041 1011.859 -610.14368 4294966686
5.5236053 1014.7385 -610.72589 4294966686
55.910931 1016.6516 -610.10748 4294966686
195.58484 1016.9212 -610.08984 4294966686
161.39204 1017.5981 -610.10736 4294966686
195.76935 1018.7481 -610.56665 4294966686
58.229469 1020.6066 -610.08105 4294966686
59.842979 1022.4426 -610.5885 4294966686
115.18832 1022.618 -610.01056 4294966686
123.54853 1022.5229 -610.03687 4294966686
124.73881 1022.1945 -610.74475 4294966686
196.01534 1021.1402 -610.00122 4294966686
61.12331 1023.5687 -610.19568 4294966686
63.772415 1025.0541 -610.00513 4294966686
196.35901 1024.936 -610.9549 4294966686
163.53845 1031.9636 -610.6684 4294966686
165.50658 1031.8069 -610.70105 4294966686
167.3847 1031.6781 -610.14099 4294966686
169.19284 1031.5745 -610.40973 4294966686
177.33113 1030.8965 -610.16937 4294966686
181.47772 1030.7551 -610.79205 4294966686
183.64552 1030.7087 -610.62585 4294966686
115.80286 1034.8391 -610.21771 4294966686
117.55563 1034.7556 -610.06281 4294966686
123.21365 1034.6576 -610.26569 4294966686
125.59271 1034.3112 -610.17133 4294966686
127.46308 1034.3206 -610.7627 4294966686
129.59044 1034.1729 -610.80164 4294966686
131.57384 1034.0341 -610.24579 4294966686
133.25636 1033.905 -610.26331 4294966686
135.61108 1033.7468 -610.03876 4294966686
139.50906 1033.3457 -610.12891 4294966686
141.412 1033.2345 -610.07526 4294966686
143.60519 1033.0898 -610.03241 4294966686
145.36542 1032.9651 -610.06763 4294966686
147.51192 1032.8271 -610.00476 4294966686
149.44696 1032.6567 -610.86145 4294966686
151.65439 1032.7375 -610.05646 4294966686
153.62001 1032.4556 -610.04822 4294966686
157.50191 1032.192 -610.64191 4294966686
159.56709 1032.2351 -610.8783 4294966686
161.24521 1032.1385 -610.87421 4294966686
71.638771 1037.819 -610.02405 4294966686
73.573372 1037.6666 -610.02991 4294966686
81.508301 1037.1388 -610.11084 4294966686
89.312027 1036.5829 -610.07849 4294966686
91.809883 1036.6249 -610.06866 4294966686
93.345337 1036.5499 -610.32159 4294966686
95.180275 1036.3964 -610.31323 4294966686
101.63918 1035.958 -610.22302 4294966686
103.41131 1035.8621 -610.0943 4294966686
105.40974 1035.5288 -610.1203 4294966686
109.73781 1035.4119 -610.10333 4294966686
111.54145 1035.2744 -610.1261 4294966686
113.49519 1035.1281 -610.0108 4294966686
27.686939 1040.6471 -610.0257 4294966686
29.114887 1040.624 -610.07367 4294966686
37.24004 1039.8721 -610.07416 4294966686
61.662762 1038.3665 -610.05389 4294966686
63.699871 1038.2734 -610.05688 4294966686
65.639534 1038.3372 -610.21216 4294966686
67.617401 1038.1796 -610.38324 4294966686
3.4470899 1042.28 -610.28851 4294966686
11.215466 1041.634 -610.08398 4294966686
14.716964 1041.2755 -610.58063 4294966686
19.506596 1041.0231 -610.39056 4294966686
190.44765 980.08234 -609.94183 4294966687
89.736336 986.04681 -609.97632 4294966687
21.503374 990.37543 -609.84869 4294966687
117.53041 995.40436 -609.92419 4294966687
161.64484 994.4516 -609.76324 4294966687
163.53705 993.336 -609.93958 4294966687
67.35775 998.63855 -609.737 4294966687
61.426907 1001.0457 -609.84216 4294966687
65.390846 999.01196 -609.76849 4294966687
155.38809 1002.6403 -609.97217 4294966687
105.28199 1008.9043 -609.966 4294966687
155.2982 1008.9289 -609.85248 4294966687
5.4627409 1016.879 -609.79462 4294966687
55.375362 1014.8462 -609.83636 4294966687
158.25392 1014.8093 -609.85651 4294966687
57.13966 1018.983 -609.74396 4294966687
109.5088 1018.9777 -609.94733 4294966687
167.52615 1019.7861 -609.9173 4294966687
6.2922053 1020.2905 -609.48212 4294966687
7.5413532 1022.6465 -609.72931 4294966687
8.4169235 1024.2197 -609.87262 4294966687
117.58749 1023.1304 -609.8158 4294966687
119.57414 1023.203 -609.92169 4294966687
10.366248 1026.04 -609.87958 4294966687
15.34388 1028.8823 -609.77148 4294966687
67.630478 1026.2805 -609.38354 4294966687
69.52771 1026.5071 -609.73285 4294966687
171.71188 1031.3678 -609.94299 4294966687
173.44228 1031.2452 -609.96698 4294966687
179.3764 1030.8666 -609.76447 4294966687
119.72421 1034.7571 -609.99066 4294966687
137.38527 1033.4622 -609.99792 4294966687
77.511932 1037.3885 -609.9339 4294966687
79.646767 1037.2533 -609.97693 4294966687
83.464767 1037.0195 -609.98529 4294966687
85.432396 1036.8171 -609.85999 4294966687
87.487228 1036.6393 -609.97711 4294966687
98.057999 1036.0679 -609.88171 4294966687
21.814482 1040.8577 -609.5755 4294966687
31.736433 1040.2961 -609.88245 4294966687
33.117489 1040.1561 -609.80811 4294966687
35.567314 1040.1648 -609.79285 4294966687
41.23872 1039.7081 -609.59723 4294966687
43.766563 1039.5986 -609.98102 4294966687
45.744034 1039.4519 -609.81335 4294966687
47.703636 1039.222 -609.84741 4294966687
49.963928 1039.2012 -609.92572 4294966687
51.449291 1039.0713 -609.66852 4294966687
53.226959 1038.9752 -609.91687 4294966687
57.681232 1038.7057 -609.94373 4294966687
59.567398 1038.4789 -609.94061 4294966687
69.44725 1038.0007 -609.95239 4294966687
5.9977417 1042.0306 -609.82922 4294966687
9.8853178 1041.6702 -609.50134 4294966687
145.43921 946.20917 -608.05981 4294966688
146.43675 947.25842 -608.04883 4294966688
147.40018 945.97009 -608.06476 4294966688
186.52875 979.28259 -608.33496 4294966688
188.89598 979.24878 -608.27374 4294966688
151.43547 982.15381 -608.00391 4294966688
153.55563 982.00671 -608.01947 4294966688
155.30652 981.89441 -608.0307 4294966688
159.19147 981.6947 -608.00745 4294966688
165.39026 981.31323 -608.12671 4294966688
10.49334 991.237 -608.61713 4294966688
155.97322 1001.0559 -608.10437 4294966688
26.241467 1040.5525 -608.77899 4294966688
148.42703 941.37134 -607.20935 4294966689
142.86484 943.37738 -607.28772 4294966689
144.83582 942.61066 -607.43683 4294966689
146.8894 943.22485 -607.7226 4294966689
148.72792 944.46216 -607.79706 4294966689
150.35638 942.97693 -607.36517 4294966689
140.21548 946.80518 -607.01215 4294966689
141.43741 946.37701 -607.25232 4294966689
142.70517 946.091 -607.70087 4294966689
143.78481 947.14014 -607.91583 4294966689
144.15073 945.23767 -607.914 4294966689
148.89058 947.13745 -607.7774 4294966689
150.38055 946.03619 -607.54297 4294966689
151.56226 947.41925 -607.1673 4294966689
152.47592 945.0769 -607.21735 4294966689
30.102718 949.96735 -607.17334 4294966689
32.064301 949.40338 -607.20508 4294966689
34.05751 949.33636 -607.02771 4294966689
142.89909 948.01251 -607.54791 4294966689
144.23392 948.78784 -607.54663 4294966689
146.22685 949.25281 -607.36713 4294966689
147.7106 948.23761 -607.70392 4294966689
148.83925 948.75769 -607.36426 4294966689
29.454695 953.3064 -607.33588 4294966689
31.20364 952.35748 -607.47339 4294966689
33.035561 951.87256 -607.34967 4294966689
34.889614 951.83972 -607.07471 4294966689
29.115425 956.30286 -607.01208 4294966689
30.654047 955.28931 -607.33447 4294966689
31.861023 956.96765 -607.03589 4294966689
32.263546 954.50641 -607.39532 4294966689
33.584141 955.18164 -607.1474 4294966689
173.42532 980.88367 -607.7066 4294966689
175.50333 980.72803 -607.75305 4294966689
177.41946 980.58435 -607.81543 4294966689
181.57611 980.15735 -607.84393 4294966689
183.75748 979.80707 -607.84595 4294966689
190.40654 979.86127 -607.69147 4294966689
127.57356 983.72284 -607.74866 4294966689
131.59117 983.56305 -607.42889 4294966689
133.28815 983.42401 -607.67163 4294966689
135.39246 983.27844 -607.82758 4294966689
137.52959 983.1684 -607.72925 4294966689
139.34578 983.04993 -607.83319 4294966689
141.41232 982.9447 -607.65692 4294966689
143.24313 982.80231 -607.77637 4294966689
145.2785 982.63995 -607.8291 4294966689
147.44084 982.45697 -607.8974 4294966689
149.61122 982.29694 -607.85559 4294966689
157.3952 981.85608 -607.47797 4294966689
161.32767 981.65131 -607.50977 4294966689
163.32863 981.50696 -607.68622 4294966689
167.51471 981.23578 -607.77539 4294966689
169.51256 981.15857 -607.48566 4294966689
171.42148 981.00989 -607.76654 4294966689
192.20042 981.26245 -607.52905 4294966689
193.17647 983.69421 -607.25995 4294966689
81.228813 986.78888 -607.8056 4294966689
83.710632 986.66138 -607.47461 4294966689
91.259972 986.01605 -607.92798 4294966689
95.092262 985.82397 -607.68542 4294966689
97.543488 985.8078 -607.05701 4294966689
99.421745 985.62244 -607.59167 4294966689
101.51211 985.5318 -607.34558 4294966689
103.23862 985.39282 -607.58807 4294966689
105.45547 985.25159 -607.65045 4294966689
107.69785 985.12372 -607.6073 4294966689
109.67958 984.98987 -607.54565 4294966689
111.34592 984.86273 -607.66199 4294966689
113.49409 984.7196 -607.65448 4294966689
115.43675 984.58551 -607.73523 4294966689
117.406 984.45978 -607.6236 4294966689
119.31078 984.28815 -607.87714 4294966689
121.40184 984.22363 -607.29272 4294966689
123.37084 984.00073 -607.85968 4294966689
193.64032 986.12689 -607.62268 4294966689
57.597244 988.27283 -607.46619 4294966689
59.422005 988.16663 -607.68439 4294966689
61.327423 988.11389 -607.08948 4294966689
63.861149 987.92114 -607.45557 4294966689
67.639816 987.67688 -607.36432 4294966689
71.610832 987.43243 -607.62939 4294966689
77.361984 987.05084 -607.62805 4294966689
9.7795553 991.40137 -607.76807 4294966689
165.46165 992.60724 -607.19452 4294966689
193.68695 991.72467 -607.62244 4294966689
115.8311 995.6709 -607.33807 4294966689
161.45982 994.5578 -607.32214 4294966689
163.43475 993.36261 -607.245 4294966689
193.77477 994.87366 -607.77991 4294966689
111.09089 997.87317 -607.55957 4294966689
113.70029 996.35559 -607.12817 4294966689
158.43683 997.12592 -607.17621 4294966689
193.8878 996.66583 -607.61456 4294966689
60.929836 1001.2555 -607.74579 4294966689
63.411758 999.73187 -607.18604 4294966689
109.3316 999.34735 -607.12494 4294966689
194.09972 1000.6261 -607.70135 4294966689
105.73409 1004.8467 -607.31146 4294966689
106.59878 1002.9106 -607.14172 4294966689
155.11946 1003.9365 -607.44012 4294966689
56.020641 1007.5402 -607.5061 4294966689
105.13331 1009.3674 -607.14221 4294966689
155.72328 1010.9276 -607.26996 4294966689
194.69176 1010.8879 -607.75916 4294966689
5.4315767 1012.8339 -607.03217 4294966689
105.39661 1012.0244 -607.60901 4294966689
156.50011 1012.6618 -607.24353 4294966689
194.8329 1012.8242 -607.40515 4294966689
5.2243638 1015.6453 -607.34912 4294966689
55.529068 1015.7688 -607.17371 4294966689
106.07008 1014.6583 -607.02997 4294966689
107.26231 1016.7504 -607.32648 4294966689
157.97105 1014.8552 -607.32068 4294966689
159.40724 1016.3591 -607.2547 4294966689
194.94583 1014.3741 -607.2757 4294966689
195.17892 1016.7551 -607.31366 4294966689
5.5579734 1019.0242 -607.00647 4294966689
56.799419 1018.975 -607.43103 4294966689
109.11177 1019.0367 -607.34656 4294966689
161.34056 1017.9314 -607.13324 4294966689
163.36951 1018.9792 -607.25397 4294966689
6.1876521 1020.7911 -607.47821 4294966689
57.953026 1020.815 -607.19647 4294966689
59.639603 1022.5547 -607.28107 4294966689
167.46327 1020.0684 -607.25854 4294966689
8.0987539 1024.1748 -607.15955 4294966689
61.323502 1024.0674 -607.25696 4294966689
63.281567 1025.2601 -607.17139 4294966689
65.041138 1025.7803 -607.29962 4294966689
119.33763 1023.3238 -607.35095 4294966689
120.91555 1023.2323 -607.16943 4294966689
67.456497 1026.4423 -607.23596 4294966689
159.32602 1031.8943 -607.2605 4294966689
171.52376 1031.0847 -607.07111 4294966689
183.6273 1030.4508 -607.31006 4294966689
113.21873 1034.8667 -607.47797 4294966689
117.07968 1034.552 -607.18793 4294966689
119.66267 1034.3998 -607.00031 4294966689
121.42338 1034.3181 -607.16516 4294966689
123.79144 1034.1779 -607.03833 4294966689
125.25667 1034.1586 -607.63025 4294966689
127.35813 1033.9811 -607.32935 4294966689
129.46198 1033.8314 -607.41406 4294966689
133.30876 1033.6049 -607.4212 4294966689
135.68283 1033.417 -607.05884 4294966689
139.55302 1033.1566 -607.15863 4294966689
141.60263 1033.0187 -607.14917 4294966689
143.54865 1032.8821 -607.11163 4294966689
147.2401 1032.6311 -607.16577 4294966689
149.30862 1032.481 -607.13263 4294966689
151.50816 1032.35 -607.0719 4294966689
153.61163 1032.2805 -607.49304 4294966689
155.36995 1032.1215 -607.02362 4294966689
157.44534 1032.0255 -607.49249 4294966689
65.391586 1037.9692 -607.50305 4294966689
67.801186 1037.7504 -607.09534 4294966689
71.212341 1037.5159 -607.18121 4294966689
73.387756 1037.3578 -607.13013 4294966689
75.231255 1037.236 -607.17999 4294966689
81.591011 1036.8046 -607.06372 4294966689
83.122238 1036.7109 -607.08124 4294966689
85.122131 1036.5966 -607.0672 4294966689
89.177826 1036.3737 -607.19928 4294966689
93.020851 1036.2177 -607.67999 4294966689
94.936668 1036.0426 -607.40698 4294966689
97.627472 1035.899 -607.28967 4294966689
99.602448 1035.7465 -607.38098 4294966689
103.57375 1035.4545 -607.086 4294966689
105.29706 1035.3636 -607.16595 4294966689
107.48601 1035.2212 -607.12604 4294966689
27.686853 1040.3556 -607.12408 4294966689
28.648434 1040.3656 -607.95746 4294966689
31.734812 1040.0798 -607.24219 4294966689
34.095554 1039.8988 -607.00958 4294966689
36.594742 1039.833 -607.86591 4294966689
43.228909 1039.3024 -607.14398 4294966689
47.264111 1039.0833 -607.15576 4294966689
51.462624 1038.7839 -607.08252 4294966689
53.235142 1038.6615 -607.26715 4294966689
55.335732 1038.4785 -607.07245 4294966689
57.706322 1038.3446 -607.0719 4294966689
59.974728 1038.2454 -607.32623 4294966689
61.576145 1038.1272 -607.04401 4294966689
63.396763 1038.0452 -607.22626 4294966689
148.25163 938.3634 -606.01892 4294966690
146.27516 940.18048 -606.70618 4294966690
150.15482 939.72772 -606.57178 4294966690
151.97173 941.27118 -606.83459 4294966690
153.41635 939.60767 -606.2887 4294966690
155.25179 940.92426 -606.3562 4294966690
157.39546 941.2431 -606.04089 4294966690
34.280655 944.82434 -606.01862 4294966690
137.59238 943.5191 -606.16931 4294966690
139.44019 943.9541 -606.64093 4294966690
141.08908 942.58325 -606.7193 4294966690
153.73036 942.36853 -606.82941 4294966690
154.28444 944.33813 -606.97766 4294966690
155.17555 943.09082 -606.71265 4294966690
156.76762 943.02875 -606.37939 4294966690
158.47855 943.92249 -606.10559 4294966690
28.863081 947.39404 -606.45447 4294966690
31.078384 946.93542 -606.66742 4294966690
33.134331 946.80872 -606.7041 4294966690
35.223282 947.09521 -606.52655 4294966690
37.723137 947.46008 -606.14075 4294966690
136.34489 945.31439 -606.06067 4294966690
137.25684 947.00421 -606.2746 4294966690
138.43893 946.12659 -606.55078 4294966690
152.65318 947.55145 -606.94592 4294966690
153.55019 946.96735 -606.93372 4294966690
154.1907 945.84149 -606.98273 4294966690
155.46167 946.10229 -606.62769 4294966690
157.09044 947.08002 -606.20435 4294966690
26.904902 949.38641 -606.36945 4294966690
36.116005 949.67358 -606.70282 4294966690
38.220989 950.42432 -606.3313 4294966690
39.514576 948.96991 -606.0191 4294966690
139.99437 948.98468 -606.52252 4294966690
142.4933 949.98975 -606.63397 4294966690
144.72221 950.68158 -606.5177 4294966690
148.44791 950.26801 -606.44073 4294966690
150.25058 948.70172 -606.99231 4294966690
152.21608 949.08807 -606.43524 4294966690
153.83215 948.51489 -606.41302 4294966690
25.145184 952.54419 -606.07581 4294966690
26.553377 952.66711 -606.62506 4294966690
28.231409 951.15912 -606.99371 4294966690
36.776649 952.25696 -606.67188 4294966690
38.842396 953.14661 -606.22455 4294966690
101.58466 952.13837 -606.10797 4294966690
103.57076 952.22876 -606.09973 4294966690
105.5741 952.7052 -606.05707 4294966690
109.4718 952.30219 -606.10291 4294966690
111.55524 952.28809 -606.12213 4294966690
26.298113 955.59302 -606.39557 4294966690
27.816078 954.51843 -606.98041 4294966690
34.723953 955.98108 -606.83344 4294966690
35.618862 954.12256 -606.85248 4294966690
36.263557 956.05554 -606.46149 4294966690
37.581192 955.4884 -606.23145 4294966690
38.767925 955.25842 -606.0517 4294966690
27.636091 957.28674 -606.38086 4294966690
29.140545 958.68127 -606.24731 4294966690
30.413807 958.54712 -606.51398 4294966690
31.972536 959.34918 -606.10138 4294966690
33.010719 957.96698 -606.66455 4294966690
34.078995 957.48926 -606.63849 4294966690
35.433838 957.57623 -606.25134 4294966690
55.37001 988.5733 -606.99957 4294966690
193.9093 998.83997 -606.89478 4294966690
57.749805 1004.4744 -606.78632 4294966690
105.35709 1005.9775 -606.79431 4294966690
194.45023 1009.2906 -606.94672 4294966690
7.2691097 1023.0648 -606.96503 4294966690
169.73174 1031.1981 -606.98743 4294966690
115.84592 1034.604 -606.80359 4294966690
77.02282 1037.0935 -606.92731 4294966690
79.322357 1036.9435 -606.96582 4294966690
87.561676 1036.4475 -606.9552 4294966690
101.51864 1035.5573 -606.96033 4294966690
23.022449 1040.5577 -606.94849 4294966690
25.561821 1040.4487 -606.95801 4294966690
39.950008 1039.4906 -606.83057 4294966690
163.58926 935.60168 -605.12646 4294966691
165.47055 935.70197 -605.20209 4294966691
167.13963 935.54346 -605.26373 4294966691
169.46216 935.64789 -605.29816 4294966691
173.26801 935.80939 -605.38757 4294966691
175.3307 935.79297 -605.2511 4294966691
177.37852 935.92175 -605.26984 4294966691
109.134 938.93518 -605.08453 4294966691
140.7925 938.00677 -605.01227 4294966691
146.25177 937.24396 -605.15686 4294966691
150.16611 936.94574 -605.29419 4294966691
151.81381 938.22827 -605.94232 4294966691
153.3418 937.14209 -605.37024 4294966691
154.69778 938.40741 -605.79681 4294966691
155.698 937.64667 -605.44604 4294966691
157.54965 937.53442 -605.24622 4294966691
158.7131 937.94763 -605.28015 4294966691
160.58173 938.21686 -605.25592 4294966691
163.64166 938.0166 -605.24219 4294966691
171.26476 938.17566 -605.26691 4294966691
173.47057 938.67749 -605.19452 4294966691
175.51912 938.66229 -605.1438 4294966691
179.32216 937.4549 -605.11829 4294966691
181.49648 936.1521 -605.10461 4294966691
183.59856 936.02368 -605.03021 4294966691
87.114799 941.60681 -605.00867 4294966691
89.383087 941.78827 -605.09088 4294966691
93.459137 941.93237 -605.18835 4294966691
95.390129 941.91821 -605.21417 4294966691
101.34192 940.85645 -605.19446 4294966691
103.17196 939.57379 -605.07257 4294966691
111.54328 939.01074 -605.09644 4294966691
113.14005 939.10785 -605.29956 4294966691
115.42274 939.47638 -605.18414 4294966691
117.32369 939.77448 -605.19562 4294966691
119.32709 939.53778 -605.28687 4294966691
121.45177 939.67529 -605.24304 4294966691
125.38854 939.76044 -605.14398 4294966691
130.74484 941.79547 -605.01154 4294966691
133.56198 941.31519 -605.07825 4294966691
135.13829 941.9834 -605.39801 4294966691
136.0069 940.28088 -605.12073 4294966691
138.05309 941.15765 -605.7688 4294966691
139.14265 939.14343 -605.31885 4294966691
140.26093 940.43384 -605.95734 4294966691
143.25777 939.39087 -605.91919 4294966691
156.17917 939.31348 -605.86432 4294966691
157.35718 939.70154 -605.77911 4294966691
158.90228 939.87585 -605.60986 4294966691
161.7655 941.22772 -605.52759 4294966691
165.541 941.10663 -605.37689 4294966691
169.36505 940.8175 -605.24384 4294966691
171.46347 940.79895 -605.24176 4294966691
177.32008 940.91888 -605.20422 4294966691
179.64709 940.89587 -605.12152 4294966691
181.74059 940.94257 -605.0752 4294966691
183.36156 940.9389 -605.05841 4294966691
28.515238 944.85126 -605.45111 4294966691
30.192553 944.67767 -605.71881 4294966691
32.243423 944.5899 -605.94794 4294966691
33.440388 942.88391 -605.03442 4294966691
35.705116 943.33484 -605.19043 4294966691
53.335407 943.74579 -605.05139 4294966691
91.634598 944.60187 -605.05591 4294966691
93.556229 944.61444 -605.10669 4294966691
95.493629 944.73407 -605.16577 4294966691
97.460541 943.31775 -605.26917 4294966691
99.269821 942.09686 -605.33783 4294966691
107.28887 942.06769 -605.24969 4294966691
111.38229 943.57739 -605.16461 4294966691
113.26266 942.52594 -605.16168 4294966691
115.382 943.55518 -605.15381 4294966691
130.24098 944.72955 -605.26001 4294966691
132.37479 944.14911 -605.34991 4294966691
134.36096 943.95618 -605.57056 4294966691
136.30313 942.69348 -605.73181 4294966691
159.29362 942.30371 -605.85919 4294966691
160.57071 943.36609 -605.77545 4294966691
161.0439 944.69672 -605.80682 4294966691
162.00591 943.61407 -605.64984 4294966691
163.85614 943.22241 -605.52991 4294966691
165.51363 943.89233 -605.49878 4294966691
167.50638 943.04419 -605.44751 4294966691
171.52129 943.25513 -605.48175 4294966691
173.37679 943.3175 -605.48859 4294966691
175.62939 943.36084 -605.47632 4294966691
177.37036 943.3114 -605.44537 4294966691
179.41724 943.29114 -605.40875 4294966691
181.17374 943.41705 -605.39117 4294966691
183.42329 943.46155 -605.37787 4294966691
185.53674 943.60529 -605.37604 4294966691
187.4109 943.63397 -605.34784 4294966691
189.59654 943.82605 -605.35919 4294966691
191.4747 943.70734 -605.32245 4294966691
193.44398 943.77936 -605.27484 4294966691
195.44077 943.65332 -605.21124 4294966691
197.43687 943.73969 -605.15326 4294966691
199.44043 943.92902 -605.14435 4294966691
201.45921 943.97217 -605.10889 4294966691
203.55446 943.98993 -605.06189 4294966691
205.59306 944.07111 -605.16968 4294966691
27.140896 946.39948 -605.66156 4294966691
36.0784 945.3916 -605.98779 4294966691
37.470333 945.00342 -605.63422 4294966691
39.596115 946.6546 -605.68506 4294966691
41.44696 947.9118 -605.65863 4294966691
42.100723 945.30939 -605.19336 4294966691
43.056328 946.76825 -605.41168 4294966691
44.137142 945.72089 -605.20892 4294966691
45.508583 946.07849 -605.22314 4294966691
46.190731 947.8172 -605.3501 4294966691
47.203514 946.1272 -605.12592 4294966691
49.313835 947.04572 -605.12042 4294966691
51.419838 946.07782 -605.1673 4294966691
53.417862 946.07983 -605.0943 4294966691
89.26561 946.83154 -605.02905 4294966691
91.609703 946.92871 -605.06464 4294966691
105.25259 947.01447 -605.34937 4294966691
107.49417 946.992 -605.35718 4294966691
109.38263 947.08002 -605.37408 4294966691
113.40456 947.43811 -605.46149 4294966691
115.71413 947.59204 -605.51288 4294966691
119.62071 947.32587 -605.41913 4294966691
121.49429 947.45154 -605.41565 4294966691
123.41733 947.31134 -605.37939 4294966691
125.48513 947.33881 -605.36536 4294966691
127.51285 946.57593 -605.29456 4294966691
129.36984 947.81866 -605.41309 4294966691
131.77824 946.94373 -605.46039 4294966691
133.41464 946.06946 -605.59259 4294966691
134.71107 946.32263 -605.7829 4294966691
135.6759 947.94843 -605.90741 4294966691
158.86972 947.24988 -605.95953 4294966691
160.21434 946.88202 -605.87677 4294966691
161.03464 945.9718 -605.83734 4294966691
162.38934 947.66913 -605.61359 4294966691
163.07239 945.43097 -605.65851 4294966691
166.13135 947.61981 -605.49127 4294966691
167.46208 945.71497 -605.75525 4294966691
169.53864 946.85834 -605.78003 4294966691
171.55579 945.80811 -605.80353 4294966691
173.49649 946.95459 -605.68933 4294966691
175.43607 946.98553 -605.72754 4294966691
177.5892 946.9281 -605.66309 4294966691
179.49911 946.93372 -605.61157 4294966691
181.51884 947.02637 -605.46753 4294966691
183.57736 946.08368 -605.58112 4294966691
185.50186 947.0697 -605.39172 4294966691
187.57513 947.05579 -605.32819 4294966691
189.39989 946.17236 -605.41467 4294966691
191.71759 946.67493 -605.2262 4294966691
193.66708 946.04919 -605.24182 4294966691
195.43671 946.12695 -605.13428 4294966691
197.51988 946.13367 -605.0293 4294966691
23.922968 949.88086 -605.31989 4294966691
25.52565 948.1684 -605.60577 4294966691
42.484344 949.48596 -605.67706 4294966691
43.448479 950.89569 -605.64508 4294966691
44.311699 948.15472 -605.47186 4294966691
45.277908 950.4505 -605.50684 4294966691
46.114853 949.20007 -605.41663 4294966691
47.383205 949.70947 -605.36572 4294966691
49.094086 949.58777 -605.2746 4294966691
51.413147 948.89813 -605.06763 4294966691
53.537552 950.90442 -605.11658 4294966691
55.384365 950.86224 -605.05591 4294966691
65.418541 950.99139 -605.00409 4294966691
85.270149 948.96301 -605.04816 4294966691
89.464912 949.11566 -605.24817 4294966691
93.503517 949.25195 -605.4024 4294966691
103.53763 949.52179 -605.66382 4294966691
107.33939 949.82227 -605.75873 4294966691
111.59698 949.85583 -605.89087 4294966691
115.38103 950.03821 -605.99292 4294966691
117.38287 949.8725 -605.76788 4294966691
119.70585 950.0611 -605.89557 4294966691
121.54373 949.97107 -605.84625 4294966691
125.36649 950.01532 -605.79669 4294966691
127.45515 950.05115 -605.61462 4294966691
129.52496 950.08325 -605.59772 4294966691
131.51379 949.95819 -605.36652 4294966691
133.50737 948.73163 -605.54999 4294966691
134.63402 949.67792 -605.54413 4294966691
135.77959 950.29498 -605.47827 4294966691
137.43176 949.19794 -605.99072 4294966691
138.87564 950.66492 -605.68042 4294966691
151.05945 950.89484 -605.23242 4294966691
153.98433 950.40875 -605.22186 4294966691
155.89714 949.11108 -605.76361 4294966691
158.2021 948.77985 -605.6712 4294966691
159.79117 949.90607 -605.25171 4294966691
160.187 948.38306 -605.65875 4294966691
161.56966 950.36768 -605.11859 4294966691
164.47198 949.48718 -605.20441 4294966691
169.32767 949.16626 -605.37756 4294966691
171.49742 949.28699 -605.25317 4294966691
175.40685 949.16058 -605.14319 4294966691
183.51764 948.08569 -605.27124 4294966691
23.765015 952.65289 -605.57886 4294966691
40.787003 952.34375 -605.9126 4294966691
42.663914 953.36267 -605.72412 4294966691
45.31797 952.99854 -605.57074 4294966691
47.373558 953.25232 -605.51526 4294966691
49.958672 952.87976 -605.4715 4294966691
53.360233 953.58118 -605.4646 4294966691
55.573063 953.02802 -605.31409 4294966691
57.506855 952.61279 -605.22729 4294966691
59.70108 953.68658 -605.35211 4294966691
63.496799 953.67139 -605.41675 4294966691
65.370453 953.62122 -605.4671 4294966691
67.455177 952.48657 -605.25049 4294966691
69.348419 951.30139 -605.15125 4294966691
77.255676 951.47491 -605.15491 4294966691
79.58651 951.53455 -605.20624 4294966691
85.448708 951.76166 -605.52173 4294966691
87.524757 952.06995 -605.59241 4294966691
89.551468 951.87524 -605.64679 4294966691
91.507172 952.94507 -605.71686 4294966691
93.438431 951.94324 -605.73523 4294966691
95.390472 953.91772 -605.62695 4294966691
97.500366 951.9458 -605.98627 4294966691
99.661575 953.95721 -605.61621 4294966691
107.40612 953.70844 -605.82349 4294966691
111.46882 953.82886 -605.48523 4294966691
113.53751 952.79541 -605.65228 4294966691
115.49564 952.64575 -605.61041 4294966691
117.46816 952.68152 -605.47192 4294966691
119.43917 953.52252 -605.03784 4294966691
121.42842 951.88416 -605.67493 4294966691
123.51857 951.97522 -605.59589 4294966691
125.32153 952.01025 -605.38495 4294966691
127.76858 951.86542 -605.39069 4294966691
129.30571 951.98132 -605.36658 4294966691
137.36763 951.46552 -605.08636 4294966691
140.53633 951.21948 -605.53876 4294966691
142.17128 951.87903 -605.21271 4294966691
143.61719 951.65643 -605.6438 4294966691
144.99193 952.11005 -605.25177 4294966691
146.51122 951.45477 -605.79608 4294966691
147.77074 951.68842 -605.34888 4294966691
23.432854 955.41235 -605.3031 4294966691
24.685495 956.4975 -605.62415 4294966691
39.971489 955.00342 -605.89209 4294966691
41.603298 955.44733 -605.69293 4294966691
44.165497 955.90283 -605.54315 4294966691
45.595383 956.46484 -605.52966 4294966691
47.115398 955.96576 -605.50507 4294966691
49.440239 956.08002 -605.92719 4294966691
51.709503 956.19843 -605.86902 4294966691
55.622822 956.55164 -605.50482 4294966691
57.793777 956.5293 -605.39008 4294966691
61.554218 956.02875 -605.33771 4294966691
63.451199 956.05066 -605.30096 4294966691
67.366249 955.85175 -605.33972 4294966691
69.496864 955.98315 -605.33502 4294966691
71.405708 954.1651 -605.64771 4294966691
73.718674 954.20544 -605.61249 4294966691
75.304916 955.99371 -605.17743 4294966691
77.546532 955.12897 -605.20557 4294966691
79.470741 954.07623 -605.52814 4294966691
81.505074 954.12213 -605.58124 4294966691
83.430771 954.96521 -605.29181 4294966691
85.629234 954.10028 -605.55237 4294966691
87.332153 955.85699 -605.27551 4294966691
91.499458 955.29138 -605.27026 4294966691
93.557632 955.25677 -605.37872 4294966691
97.424019 955.48297 -605.13141 4294966691
99.203346 955.31641 -605.05206 4294966691
101.37744 955.01044 -605.1748 4294966691
103.43506 955.21838 -605.12573 4294966691
25.272966 958.44879 -605.12744 4294966691
26.246675 957.70392 -605.81238 4294966691
34.265484 959.05676 -605.87122 4294966691
36.701523 958.24036 -605.63019 4294966691
38.012932 957.96613 -605.52209 4294966691
39.985123 957.27325 -605.48114 4294966691
41.435669 958.34973 -605.1333 4294966691
42.13485 957.03046 -605.47107 4294966691
43.447216 958.07037 -605.13019 4294966691
45.455666 957.49469 -605.30023 4294966691
47.235222 959.28265 -605.06982 4294966691
49.423298 959.10071 -605.1333 4294966691
55.360817 957.86078 -605.24567 4294966691
59.457649 957.8219 -605.04663 4294966691
30.22436 960.39996 -605.23767 4294966691
33.43013 960.48566 -605.14172 4294966691
188.41986 979.76831 -605.2326 4294966691
131.33226 983.87793 -605.05426 4294966691
141.44423 983.2804 -605.03619 4294966691
153.30154 982.46075 -605.09979 4294966691
157.34468 982.19952 -605.04285 4294966691
191.92055 981.43469 -605.06519 4294966691
87.451019 986.69061 -605.14215 4294966691
108.86813 985.38507 -605.0943 4294966691
117.27706 984.81757 -605.03119 4294966691
107.80532 1000.6411 -605.07867 4294966691
105.56199 1004.6554 -605.01337 4294966691
106.59801 1002.6019 -605.09851 4294966691
57.191025 1005.1012 -605.50262 4294966691
54.922798 1010.6246 -605.28632 4294966691
104.79567 1009.0458 -605.00464 4294966691
156.27141 1012.7498 -605.20654 4294966691
194.53583 1012.8571 -605.10938 4294966691
56.509483 1018.9487 -605.00848 4294966691
107.21705 1017.0121 -605.06476 4294966691
108.63619 1018.8447 -605.20813 4294966691
165.29868 1019.8915 -605.05554 4294966691
195.19835 1018.893 -605.08844 4294966691
57.773582 1020.843 -605.10754 4294966691
115.31057 1023.1178 -605.00214 4294966691
67.272308 1026.6976 -605.07825 4294966691
185.61656 1030.3223 -605.01874 4294966691
119.46941 1034.2561 -605.00256 4294966691
131.2713 1033.5529 -605.15759 4294966691
141.40532 1032.8865 -605.10834 4294966691
81.758141 1036.6624 -605.01801 4294966691
91.517372 1036.0573 -605.0108 4294966691
27.286045 1040.1982 -605.05444 4294966691
34.992538 1039.7061 -605.11517 4294966691
41.747959 1039.2695 -605.13568 4294966691
57.019939 1038.2382 -605.013 4294966691
61.069344 1038.0046 -605.0166 4294966691
201.27608 929.97815 -604.00299 4294966692
203.36905 929.97058 -604.03857 4294966692
207.19893 929.90668 -604.10352 4294966692
211.28218 929.63879 -604.10352 4294966692
215.24156 929.67944 -604.1507 4294966692
217.39621 929.79291 -604.15302 4294966692
219.46846 929.61029 -604.12958 4294966692
221.33194 929.76013 -604.20294 4294966692
223.30058 929.76465 -604.18622 4294966692
227.26523 929.76971 -604.10876 4294966692
229.29645 929.74347 -604.11182 4294966692
165.57657 932.64783 -604.2406 4294966692
169.52127 932.45099 -604.45508 4294966692
171.42776 932.43921 -604.51385 4294966692
173.48441 932.42218 -604.55835 4294966692
175.31165 932.27405 -604.53271 4294966692
177.28801 931.92224 -604.57599 4294966692
179.5406 931.72876 -604.65051 4294966692
181.32187 932.90027 -604.87616 4294966692
183.27472 932.17584 -604.77301 4294966692
185.44547 932.28925 -604.72913 4294966692
187.35571 931.41791 -604.69458 4294966692
189.35304 931.53864 -604.59418 4294966692
191.28255 930.7005 -604.30359 4294966692
193.40144 930.16736 -604.28552 4294966692
195.31212 930.98834 -604.44727 4294966692
197.32262 930.6546 -604.27869 4294966692
199.16617 930.9137 -604.37482 4294966692
201.34056 931.60687 -604.50769 4294966692
203.42625 931.52313 -604.6308 4294966692
205.23251 931.66028 -604.54456 4294966692
207.59499 931.45984 -604.53607 4294966692
209.23433 930.95325 -604.677 4294966692
211.16493 930.92767 -604.60144 4294966692
213.14928 930.98517 -604.41504 4294966692
215.41618 931.0069 -604.39722 4294966692
217.24947 931.56421 -604.46112 4294966692
219.26138 931.59137 -604.48645 4294966692
221.41846 931.56702 -604.49554 4294966692
223.40158 931.82489 -604.4538 4294966692
225.30099 931.81561 -604.58112 4294966692
229.40952 931.95673 -604.3009 4294966692
148.44121 935.86768 -604.47809 4294966692
151.99722 935.82532 -604.56433 4294966692
153.67294 935.198 -604.17181 4294966692
156.9158 935.29742 -604.3056 4294966692
158.12138 935.07477 -604.25171 4294966692
159.55618 934.53485 -604.17975 4294966692
161.4008 934.85767 -604.74219 4294966692
163.28459 933.89941 -604.68054 4294966692
165.37762 933.75537 -604.77368 4294966692
167.22464 933.66992 -604.88135 4294966692
171.20947 933.4964 -604.95081 4294966692
173.23982 933.58649 -604.99353 4294966692
175.36719 933.54828 -604.98535 4294966692
177.48965 933.38641 -604.95453 4294966692
178.96089 933.67035 -604.99591 4294966692
187.07661 933.04413 -604.82629 4294966692
189.33305 933.08728 -604.8429 4294966692
191.37209 933.60596 -604.89783 4294966692
193.31633 933.20978 -604.95374 4294966692
195.49831 933.60693 -604.81067 4294966692
197.40392 933.70258 -604.78955 4294966692
199.66467 933.8111 -604.76697 4294966692
201.3918 933.82178 -604.7439 4294966692
203.38287 934.00952 -604.74091 4294966692
205.5148 933.72504 -604.6897 4294966692
206.78105 934.61365 -604.5755 4294966692
209.27718 934.06689 -604.57281 4294966692
211.43396 934.28027 -604.50574 4294966692
213.32774 934.05615 -604.48535 4294966692
215.47331 934.14569 -604.43616 4294966692
219.31352 933.97894 -604.44208 4294966692
221.39786 934.23151 -604.3905 4294966692
87.402893 938.2793 -604.38171 4294966692
91.187592 938.4295 -604.36084 4294966692
95.482018 938.39795 -604.4624 4294966692
97.279716 938.38824 -604.50916 4294966692
99.263199 938.37769 -604.54852 4294966692
103.34299 937.90387 -604.625 4294966692
105.39244 937.70117 -604.68512 4294966692
107.29373 936.54089 -604.20941 4294966692
109.67793 936.48907 -604.28955 4294966692
111.37913 937.52203 -604.81604 4294966692
115.27544 936.49158 -604.41888 4294966692
117.40974 936.86658 -604.61255 4294966692
119.34781 937.08643 -604.73529 4294966692
121.36289 937.52179 -604.82813 4294966692
123.54739 937.5752 -604.7959 4294966692
125.33241 936.96057 -604.56238 4294966692
127.34525 936.81079 -604.53943 4294966692
128.71004 937.19843 -604.38849 4294966692
132.99649 937.66437 -604.08557 4294966692
134.33226 938.83594 -604.49677 4294966692
136.6096 937.49609 -604.10529 4294966692
138.90381 937.29254 -604.35095 4294966692
142.44589 936.33301 -604.00818 4294966692
154.73442 936.46112 -604.99774 4294966692
156.08998 936.36078 -604.87189 4294966692
157.55763 936.19 -604.79254 4294966692
159.13489 936.34796 -604.85895 4294966692
181.17381 938.79462 -604.94202 4294966692
183.72971 938.79858 -604.86823 4294966692
185.32007 936.20087 -604.94873 4294966692
187.47699 937.573 -604.82495 4294966692
189.47638 936.15021 -604.85706 4294966692
197.47076 938.78546 -604.67584 4294966692
199.28546 936.62299 -604.64209 4294966692
203.32274 938.92023 -604.60504 4294966692
205.49814 938.93213 -604.57416 4294966692
207.41486 936.71155 -604.46814 4294966692
209.53639 937.80981 -604.44464 4294966692
217.31256 938.99683 -604.42755 4294966692
219.50471 938.95105 -604.3999 4294966692
221.49982 936.69147 -604.30963 4294966692
32.661903 941.69318 -604.04474 4294966692
36.645493 941.90369 -604.22028 4294966692
49.265415 940.7486 -604.01166 4294966692
51.149181 941.71033 -604.68817 4294966692
53.069092 941.66132 -604.58093 4294966692
55.599663 941.57538 -604.51984 4294966692
57.378941 941.52686 -604.41846 4294966692
61.348446 941.66705 -604.37885 4294966692
65.325691 941.55536 -604.57208 4294966692
67.277969 941.08301 -604.28308 4294966692
69.414925 941.17096 -604.37671 4294966692
71.266953 940.96008 -604.37231 4294966692
73.329453 940.76038 -604.45123 4294966692
75.457542 941.66614 -604.72351 4294966692
77.088142 941.04224 -604.6485 4294966692
79.381554 939.61072 -604.52832 4294966692
81.173027 940.91705 -604.78076 4294966692
83.314133 940.21899 -604.7699 4294966692
85.336647 940.17627 -604.80591 4294966692
89.568649 939.36383 -604.71442 4294966692
91.256569 939.46326 -604.81476 4294966692
93.254654 939.76514 -604.91583 4294966692
95.482254 939.76825 -604.93634 4294966692
97.475006 939.82709 -604.95215 4294966692
99.482742 939.69769 -604.99823 4294966692
128.92715 939.36371 -604.74353 4294966692
131.92445 939.34326 -604.60876 4294966692
137.74539 939.0188 -604.99609 4294966692
185.68263 940.89203 -604.99695 4294966692
187.44258 941.07898 -604.93964 4294966692
189.31262 940.91107 -604.94092 4294966692
191.54369 941.08722 -604.96924 4294966692
195.50108 940.97308 -604.89197 4294966692
199.60866 940.93146 -604.8205 4294966692
201.33134 941.00562 -604.80145 4294966692
203.51892 941.43921 -604.83856 4294966692
205.52176 941.26501 -604.79962 4294966692
207.30508 941.59589 -604.82001 4294966692
209.46408 941.41925 -604.76599 4294966692
211.46663 941.5567 -604.7699 4294966692
213.62375 941.53357 -604.7572 4294966692
215.5103 941.61139 -604.75293 4294966692
217.68109 941.75513 -604.76947 4294966692
219.3047 941.73315 -604.70502 4294966692
221.4532 940.44727 -604.53967 4294966692
223.61539 941.87811 -604.66949 4294966692
225.58862 940.59802 -604.53851 4294966692
229.35213 940.60559 -604.55029 4294966692
27.25942 944.14783 -604.53076 4294966692
29.024931 942.95319 -604.2486 4294966692
31.339756 942.67902 -604.70532 4294966692
38.064426 943.41528 -604.92633 4294966692
40.333729 943.52087 -604.68768 4294966692
42.155476 943.42236 -604.59613 4294966692
43.516342 942.76257 -604.20905 4294966692
44.898674 943.91986 -604.74066 4294966692
45.618313 942.38416 -604.17548 4294966692
46.705978 943.75146 -604.67542 4294966692
48.985268 943.729 -604.6944 4294966692
55.438187 942.97675 -604.83044 4294966692
57.207359 943.56964 -604.95734 4294966692
59.311378 943.81543 -604.88574 4294966692
61.081234 943.67468 -604.84802 4294966692
63.502689 943.78809 -604.83008 4294966692
67.206444 943.87488 -604.88916 4294966692
69.330902 944.07623 -604.91321 4294966692
73.406746 944.23511 -604.90021 4294966692
77.538269 944.42969 -604.88293 4294966692
79.315437 944.20898 -604.8833 4294966692
81.528625 944.14893 -604.87799 4294966692
83.325096 944.37372 -604.87811 4294966692
87.565514 944.64252 -604.94568 4294966692
89.277557 944.63995 -604.99042 4294966692
207.61455 944.10016 -604.97662 4294966692
209.5726 944.68457 -604.88043 4294966692
211.33675 943.91534 -604.88318 4294966692
213.65775 944.06976 -604.85803 4294966692
215.44112 944.64319 -604.71399 4294966692
217.6228 944.63269 -604.6319 4294966692
219.42839 944.14551 -604.64429 4294966692
221.67038 944.15088 -604.55951 4294966692
223.6528 944.04651 -604.54376 4294966692
227.43817 943.97864 -604.43762 4294966692
229.46754 944.12024 -604.3457 4294966692
24.206268 947.19525 -604.72107 4294966692
25.779425 945.60168 -604.79272 4294966692
55.489437 946.1275 -604.96771 4294966692
57.64566 946.18201 -604.85803 4294966692
59.524242 946.58405 -604.78851 4294966692
61.760559 946.55872 -604.74628 4294966692
63.354092 946.73853 -604.73364 4294966692
65.429825 946.62994 -604.73767 4294966692
67.605537 946.79547 -604.75031 4294966692
69.292618 946.74573 -604.76929 4294966692
71.543251 946.72284 -604.79028 4294966692
73.384995 946.75745 -604.79657 4294966692
77.395477 946.76001 -604.78772 4294966692
195.38045 947.4118 -604.78125 4294966692
197.43881 947.28265 -604.68036 4294966692
199.51151 946.66455 -604.78162 4294966692
201.57504 945.89917 -604.95782 4294966692
203.50751 946.66772 -604.66412 4294966692
205.37225 947.26422 -604.39832 4294966692
207.48404 946.60864 -604.54736 4294966692
211.66061 946.46741 -604.43982 4294966692
215.49513 946.91986 -604.12085 4294966692
217.45921 945.76819 -604.35156 4294966692
219.63454 945.69958 -604.25464 4294966692
221.34409 945.36932 -604.23718 4294966692
223.43629 945.31616 -604.16089 4294966692
225.54297 945.29199 -604.09235 4294966692
20.851395 950.59351 -604.18793 4294966692
22.385887 948.59106 -604.35571 4294966692
55.206833 948.7843 -604.91156 4294966692
57.278683 948.54541 -604.84467 4294966692
61.356113 949.03973 -604.80603 4294966692
65.219193 948.82092 -604.80457 4294966692
69.289009 948.91071 -604.87854 4294966692
71.432198 948.91937 -604.86615 4294966692
73.471863 948.97919 -604.91785 4294966692
75.614227 948.97662 -604.85681 4294966692
79.307564 948.94708 -604.90222 4294966692
81.293594 949.06256 -604.9588 4294966692
155.82828 950.54169 -604.96509 4294966692
157.72113 950.56 -604.86383 4294966692
163.63985 950.81256 -604.90277 4294966692
165.31139 950.64612 -604.91248 4294966692
167.37929 950.49817 -604.85699 4294966692
171.31815 950.43335 -604.61572 4294966692
175.38632 950.49634 -604.16882 4294966692
177.56551 949.14813 -604.9953 4294966692
179.59465 949.45697 -604.74542 4294966692
181.40968 949.19586 -604.83295 4294966692
183.4679 949.19208 -604.75037 4294966692
185.52216 949.10663 -604.72083 4294966692
187.18544 949.02802 -604.66693 4294966692
191.38567 948.82281 -604.42963 4294966692
193.36273 948.57465 -604.40601 4294966692
195.47748 948.69977 -604.04413 4294966692
20.949364 952.95508 -604.44452 4294966692
22.39327 951.52606 -604.90588 4294966692
59.679638 951.05353 -604.97906 4294966692
61.462982 951.07678 -604.97034 4294966692
63.356483 951.02112 -604.97778 4294966692
121.43669 953.4469 -604.94391 4294966692
123.30006 953.33881 -604.92621 4294966692
125.4623 953.2981 -604.88757 4294966692
131.46715 953.09698 -604.8418 4294966692
133.69981 951.51587 -604.93628 4294966692
135.60335 952.59448 -604.36737 4294966692
138.99045 951.99438 -604.84943 4294966692
143.52824 952.80725 -604.13086 4294966692
145.38335 952.82135 -604.14532 4294966692
146.02791 952.39447 -604.86108 4294966692
148.92632 951.79559 -604.81836 4294966692
159.5426 951.15973 -604.82501 4294966692
19.746096 954.0332 -604.00623 4294966692
20.887938 955.03345 -604.32501 4294966692
21.99939 956.10815 -604.58038 4294966692
22.354258 954.22498 -604.97534 4294966692
81.306358 956.86279 -604.66132 4294966692
85.661034 956.875 -604.62933 4294966692
89.482819 956.48151 -604.80841 4294966692
91.083778 956.5603 -604.65881 4294966692
95.260468 955.62292 -604.99292 4294966692
109.24299 954.91565 -604.9325 4294966692
111.37687 954.78564 -604.92065 4294966692
113.66579 954.59204 -604.90259 4294966692
115.35312 954.52972 -604.77557 4294966692
117.41496 954.33777 -604.6936 4294966692
23.213379 957.93915 -604.51758 4294966692
25.026665 959.80261 -604.19873 4294966692
27.476299 959.79608 -604.97296 4294966692
38.772087 959.35101 -604.63849 4294966692
40.362301 959.10565 -604.71008 4294966692
41.654129 959.55957 -604.41443 4294966692
42.24276 958.85889 -604.88843 4294966692
43.465515 959.48975 -604.33307 4294966692
45.116798 959.02338 -604.64233 4294966692
53.434845 959.06873 -604.78375 4294966692
55.582771 958.96869 -604.71289 4294966692
57.320847 958.90753 -604.63934 4294966692
59.519268 958.6391 -604.62195 4294966692
63.355194 957.9718 -604.69751 4294966692
65.435127 957.92725 -604.57666 4294966692
67.374985 957.17535 -604.96051 4294966692
69.50901 957.66541 -604.68311 4294966692
71.571175 957.24762 -604.87061 4294966692
75.609634 957.27576 -604.64246 4294966692
79.381905 957.13696 -604.52728 4294966692
32.135357 961.07611 -604.75818 4294966692
33.456493 961.34839 -604.20959 4294966692
35.192974 960.76056 -604.27698 4294966692
37.236298 960.33405 -604.20148 4294966692
179.4201 980.83453 -604.8819 4294966692
133.4585 983.77924 -604.9281 4294966692
135.60585 983.66718 -604.89801 4294966692
137.27858 983.57196 -604.87115 4294966692
139.58965 983.40704 -604.9953 4294966692
167.54253 981.59851 -604.85864 4294966692
169.56113 981.46082 -604.99396 4294966692
171.63126 981.33496 -604.95679 4294966692
83.498154 986.97955 -604.96826 4294966692
89.391212 986.58093 -604.97937 4294966692
99.321854 985.95282 -604.96472 4294966692
101.45552 985.83405 -604.90179 4294966692
105.4354 985.61072 -604.87659 4294966692
111.36298 985.2254 -604.89502 4294966692
115.66789 984.95197 -604.84766 4294966692
119.425 984.67029 -604.95624 4294966692
154.68024 1004.6704 -604.93341 4294966692
105.03781 1006.5569 -604.96124 4294966692
154.88383 1009.0782 -604.73395 4294966692
54.917057 1014.8788 -604.83856 4294966692
157.81516 1015.0074 -604.97351 4294966692
159.24265 1016.6018 -604.90863 4294966692
194.7359 1015.16 -604.87103 4294966692
161.15962 1018.0345 -604.98633 4294966692
194.94815 1017.2322 -604.69727 4294966692
59.376213 1022.7915 -604.96313 4294966692
110.04705 1020.257 -604.87628 4294966692
61.374901 1024.5459 -604.83813 4294966692
119.49953 1023.6285 -604.86652 4294966692
183.47218 1030.2767 -604.95837 4294966692
188.20227 1030.3317 -604.94049 4294966692
117.04264 1034.3984 -604.94342 4294966692
121.48045 1034.1385 -604.9032 4294966692
125.29538 1033.9176 -604.95801 4294966692
127.23872 1033.7887 -604.9483 4294966692
129.38165 1033.6503 -604.90979 4294966692
135.58601 1033.2753 -604.98962 4294966692
