# .PCD v0.7 - Point Cloud Data file format
VERSION 0.7
FIELDS x y z rgba
SIZE 4 4 4 4
TYPE F F F U
COUNT 1 1 1 1
WIDTH 1146
HEIGHT 1
VIEWPOINT 0 0 0 1 0 0 0
POINTS 1146
DATA ascii
524.06458 1911.5157 -270.63913 4294967026
524.73755 1915.2389 -270.89603 4294967026
525.57874 1916.8547 -270.85077 4294967026
526.94934 1918.1782 -270.88138 4294967026
530.74713 1919.6956 -270.74231 4294967026
532.95972 1919.7827 -270.9454 4294967026
544.57043 1920.3043 -270.7941 4294967026
545.25671 1922.2738 -270.39145 4294967026
545.39722 1930.8452 -270.8364 4294967026
545.5069 1932.7957 -270.89182 4294967026
546.11938 1937.4816 -270.84525 4294967026
545.51392 1943.0886 -270.86282 4294967026
542.28717 1945.2273 -270.45181 4294967026
546.02954 1937.0092 -269.15536 4294967027
546.44647 1940.1145 -269.23788 4294967027
545.95593 1942.0034 -269.14545 4294967027
524.33875 1913.6541 -268.83865 4294967028
525.64978 1916.936 -268.84744 4294967028
526.80121 1918.0477 -268.71759 4294967028
528.51294 1919.1824 -268.65747 4294967028
541.97742 1919.2544 -268.3887 4294967028
542.8407 1919.3848 -268.49533 4294967028
544.61798 1920.3657 -268.72714 4294967028
545.24298 1922.0608 -268.94409 4294967028
545.50464 1932.915 -268.79971 4294967028
545.21729 1943.5542 -268.87515 4294967028
540.71252 1945.7208 -268.6904 4294967028
543.69696 1944.7415 -268.51285 4294967028
524.80231 1915.1262 -267.02249 4294967029
525.4845 1916.6613 -267.17599 4294967029
526.69531 1917.9611 -267.07626 4294967029
530.91919 1919.8702 -267.27112 4294967029
545.36554 1930.7864 -267.09653 4294967029
545.70074 1934.8984 -267.35172 4294967029
546.10089 1937.7291 -267.26682 4294967029
545.26459 1943.6949 -267.02466 4294967029
540.30469 1945.7643 -267.02115 4294967029
537.92621 1919.5641 -266.79593 4294967030
541.9035 1919.3214 -266.7301 4294967030
545.23712 1922.2208 -266.95276 4294967030
545.44659 1932.7567 -266.64392 4294967030
546.41357 1939.9929 -266.73056 4294967030
525.61023 1916.7643 -265.24661 4294967031
528.91431 1919.4635 -265.38046 4294967031
546.07751 1942.0116 -265.27069 4294967031
526.80682 1918.2236 -264.77576 4294967032
538.40393 1919.5375 -264.75485 4294967032
541.48108 1919.4607 -264.83624 4294967032
543.54651 1919.9043 -264.8233 4294967032
545.05389 1922.2952 -264.92987 4294967032
545.62097 1934.8503 -264.68759 4294967032
545.93671 1937.1379 -264.5676 4294967032
546.3725 1940.0653 -264.85379 4294967032
540.69037 1945.8987 -264.28882 4294967032
543.95575 1944.9338 -264.77386 4294967032
542.39032 1919.6561 -263.10968 4294967033
535.45905 1920.0623 -263.02463 4294967033
544.02875 1920.5093 -263.11334 4294967033
545.91852 1937.432 -263.11221 4294967033
545.28882 1943.4054 -263.16656 4294967033
525.51111 1916.9553 -262.39059 4294967034
538.10364 1919.6432 -262.90143 4294967034
541.32874 1919.5414 -262.86313 4294967034
544.84418 1921.5616 -262.89468 4294967034
545.0957 1922.8875 -262.80325 4294967034
546.25647 1939.9125 -262.61496 4294967034
545.84558 1942.0654 -262.68295 4294967034
540.62744 1945.9409 -262.89661 4294967034
538.36603 1919.6223 -261.14584 4294967035
532.96942 1920.3588 -261.29706 4294967035
535.38239 1920.1898 -261.20395 4294967035
545.82184 1941.9249 -261.12051 4294967035
527.27679 1918.8289 -260.88318 4294967036
529.0954 1919.8478 -260.72052 4294967036
541.11157 1919.6031 -260.90778 4294967036
542.33679 1919.7843 -260.84723 4294967036
543.54797 1920.4255 -260.45462 4294967036
544.96368 1922.9407 -260.8811 4294967036
545.33887 1925.9351 -260.87674 4294967036
545.50385 1934.5378 -260.20779 4294967036
546.01141 1939.8453 -260.85358 4294967036
545.38568 1943.1536 -260.87762 4294967036
537.76044 1945.7762 -260.65369 4294967036
540.44873 1946.0068 -260.78082 4294967036
542.14368 1945.6471 -260.71738 4294967036
544.87537 1944.0479 -260.06494 4294967036
533.10236 1920.4907 -259.06644 4294967037
545.78192 1937.7388 -259.50827 4294967037
545.65448 1942.222 -259.12497 4294967037
527.16205 1918.8977 -258.7785 4294967038
538.09711 1919.7323 -258.08984 4294967038
540.67938 1919.4219 -258.67789 4294967038
530.94977 1920.4915 -258.983 4294967038
535.30536 1920.2892 -258.68402 4294967038
544.35846 1921.8295 -258.05768 4294967038
545.05359 1924.5626 -258.61761 4294967038
537.08875 1945.7756 -258.883 4294967038
542.98358 1945.5836 -258.86731 4294967038
544.78351 1944.1157 -258.69925 4294967038
541.83124 1919.9244 -257.30762 4294967039
530.62653 1920.4613 -257.03577 4294967039
545.3161 1932.4658 -257.19656 4294967039
533.57098 1945.4857 -257.10217 4294967039
525.43341 1917.3071 -256.95178 4294967040
527.45148 1919.218 -256.95135 4294967040
538.09399 1919.7996 -256.32303 4294967040
533.23932 1920.6023 -256.73318 4294967040
535.31177 1920.3954 -256.33899 4294967040
543.59198 1920.8717 -256.89114 4294967040
544.7074 1924.5184 -256.77075 4294967040
545.14612 1927.6666 -256.79218 4294967040
545.23535 1930.3053 -256.63382 4294967040
545.49725 1936.0464 -256.39896 4294967040
545.82813 1939.9064 -256.94522 4294967040
545.35425 1942.6016 -256.89212 4294967040
535.2572 1945.7977 -256.93478 4294967040
541.07544 1946.1481 -256.39865 4294967040
524.34595 1915.4567 -255.06612 4294967041
527.02686 1919.0634 -255.03598 4294967041
540.47888 1919.8384 -255.00072 4294967041
529.2536 1920.3065 -255.15694 4294967041
544.86133 1925.2303 -255.51375 4294967041
545.26154 1931.1448 -255.28604 4294967041
545.31506 1932.6614 -255.17084 4294967041
545.52521 1939.8274 -255.38744 4294967041
525.30908 1917.3062 -254.85229 4294967042
538.51044 1919.7384 -254.89452 4294967042
533.08771 1920.7344 -254.67525 4294967042
542.8158 1921.4189 -254.76677 4294967042
544.25226 1923.4875 -254.20323 4294967042
545.05713 1926.7155 -254.38565 4294967042
545.21356 1929.2201 -254.41595 4294967042
545.3609 1933.5293 -254.04288 4294967042
545.44733 1937.347 -254.33334 4294967042
545.37231 1942.2296 -254.70587 4294967042
531.9715 1945.6326 -254.80544 4294967042
535.89935 1945.9338 -254.84163 4294967042
540.78516 1946.1754 -254.5907 4294967042
542.67841 1945.5685 -254.41344 4294967042
544.04626 1944.7039 -254.79362 4294967042
524.78308 1916.5308 -253.50146 4294967043
525.97412 1918.2322 -253.11502 4294967043
540.55774 1919.996 -253.19548 4294967043
531.45593 1920.8229 -253.03574 4294967043
535.55426 1920.4122 -253.13562 4294967043
541.45764 1920.5681 -253.28319 4294967043
544.7901 1924.9098 -253.98962 4294967043
545.30396 1931.2283 -253.14883 4294967043
545.42432 1935.8191 -253.36618 4294967043
527.1507 1919.2291 -252.8748 4294967044
529.03351 1920.3282 -252.37782 4294967044
543.48651 1922.2964 -252.95416 4294967044
544.37457 1924.0374 -252.70172 4294967044
545.10876 1927.8156 -252.22821 4294967044
545.23645 1929.3674 -252.69106 4294967044
545.39966 1933.5416 -252.07562 4294967044
545.40894 1936.5012 -252.17757 4294967044
545.23267 1939.8938 -252.94641 4294967044
544.54034 1942.8452 -252.61992 4294967044
533.48413 1945.7979 -252.80527 4294967044
535.67255 1945.996 -252.67662 4294967044
538.45026 1946.1208 -252.80183 4294967044
540.68781 1946.0558 -252.39806 4294967044
542.54199 1945.6149 -252.8512 4294967044
543.7915 1944.8605 -252.90923 4294967044
526.7218 1918.9984 -251.12756 4294967045
530.79443 1920.8419 -251.64693 4294967045
533.30878 1920.7831 -251.03432 4294967045
538.56683 1920.3751 -251.65422 4294967045
540.80426 1920.5685 -251.80867 4294967045
542.29407 1921.3398 -251.90663 4294967045
543.44775 1922.4764 -251.43941 4294967045
544.19171 1923.8112 -251.5815 4294967045
545.25311 1929.5367 -251.27605 4294967045
543.75494 1943.8969 -251.10742 4294967045
544.36951 1942.8 -251.00153 4294967045
533.05328 1945.8105 -251.37477 4294967045
535.54907 1946.001 -251.2829 4294967045
528.86029 1920.3127 -250.59589 4294967046
535.46075 1920.6486 -250.94734 4294967046
542.56964 1921.8558 -250.1076 4294967046
544.29303 1924.6969 -250.13489 4294967046
544.82928 1926.3566 -250.84315 4294967046
545.37939 1931.4708 -250.9454 4294967046
545.45203 1933.8657 -250.44998 4294967046
545.41144 1936.5037 -250.87286 4294967046
545.26776 1938.4213 -250.46106 4294967046
544.79974 1941.2103 -250.59656 4294967046
542.32275 1945.137 -250.97264 4294967046
524.33533 1915.6702 -249.27483 4294967047
533.18719 1920.9465 -249.03958 4294967047
540.81421 1921.0176 -249.50996 4294967047
543.47772 1922.9941 -249.89307 4294967047
544.58954 1925.9331 -249.37375 4294967047
545.00745 1927.725 -249.73396 4294967047
545.38708 1930.9375 -249.41272 4294967047
545.49921 1933.4543 -249.48244 4294967047
545.45343 1936.295 -249.1183 4294967047
544.03705 1942.9716 -249.46773 4294967047
538.23798 1946.0328 -249.63348 4294967047
540.57062 1945.6855 -249.70567 4294967047
543.03394 1944.3297 -249.49187 4294967047
525.42926 1917.7692 -248.72554 4294967048
528.52478 1920.2367 -248.26785 4294967048
530.92963 1920.9675 -248.83015 4294967048
538.13739 1920.6926 -248.55392 4294967048
542.46698 1922.1874 -248.23119 4294967048
543.50366 1923.5156 -248.44508 4294967048
544.02905 1924.7065 -248.33382 4294967048
545.54437 1933.7512 -248.47194 4294967048
545.33777 1937.9531 -248.52226 4294967048
545.0592 1939.7939 -248.64003 4294967048
544.61493 1941.5449 -248.6611 4294967048
528.78516 1945.957 -248.87881 4294967048
532.30322 1945.854 -248.95897 4294967048
535.89227 1946.2711 -248.51407 4294967048
541.73132 1945.1326 -248.53963 4294967048
530.59174 1921.0029 -247.07431 4294967049
539.91254 1920.9408 -247.31018 4294967049
541.34497 1921.4442 -247.26607 4294967049
544.44183 1926.1385 -247.79321 4294967049
545.06647 1928.4467 -247.70537 4294967049
545.43604 1930.8083 -247.7946 4294967049
545.48669 1936.9106 -247.55959 4294967049
544.14124 1942.553 -247.74448 4294967049
533.25055 1945.9575 -247.46623 4294967049
539.82068 1945.7428 -247.4024 4294967049
543.02515 1944.1053 -247.39601 4294967049
526.38757 1918.8854 -246.90028 4294967050
528.46338 1920.2699 -246.97496 4294967050
533.49268 1921.0337 -246.99214 4294967050
535.5105 1920.8896 -246.70326 4294967050
541.77753 1922.0092 -246.18312 4294967050
542.19342 1922.177 -246.85789 4294967050
543.08105 1923.6266 -246.06683 4294967050
545.6438 1933.5492 -246.62262 4294967050
545.61792 1936.9524 -246.26317 4294967050
545.34784 1938.6498 -246.80165 4294967050
543.96057 1942.9515 -246.40012 4294967050
544.76868 1941.1633 -246.59526 4294967050
541.41138 1945.249 -246.65881 4294967050
538.5293 1920.9583 -245.59203 4294967051
540.60663 1921.3322 -245.93893 4294967051
541.54517 1922.0547 -245.21663 4294967051
544.57849 1926.8507 -245.82307 4294967051
545.32263 1929.5286 -245.93463 4294967051
545.49841 1938.942 -245.12509 4294967051
529.02185 1945.9524 -245.03677 4294967051
536.71692 1946.0853 -245.82353 4294967051
542.06384 1944.988 -245.57256 4294967051
543.21686 1944.1162 -245.28764 4294967051
524.68903 1917.1639 -244.59349 4294967052
526.31421 1919.0601 -244.89389 4294967052
529.07544 1920.6995 -244.7626 4294967052
531.11896 1921.1527 -244.89087 4294967052
540.32477 1921.4763 -244.39362 4294967052
545.69293 1931.0079 -244.22835 4294967052
545.89941 1933.6986 -244.63658 4294967052
545.87213 1936.1261 -244.86467 4294967052
544.22131 1942.8351 -244.80374 4294967052
545.03735 1941.256 -244.21336 4294967052
540.18201 1945.6962 -244.70218 4294967052
536.63812 1921.0857 -243.22707 4294967053
538.85583 1921.2156 -243.32602 4294967053
541.75354 1922.4375 -243.87552 4294967053
542.94598 1923.7268 -243.04681 4294967053
544.14362 1925.7108 -243.69402 4294967053
545.12201 1928.3027 -243.92905 4294967053
546.00519 1937.6394 -243.28624 4294967053
545.61353 1939.5756 -243.64995 4294967053
542.13031 1945.1006 -243.96648 4294967053
543.41589 1944.2377 -243.55928 4294967053
525.3205 1918.4602 -242.51683 4294967054
526.95685 1919.8721 -242.87413 4294967054
528.66382 1920.7854 -242.74344 4294967054
530.56042 1921.2319 -242.84322 4294967054
533.39508 1921.1985 -242.7274 4294967054
540.44977 1921.7817 -242.51801 4294967054
541.81458 1922.6439 -242.15431 4294967054
545.6778 1929.9325 -242.13721 4294967054
546.09741 1932.6807 -242.52571 4294967054
546.17322 1935.314 -242.93993 4294967054
544.41418 1943.0184 -242.7193 4294967054
545.32782 1941.228 -242.35547 4294967054
529.54681 1945.9915 -242.88278 4294967054
535.3078 1946.3751 -242.86986 4294967054
540.9657 1945.6357 -242.2924 4294967054
542.52057 1945.0581 -242.55499 4294967054
543.39008 1944.4037 -242.08917 4294967054
526.19019 1947.2014 -242.71884 4294967054
526.72461 1919.9508 -241.13022 4294967055
530.96082 1921.4083 -241.14917 4294967055
542.66199 1923.5195 -241.00743 4294967055
543.87372 1925.1422 -241.50691 4294967055
544.92896 1927.3147 -241.84427 4294967055
546.34235 1937.1025 -241.40244 4294967055
545.93158 1939.3682 -241.83083 4294967055
544.8819 1942.5642 -241.34874 4294967055
529.47833 1946.0583 -241.06837 4294967055
537.94312 1946.2197 -241.76227 4294967055
525.71881 1947.774 -241.28734 4294967055
528.96008 1921.0984 -240.97704 4294967056
535.8479 1921.2935 -240.1895 4294967056
538.62177 1921.4485 -240.9996 4294967056
541.0473 1922.3217 -240.38844 4294967056
545.56696 1928.9238 -240.03094 4294967056
546.1795 1931.718 -240.37663 4294967056
546.43066 1934.5325 -240.90892 4294967056
543.89081 1943.9069 -240.70445 4294967056
544.76031 1942.908 -240.39354 4294967056
545.50702 1941.4333 -240.23485 4294967056
533.00067 1946.1849 -240.93709 4294967056
535.52313 1946.5067 -240.77057 4294967056
540.40985 1945.8717 -240.07051 4294967056
542.32281 1945.111 -240.98392 4294967056
524.68188 1918.3363 -239.08032 4294967057
526.69757 1920.3447 -239.03749 4294967057
542.40845 1923.3531 -239.34938 4294967057
543.54065 1924.6245 -239.57732 4294967057
544.65155 1926.5018 -239.81616 4294967057
546.62854 1936.5024 -239.46042 4294967057
546.2865 1938.9224 -239.97879 4294967057
544.4455 1943.3309 -239.10443 4294967057
526.82214 1946.9279 -239.09549 4294967057
535.77765 1946.5531 -239.04791 4294967057
530.6377 1921.5938 -238.95866 4294967058
533.104 1921.4664 -238.97942 4294967058
538.03931 1921.4788 -238.33971 4294967058
539.8241 1921.8353 -238.98532 4294967058
545.27051 1927.8149 -238.09825 4294967058
546.56787 1933.7865 -238.80293 4294967058
546.32593 1939.3083 -238.42117 4294967058
527.53607 1946.5806 -238.94467 4294967058
530.33728 1946.076 -238.98129 4294967058
532.63416 1946.2593 -238.76062 4294967058
538.54034 1946.5704 -238.97679 4294967058
540.07764 1946.1514 -238.23917 4294967058
542.40839 1945.0255 -238.26686 4294967058
524.91833 1949.751 -238.41347 4294967058
528.01532 1921.3336 -237.16957 4294967059
539.78339 1921.854 -237.34157 4294967059
541.52734 1922.6954 -237.81071 4294967059
543.03131 1924.0034 -237.88138 4294967059
544.25641 1925.6461 -237.72028 4294967059
546.10901 1930.6815 -237.97728 4294967059
546.72437 1935.9496 -237.50084 4294967059
546.21832 1940.0679 -237.04332 4294967059
544.25189 1943.7019 -237.24113 4294967059
545.39301 1942.0676 -237.7943 4294967059
533.53522 1946.374 -237.01483 4294967059
538.50513 1946.8082 -237.2038 4294967059
524.78009 1919.1635 -236.94246 4294967060
533.38397 1921.558 -236.94775 4294967060
535.62701 1921.4558 -236.70325 4294967060
542.61658 1923.5198 -236.81845 4294967060
544.96429 1926.9053 -236.62923 4294967060
545.60449 1928.6622 -236.31862 4294967060
546.56348 1933.3419 -236.66977 4294967060
546.59326 1937.9283 -236.36354 4294967060
545.01343 1942.9365 -236.44621 4294967060
530.20416 1946.079 -236.60757 4294967060
535.42798 1946.6074 -236.86984 4294967060
540.37933 1946.1921 -236.53951 4294967060
525.56116 1947.8649 -236.85306 4294967060
524.79205 1950.5684 -236.77467 4294967060
538.57019 1921.6023 -235.61588 4294967061
540.69696 1922.1709 -235.85313 4294967061
542.15381 1923.0546 -235.80315 4294967061
543.4386 1924.4036 -235.76306 4294967061
544.44202 1925.8663 -235.86594 4294967061
545.05975 1927.1483 -235.14659 4294967061
546.13855 1930.9236 -235.60298 4294967061
546.65381 1935.5969 -235.55328 4294967061
546.20679 1939.7134 -235.35655 4294967061
544.72742 1943.2529 -235.66832 4294967061
545.6413 1941.6344 -235.86038 4294967061
527.92572 1946.676 -235.09052 4294967061
535.6908 1946.558 -235.0032 4294967061
541.96295 1945.5294 -235.41374 4294967061
543.47211 1944.4285 -235.84174 4294967061
526.66949 1947.1614 -235.25417 4294967061
523.87451 1917.8027 -234.93831 4294967062
526.45563 1920.9872 -234.94673 4294967062
528.32147 1921.6847 -234.84181 4294967062
540.17957 1921.9233 -234.23964 4294967062
541.55524 1922.5708 -234.27534 4294967062
542.66962 1923.453 -234.45567 4294967062
544.3642 1925.7872 -234.33792 4294967062
545.60974 1928.951 -234.45311 4294967062
546.39154 1933.1973 -234.61812 4294967062
546.41345 1937.666 -234.53664 4294967062
545.83398 1940.8918 -234.76161 4294967062
544.34082 1943.5453 -234.62196 4294967062
545.24731 1942.0626 -234.24712 4294967062
530.20215 1946.1384 -234.78426 4294967062
533.23969 1946.3156 -234.83217 4294967062
538.54352 1946.873 -234.8562 4294967062
540.58771 1946.4907 -234.9991 4294967062
525.06116 1949.4497 -234.92702 4294967062
524.74548 1950.5774 -234.72746 4294967062
526.44464 1921.092 -233.10687 4294967063
533.96881 1921.6539 -233.25734 4294967063
536.71423 1921.4843 -233.4446 4294967063
538.89142 1921.6591 -233.30782 4294967063
542.33044 1923.171 -233.20702 4294967063
543.47455 1924.4275 -233.33267 4294967063
545.00452 1927.2993 -233.4729 4294967063
545.95905 1930.9624 -233.58543 4294967063
546.36743 1935.3534 -233.66153 4294967063
545.85162 1939.8942 -233.47762 4294967063
541.58093 1946.1324 -233.11983 4294967063
543.1889 1944.5687 -233.45686 4294967063
524.78357 1919.6863 -232.93509 4294967064
530.95264 1922.1029 -232.24651 4294967064
540.81628 1922.326 -232.15558 4294967064
544.35645 1925.9203 -232.75127 4294967064
545.42035 1929.0178 -232.61462 4294967064
546.04871 1933.0642 -232.6682 4294967064
546.0968 1937.3364 -232.76224 4294967064
544.43005 1943.0775 -232.92458 4294967064
545.15833 1941.7095 -232.72278 4294967064
527.54303 1946.8524 -232.75246 4294967064
530.42462 1946.2166 -232.80693 4294967064
533.20215 1946.4246 -232.51439 4294967064
538.3316 1946.7634 -232.94586 4294967064
525.28094 1948.7253 -232.79247 4294967064
527.06091 1947.0668 -232.74144 4294967064
524.71094 1951.115 -232.96393 4294967064
538.02814 1921.6082 -231.25322 4294967065
542.62463 1923.5448 -231.92789 4294967065
543.70941 1925.0665 -231.127 4294967065
544.78656 1927.2715 -231.56293 4294967065
545.37341 1929.9707 -231.31934 4294967065
545.81696 1936.0875 -231.47063 4294967065
545.43433 1939.7058 -231.59641 4294967065
543.68219 1943.6877 -231.02484 4294967065
544.63684 1942.3345 -231.61974 4294967065
531.78223 1946.3983 -231.15352 4294967065
542.62067 1945.0941 -231.40002 4294967065
526.61426 1921.2924 -230.98758 4294967066
535.6358 1921.3087 -230.63704 4294967066
542.16516 1923.3323 -230.01599 4294967066
544.83289 1928.2682 -230.06494 4294967066
545.56244 1932.9628 -230.75739 4294967066
545.45197 1935.1488 -230.13852 4294967066
545.24615 1938.7504 -230.25864 4294967066
544.38531 1942.0902 -230.12238 4294967066
535.64716 1946.7297 -230.69827 4294967066
538.72223 1946.842 -230.55356 4294967066
541.95129 1945.9623 -230.47575 4294967066
525.46198 1948.3062 -230.76392 4294967066
526.89795 1947.208 -230.92561 4294967066
524.81726 1950.6415 -230.78419 4294967066
539.84814 1922.0132 -229.35487 4294967067
544.35278 1926.7271 -229.75587 4294967067
544.96588 1930.3944 -229.33107 4294967067
545.16699 1936.9968 -229.43794 4294967067
544.6828 1940.4559 -229.40213 4294967067
528.09241 1946.8158 -229.29683 4294967067
530.21765 1946.3394 -229.37894 4294967067
533.36902 1946.5745 -229.19678 4294967067
542.53674 1944.9579 -229.09932 4294967067
526.91949 1947.2106 -229.06825 4294967067
524.67444 1950.7325 -229.40778 4294967067
525.37982 1920.4539 -228.97499 4294967068
526.92242 1921.5258 -228.64751 4294967068
535.85529 1921.4982 -228.98842 4294967068
543.37341 1925.0039 -228.77084 4294967068
544.41034 1928.0044 -228.38408 4294967068
545.05127 1933.3632 -228.9765 4294967068
544.85278 1936.2258 -228.34598 4294967068
544.5863 1938.6488 -228.08003 4294967068
543.59918 1943.1909 -228.7343 4294967068
544.14709 1941.7388 -228.57559 4294967068
535.37469 1946.769 -228.91713 4294967068
538.5636 1946.8636 -228.97127 4294967068
541.01837 1946.3315 -228.63634 4294967068
528.88647 1922.3733 -227.43433 4294967069
539.7569 1921.1139 -227.00362 4294967069
541.82343 1922.989 -227.03674 4294967069
544.39789 1930.2206 -227.24763 4294967069
544.57544 1933.1921 -227.46796 4294967069
544.24585 1940.6398 -227.89787 4294967069
533.64429 1946.6771 -227.1447 4294967069
524.64008 1949.8375 -227.59674 4294967069
525.71729 1947.959 -227.20375 4294967069
531.2464 1922.4135 -226.97472 4294967070
535.41687 1921.665 -226.68315 4294967070
543.3186 1925.6243 -226.64703 4294967070
543.99036 1928.1798 -226.53819 4294967070
544.1991 1931.6301 -226.26715 4294967070
544.21271 1933.204 -226.18973 4294967070
544.2981 1936.4944 -226.55348 4294967070
544.05072 1939.4004 -226.43228 4294967070
543.66846 1942.0613 -226.68776 4294967070
530.6142 1946.4771 -226.81056 4294967070
535.88745 1946.7943 -226.9942 4294967070
540.38684 1946.5479 -226.86145 4294967070
541.74915 1945.9996 -226.58504 4294967070
542.94385 1944.1855 -226.88945 4294967070
538.22308 1947.0054 -226.36879 4294967070
536.26501 1921.5214 -225.29437 4294967071
543.73724 1928.7987 -225.09444 4294967071
543.96161 1930.1731 -225.59705 4294967071
543.93903 1933.9432 -225.15091 4294967071
544.14136 1934.6768 -225.88272 4294967071
543.21222 1943.5465 -225.24985 4294967071
524.75769 1920.0223 -224.67433 4294967072
527.01868 1921.9156 -224.91873 4294967072
528.48669 1922.5145 -224.59183 4294967072
532.71796 1922.2893 -224.80263 4294967072
539.49237 1921.3973 -224.489 4294967072
540.68079 1921.4213 -224.9608 4294967072
542.12732 1922.1464 -224.9512 4294967072
542.58771 1924.1173 -224.77458 4294967072
543.35541 1927.0226 -224.49405 4294967072
543.80194 1932.3969 -224.62845 4294967072
543.73389 1937.8685 -224.5208 4294967072
543.65802 1940.2963 -224.90355 4294967072
543.40906 1942.3279 -224.56897 4294967072
530.31421 1946.5923 -224.4263 4294967072
533.37842 1946.7767 -224.5345 4294967072
535.84973 1946.8895 -224.78902 4294967072
538.78308 1946.9403 -224.73056 4294967072
540.55457 1946.5157 -224.88129 4294967072
542.82831 1945.0393 -224.97647 4294967072
526.09613 1947.7377 -224.47621 4294967072
527.52698 1947.15 -224.89723 4294967072
525.35468 1920.8604 -223.10918 4294967073
539.72998 1921.4402 -223.01315 4294967073
543.50165 1929.8738 -223.49933 4294967073
543.65826 1935.2305 -223.87585 4294967073
543.19464 1943.9095 -223.16322 4294967073
530.73651 1946.6898 -223.05901 4294967073
539.58734 1946.7537 -223.2095 4294967073
527.01154 1922.0837 -222.64107 4294967074
530.72943 1922.7123 -222.83649 4294967074
533.3031 1922.2502 -222.64572 4294967074
540.37683 1921.6467 -222.75194 4294967074
541.7691 1922.2174 -222.89604 4294967074
542.76758 1925.0551 -222.59074 4294967074
543.3371 1932.6694 -222.07281 4294967074
543.38318 1936.8381 -222.58319 4294967074
543.40216 1939.2179 -222.88512 4294967074
543.2962 1941.6873 -222.90479 4294967074
535.61127 1946.9832 -222.66135 4294967074
540.45605 1946.5463 -222.82785 4294967074
542.75092 1944.9382 -222.92828 4294967074
524.33771 1949.4596 -222.71442 4294967074
528.86206 1922.7677 -221.40112 4294967075
531.10394 1922.7584 -221.07484 4294967075
535.02753 1921.9491 -221.90575 4294967075
543.19214 1927.5844 -221.82559 4294967075
543.18811 1936.578 -221.13034 4294967075
528.51727 1946.9867 -221.09488 4294967075
524.15515 1949.839 -221.65836 4294967075
526.54181 1947.5607 -221.86206 4294967075
536.17358 1947.1254 -221.02849 4294967075
536.17053 1921.6624 -220.85594 4294967076
538.72778 1921.5365 -220.79408 4294967076
540.409 1921.8583 -220.9157 4294967076
541.6311 1922.6381 -220.89531 4294967076
542.75836 1924.7131 -220.66779 4294967076
543.17383 1930.2507 -220.61771 4294967076
543.1474 1940.7295 -220.92656 4294967076
542.9527 1943.9054 -220.99001 4294967076
533.46045 1946.9395 -220.98363 4294967076
541.62469 1945.98 -220.63589 4294967076
542.52832 1944.9884 -220.60995 4294967076
538.63007 1947.1339 -220.76848 4294967076
525.4007 1920.9098 -219.06538 4294967077
528.65967 1922.7545 -219.2247 4294967077
533.36902 1922.4501 -219.18318 4294967077
528.26422 1946.9368 -219.0056 4294967077
535.63287 1947.1884 -219.02498 4294967077
538.68396 1947.0079 -219.35495 4294967077
531.05524 1922.8542 -218.66644 4294967078
536.33868 1921.6251 -218.90681 4294967078
542.69476 1924.7581 -218.72836 4294967078
543.28949 1927.6167 -218.63712 4294967078
542.90997 1930.6913 -218.70511 4294967078
542.92645 1932.9158 -218.7778 4294967078
542.93396 1936.7372 -218.85574 4294967078
543.01398 1939.9608 -218.81419 4294967078
543.04547 1942.7738 -218.65875 4294967078
531.01849 1946.8057 -218.89482 4294967078
540.72308 1946.4399 -218.99153 4294967078
527.06171 1947.3256 -218.5193 4294967078
533.21631 1947.0553 -218.90991 4294967078
538.69226 1921.7025 -217.07961 4294967079
539.89496 1922.1373 -217.05046 4294967079
542.78406 1943.8934 -217.07292 4294967079
542.35663 1945.3073 -217.08226 4294967079
523.98773 1949.8673 -217.10527 4294967079
533.66815 1947.1283 -217.10326 4294967079
524.38086 1919.5813 -216.92433 4294967080
526.76666 1921.8042 -216.7244 4294967080
531.09662 1922.9558 -216.326 4294967080
533.58533 1922.5405 -216.99342 4294967080
536.53876 1921.7177 -216.60512 4294967080
542.59216 1925.0161 -216.8078 4294967080
543.0672 1927.5845 -216.72211 4294967080
542.87665 1930.2201 -216.88826 4294967080
542.57391 1934.8956 -216.85425 4294967080
542.84991 1939.5894 -216.49556 4294967080
542.98218 1942.5023 -216.85391 4294967080
530.58051 1946.8024 -216.66393 4294967080
540.58081 1946.5902 -216.717 4294967080
525.09119 1948.2068 -216.86665 4294967080
528.2229 1947.0432 -216.72069 4294967080
535.8476 1947.3109 -216.48056 4294967080
538.50433 1947.087 -216.64429 4294967080
527.3476 1922.0741 -215.04976 4294967081
529.151 1922.8092 -215.29707 4294967081
542.69812 1925.6361 -215.08141 4294967081
542.59918 1932.5621 -215.08102 4294967081
533.23151 1947.1279 -215.51595 4294967081
536.38892 1947.3906 -215.03043 4294967081
538.84894 1947.0964 -215.05786 4294967081
523.72632 1950.8595 -215.02139 4294967081
524.55731 1919.6011 -214.74045 4294967082
533.32733 1922.7194 -214.70692 4294967082
536.25067 1921.9167 -214.4512 4294967082
538.13721 1921.8259 -214.64778 4294967082
539.72418 1922.2617 -214.9001 4294967082
541.12537 1923.2061 -214.7914 4294967082
542.89252 1927.6663 -214.63722 4294967082
542.73657 1930.4235 -214.76576 4294967082
542.45282 1935.1449 -214.77336 4294967082
542.73511 1939.4603 -214.63168 4294967082
527.87762 1946.8235 -214.67625 4294967082
530.76947 1946.8247 -214.76392 4294967082
540.37921 1946.5278 -214.59033 4294967082
541.09943 1946.1805 -214.45235 4294967082
542.77399 1944.046 -214.62825 4294967082
523.88483 1918.5255 -213.26591 4294967083
524.9704 1920.0018 -213.12349 4294967083
533.72528 1922.7225 -213.31496 4294967083
542.64758 1943.3431 -213.21008 4294967083
530.61957 1946.7996 -213.36211 4294967083
542.34772 1945.0522 -213.05547 4294967083
525.97003 1947.6 -213.01903 4294967083
526.69855 1921.5955 -212.83315 4294967084
536.30579 1922.0165 -212.70818 4294967084
538.33875 1922.1295 -212.93773 4294967084
540.23828 1922.6838 -212.87967 4294967084
531.19757 1923.1428 -212.47031 4294967084
542.46393 1925.8511 -212.89522 4294967084
542.95361 1927.7059 -212.8602 4294967084
542.60632 1930.3461 -212.84538 4294967084
542.63806 1939.5316 -212.54118 4294967084
528.26312 1946.7538 -212.62151 4294967084
533.59717 1947.2217 -212.80237 4294967084
535.99017 1947.457 -212.83649 4294967084
538.43158 1947.3242 -212.69022 4294967084
524.63959 1919.4584 -211.30843 4294967085
527.11084 1921.8104 -211.11293 4294967085
539.58356 1922.5013 -211.02203 4294967085
542.33539 1932.6995 -211.44235 4294967085
542.28955 1936.0026 -211.03326 4294967085
541.6925 1945.3248 -211.20264 4294967085
523.99695 1949.9537 -211.0152 4294967085
526.89606 1947.2477 -211.39819 4294967085
538.90948 1947.0804 -211.33334 4294967085
529.41357 1922.9474 -210.92964 4294967086
536.47382 1922.3699 -210.52426 4294967086
533.09912 1923.0378 -210.74278 4294967086
541.64313 1924.4941 -210.43144 4294967086
542.47375 1930.0538 -210.83118 4294967086
542.80658 1942.0533 -210.52802 4294967086
524.93378 1948.3274 -210.70767 4294967086
531.24371 1947.0129 -210.68954 4294967086
533.50244 1947.217 -210.64835 4294967086
523.59149 1951.0098 -210.3474 4294967086
524.85034 1919.6005 -209.41365 4294967087
533.52954 1923.0341 -209.33191 4294967087
542.24133 1943.7416 -209.16528 4294967087
528.51697 1946.8834 -209.04028 4294967087
539.85498 1946.6588 -209.19724 4294967087
524.4671 1948.8458 -209.01031 4294967087
526.11609 1947.354 -209.14417 4294967087
536.33893 1947.6775 -209.0759 4294967087
527.04651 1921.6501 -208.60455 4294967088
529.49072 1922.9237 -208.77925 4294967088
536.61841 1922.431 -208.97386 4294967088
538.61938 1922.3558 -208.86963 4294967088
541.96436 1925.4856 -208.8989 4294967088
542.466 1927.4222 -208.78922 4294967088
542.16455 1936.1814 -208.69388 4294967088
542.66846 1941.9633 -208.83725 4294967088
531.02515 1947.0863 -208.62273 4294967088
523.48993 1951.5267 -208.32387 4294967088
533.2655 1923.1722 -207.00562 4294967089
541.31281 1924.5289 -207.49661 4294967089
542.2901 1939.2535 -207.2189 4294967089
542.04736 1943.9626 -207.0596 4294967089
524.44202 1948.5553 -207.1022 4294967089
527.84674 1947.0511 -207.01581 4294967089
538.10474 1947.5222 -207.26993 4294967089
523.7359 1954.5022 -207.16502 4294967089
524.49121 1919.0632 -206.55437 4294967090
527.6145 1922.0602 -206.83096 4294967090
536.61401 1922.5017 -206.45731 4294967090
539.80334 1922.8945 -206.96449 4294967090
529.44135 1923.0529 -206.76926 4294967090
541.93848 1933.8311 -206.58577 4294967090
542.06244 1936.9467 -206.66136 4294967090
542.33722 1942.1707 -206.70003 4294967090
539.75055 1946.7346 -206.94939 4294967090
541.20056 1945.4907 -206.87038 4294967090
533.49475 1947.4874 -206.89285 4294967090
526.32562 1921.3085 -205.09209 4294967091
527.71918 1922.3005 -205.17131 4294967091
537.1189 1922.5804 -205.22659 4294967091
538.50238 1922.6102 -205.49118 4294967091
541.77795 1933.7717 -205.0314 4294967091
541.94208 1936.8875 -205.15604 4294967091
526.20703 1947.7312 -205.03908 4294967091
523.45953 1953.6577 -205.2867 4294967091
529.4115 1923.1749 -204.83487 4294967092
531.29663 1923.4264 -204.85605 4294967092
539.72369 1923.0671 -204.96606 4294967092
540.78607 1924.3019 -204.49393 4294967092
542.13123 1939.3148 -204.73041 4294967092
542.07416 1943.8481 -204.98216 4294967092
539.89691 1946.6049 -204.64729 4294967092
524.89618 1948.5056 -204.84558 4294967092
528.38226 1947.1515 -204.9635 4294967092
533.591 1947.579 -204.81726 4294967092
536.4035 1947.8605 -204.85846 4294967092
538.50098 1947.3441 -204.0415 4294967092
523.73145 1950.4633 -204.14017 4294967092
523.96625 1919.0217 -203.08304 4294967093
525.91241 1921.2596 -203.56996 4294967093
533.74243 1923.1318 -203.21794 4294967093
542.22461 1941.8494 -203.10938 4294967093
533.77277 1947.7524 -203.12216 4294967093
527.27466 1922.4412 -202.86116 4294967094
538.31494 1922.6982 -202.44577 4294967094
529.47302 1923.39 -202.69958 4294967094
541.69482 1927.6335 -202.73361 4294967094
541.56097 1933.8014 -202.74899 4294967094
541.74689 1937.0149 -202.81339 4294967094
541.98425 1939.3303 -202.91545 4294967094
540.68719 1945.9213 -202.02168 4294967094
541.25037 1945.0493 -202.9747 4294967094
526.49493 1947.7664 -202.83238 4294967094
527.61005 1947.3928 -202.60213 4294967094
531.3512 1947.5352 -202.73753 4294967094
536.26239 1947.9999 -202.74861 4294967094
539.18097 1947.0389 -202.12383 4294967094
523.25012 1953.6809 -202.48801 4294967094
524.49329 1920.335 -201.26857 4294967095
530.8985 1923.6519 -201.46292 4294967095
541.75208 1942.9185 -201.23906 4294967095
533.61768 1947.895 -201.53206 4294967095
523.23572 1918.5753 -200.55202 4294967096
527.15155 1922.8896 -200.64096 4294967096
536.79675 1922.9385 -200.89314 4294967096
532.42279 1923.58 -200.17001 4294967096
540.87469 1925.7845 -200.73477 4294967096
541.40771 1927.5609 -200.81767 4294967096
541.33759 1930.162 -200.59134 4294967096
541.28363 1932.6475 -200.58855 4294967096
541.48175 1936.7288 -200.77205 4294967096
541.70746 1939.2354 -200.45634 4294967096
539.742 1946.6228 -200.54166 4294967096
525.25793 1948.4882 -200.90103 4294967096
528.34558 1947.5098 -200.84515 4294967096
529.79803 1947.5856 -200.83174 4294967096
536.70587 1948.0541 -200.83041 4294967096
523.77924 1950.1368 -200.77026 4294967096
523.42633 1919.5496 -199.09108 4294967097
533.17157 1923.4779 -199.23843 4294967097
541.02295 1934.9172 -199.07129 4294967097
540.98749 1944.8665 -199.13341 4294967097
533.5127 1948.0297 -199.13777 4294967097
536.70929 1947.8979 -199.49071 4294967097
525.19733 1922.0308 -198.8046 4294967098
530.87024 1923.9469 -198.77719 4294967098
537.52325 1923.1704 -198.8669 4294967098
539.67224 1924.2891 -198.71674 4294967098
540.53778 1925.741 -198.90933 4294967098
541.08118 1930.5369 -198.95331 4294967098
541.27484 1936.9686 -198.8602 4294967098
541.5437 1939.4946 -198.88861 4294967098
541.35083 1943.9351 -198.61729 4294967098
539.6051 1946.5396 -198.72437 4294967098
526.32123 1948.1296 -198.78156 4294967098
530.96747 1947.8656 -198.8067 4294967098
538.31793 1947.365 -198.90472 4294967098
523.45471 1951.0278 -198.65071 4294967098
523.13013 1920.1189 -197.02719 4294967099
531.44751 1923.9445 -197.07608 4294967099
540.84247 1934.781 -197.08354 4294967099
526.55078 1948.1049 -197.6256 4294967099
524.17535 1921.6238 -196.85242 4294967100
528.6604 1924.2408 -196.66853 4294967100
533.72253 1923.3599 -196.60971 4294967100
537.83447 1923.3937 -196.88954 4294967100
539.36896 1924.3517 -196.96121 4294967100
540.77203 1930.5079 -196.85347 4294967100
540.76764 1932.8813 -196.92702 4294967100
540.97394 1937.0487 -196.66261 4294967100
541.29663 1939.5511 -196.75328 4294967100
541.29968 1942.8773 -196.81549 4294967100
524.7597 1949.0648 -196.96829 4294967100
528.19794 1947.9047 -196.85854 4294967100
533.37897 1948.1427 -196.92332 4294967100
536.49963 1948.0789 -196.40187 4294967100
538.12817 1947.3436 -196.98744 4294967100
523.51788 1950.5431 -196.924 4294967100
522.82361 1953.3457 -196.65344 4294967100
522.35132 1919.4166 -195.16832 4294967101
523.43304 1921.5155 -195.12996 4294967101
526.92554 1924.1075 -195.09953 4294967101
531.24713 1924.0717 -195.20459 4294967101
539.93805 1925.5801 -195.96017 4294967101
540.50452 1933.0514 -195.22491 4294967101
531.51257 1947.9623 -195.13632 4294967101
537.91553 1947.4125 -195.23938 4294967101
524.99146 1923.1962 -194.74763 4294967102
534.42609 1923.2598 -194.76384 4294967102
536.54126 1923.408 -194.60382 4294967102
537.75311 1923.6414 -194.58466 4294967102
540.20184 1927.6263 -194.4789 4294967102
540.45251 1929.9248 -194.77168 4294967102
540.63513 1936.1833 -194.88177 4294967102
541.11517 1939.7849 -194.95139 4294967102
540.97968 1943.7046 -194.58992 4294967102
541.15942 1941.9634 -194.6528 4294967102
539.92352 1945.825 -194.91467 4294967102
526.29456 1948.397 -194.42615 4294967102
529.51971 1947.9481 -194.93951 4294967102
533.92255 1948.3245 -194.89233 4294967102
523.24756 1950.5109 -194.85152 4294967102
522.69037 1953.1626 -194.53313 4294967102
521.60229 1917.4717 -193.79308 4294967103
522.75867 1921.4764 -193.07626 4294967103
526.46204 1924.3057 -193.01253 4294967103
528.76483 1924.5193 -193.29012 4294967103
538.70886 1924.6902 -193.02338 4294967103
540.38586 1936.9602 -193.02789 4294967103
540.76953 1943.8291 -193.28447 4294967103
534.20691 1948.437 -193.06831 4294967103
522.60107 1953.0768 -193.24712 4294967103
521.90967 1919.7548 -192.9343 4294967104
524.65973 1923.4349 -192.82982 4294967104
531.42682 1924.0098 -192.80774 4294967104
534.31311 1923.335 -192.51811 4294967104
539.85229 1927.3802 -192.94638 4294967104
539.99377 1930.5029 -192.4557 4294967104
540.09668 1933.748 -192.67258 4294967104
540.78595 1939.7476 -192.67189 4294967104
540.92834 1941.9393 -192.71445 4294967104
539.45886 1946.1595 -192.70543 4294967104
540.16046 1945.1246 -192.77003 4294967104
524.98901 1948.8855 -192.7905 4294967104
528.23285 1947.9398 -192.85548 4294967104
536.23132 1947.9879 -192.95197 4294967104
537.72174 1947.4375 -192.91084 4294967104
522.88013 1951.8469 -192.97591 4294967104
538.1427 1924.7064 -191.09589 4294967105
539.75153 1932.8958 -191.03981 4294967105
540.41461 1938.8501 -191.16246 4294967105
521.9104 1920.6469 -190.92238 4294967106
523.09302 1922.4958 -190.98526 4294967106
526.55011 1924.516 -190.75822 4294967106
528.67792 1924.5575 -190.53386 4294967106
531.61548 1923.9464 -190.58849 4294967106
534.87061 1923.4375 -190.68616 4294967106
536.23804 1923.6666 -190.95857 4294967106
538.83594 1925.8225 -190.76117 4294967106
539.37146 1927.4648 -190.63934 4294967106
539.6524 1930.0298 -190.72948 4294967106
539.77771 1934.8079 -190.56789 4294967106
540.75873 1942.809 -190.8201 4294967106
539.44031 1946.1252 -190.7139 4294967106
525.1582 1948.8636 -190.95416 4294967106
531.46722 1948.2194 -190.91867 4294967106
534.19397 1948.4825 -190.6273 4294967106
536.58722 1948.1104 -190.82104 4294967106
537.68994 1947.5022 -190.65158 4294967106
522.81323 1951.3992 -190.78406 4294967106
521.2854 1919.5609 -189.19496 4294967107
523.7467 1923.3639 -189.01361 4294967107
525.13208 1924.1593 -189.04752 4294967107
535.96838 1923.8429 -189.02585 4294967107
537.37445 1924.5295 -189.07506 4294967107
539.85352 1936.9829 -189.27359 4294967107
540.23236 1939.4717 -189.00235 4294967107
539.84845 1945.2323 -189.20781 4294967107
525.74219 1948.6464 -189.51813 4294967107
532.02905 1948.3094 -189.51733 4294967107
522.11377 1921.6366 -188.75909 4294967108
531.4245 1923.9971 -188.83322 4294967108
534.63342 1923.7196 -188.99487 4294967108
538.297 1925.8971 -188.77917 4294967108
538.99475 1927.6027 -188.78584 4294967108
539.30579 1930.1936 -188.80963 4294967108
539.3421 1932.649 -188.79915 4294967108
540.42462 1941.6602 -188.38788 4294967108
538.51727 1946.9445 -188.84517 4294967108
528.67346 1948.031 -188.58376 4294967108
536.35565 1948.2759 -188.90874 4294967108
523.34613 1950.1794 -188.95189 4294967108
521.99677 1921.7329 -187.00992 4294967109
528.9541 1924.5029 -187.15173 4294967109
539.1059 1929.8368 -187.30717 4294967109
539.10486 1932.4138 -187.03847 4294967109
539.56689 1945.5494 -187.05931 4294967109
523.84894 1949.6409 -187.20882 4294967109
534.37103 1948.5277 -187.65727 4294967109
521.00275 1919.4376 -186.77013 4294967110
523.66321 1923.488 -186.74451 4294967110
534.34985 1923.6339 -186.64613 4294967110
538.59021 1927.6244 -186.54326 4294967110
539.25134 1934.9741 -186.87943 4294967110
540.39703 1942.1298 -186.69562 4294967110
526.98358 1948.1809 -186.90561 4294967110
530.97662 1948.2952 -186.63002 4294967110
536.47064 1948.3024 -186.80772 4294967110
521.88495 1953.6501 -186.3692 4294967110
520.64539 1917.1349 -185.27177 4294967111
522.70502 1922.8429 -185.07492 4294967111
526.81097 1924.5758 -185.05873 4294967111
539.08099 1935.0215 -185.11681 4294967111
524.80341 1948.8392 -185.14975 4294967111
537.2691 1947.9756 -185.42044 4294967111
521.52802 1921.3486 -184.99373 4294967112
529.35504 1924.4398 -184.83965 4294967112
532.56738 1923.7195 -184.68272 4294967112
536.19537 1924.4058 -184.81635 4294967112
538.30206 1927.4431 -184.77773 4294967112
538.87787 1929.8936 -184.80206 4294967112
538.87579 1932.4755 -184.49323 4294967112
539.64105 1939.1158 -184.63058 4294967112
528.85406 1948.1364 -184.98979 4294967112
531.58136 1948.3434 -184.88405 4294967112
532.85602 1948.4175 -184.03381 4294967112
522.37048 1951.1633 -184.81367 4294967112
520.51532 1919.4784 -183.0282 4294967113
526.93469 1924.6738 -183.1183 4294967113
540.02734 1941.9736 -183.11639 4294967113
524.59747 1948.894 -183.28952 4294967113
529.47406 1948.1372 -183.06273 4294967113
521.76031 1951.6555 -183.0094 4294967113
520.30029 1915.0778 -182.85275 4294967114
520.29181 1917.3712 -182.97269 4294967114
521.30725 1921.5325 -182.88013 4294967114
522.94159 1923.3999 -182.85173 4294967114
529.46472 1924.4531 -182.82494 4294967114
532.22986 1923.8412 -182.54567 4294967114
534.3512 1923.8623 -182.61942 4294967114
537.57306 1926.321 -182.66556 4294967114
538.40845 1928.0092 -182.40459 4294967114
538.73071 1930.0753 -182.87558 4294967114
539.11554 1936.7922 -182.9745 4294967114
534.27686 1948.4786 -182.83244 4294967114
538.76581 1947.0073 -182.91295 4294967114
522.47595 1950.0404 -182.27966 4294967114
521.42322 1954.5996 -182.78375 4294967114
520.74255 1921.1106 -181.38222 4294967115
522.84375 1923.6978 -181.04951 4294967115
525.05585 1924.6394 -181.19307 4294967115
527.08313 1924.8152 -181.14493 4294967115
529.6181 1924.4729 -181.15144 4294967115
538.63318 1932.7662 -181.46196 4294967115
526.9939 1948.2513 -181.01251 4294967115
520.98059 1952.9402 -181.58911 4294967115
519.8349 1917.0984 -180.77025 4294967116
532.17859 1923.9248 -180.67589 4294967116
534.40155 1923.9913 -180.93631 4294967116
537.44562 1926.3781 -180.76147 4294967116
538.60071 1930.1106 -180.71007 4294967116
539.78076 1941.7725 -180.50946 4294967116
523.11084 1949.4777 -180.91647 4294967116
535.80127 1948.5308 -180.88934 4294967116
538.49457 1947.1179 -180.99637 4294967116
521.40985 1950.9451 -180.17256 4294967116
521.08392 1956.0472 -180.63254 4294967116
519.56726 1915.0385 -179.42226 4294967117
519.61951 1919.4496 -179.20811 4294967117
527.19086 1924.9141 -179.07906 4294967117
529.34363 1924.5367 -179.18286 4294967117
537.31305 1926.3972 -179.02281 4294967117
539.61847 1941.5337 -179.18163 4294967117
539.63562 1944.0737 -179.12512 4294967117
523.24109 1949.2329 -179.28049 4294967117
521.26587 1923.1101 -178.64221 4294967118
522.99896 1924.3062 -178.59642 4294967118
524.87701 1924.8732 -178.97568 4294967118
532.75269 1923.912 -178.97902 4294967118
538.02155 1927.6392 -178.99977 4294967118
538.43945 1933.6447 -178.39032 4294967118
539.09174 1939.0238 -178.79597 4294967118
538.90839 1946.6665 -178.66272 4294967118
539.5376 1945.8018 -178.88335 4294967118
531.77112 1948.5767 -178.88579 4294967118
533.78235 1948.7261 -178.55101 4294967118
536.94202 1948.3481 -178.96582 4294967118
520.17499 1952.9987 -178.67566 4294967118
521.41614 1950.4966 -178.93202 4294967118
520.74402 1923.1044 -177.03166 4294967119
535.86676 1924.7655 -177.17819 4294967119
522.99615 1949.2617 -177.05695 4294967119
519.77234 1952.856 -177.17072 4294967119
518.77277 1914.8224 -176.33578 4294967120
519.51672 1921.3234 -176.98764 4294967120
524.72089 1925.0719 -176.93614 4294967120
527.04498 1925.0281 -176.94841 4294967120
529.19177 1924.7288 -176.78386 4294967120
532.7312 1923.9823 -176.64551 4294967120
537.42236 1927.0422 -176.61047 4294967120
538.27106 1929.9114 -176.89732 4294967120
538.23035 1932.7151 -176.77563 4294967120
538.86426 1938.9651 -176.78941 4294967120
539.45691 1941.7465 -176.8989 4294967120
539.55353 1944.0365 -176.50127 4294967120
531.56885 1948.7152 -176.86108 4294967120
535.88165 1948.4531 -176.59184 4294967120
538.1886 1947.4689 -176.95233 4294967120
520.87433 1950.5723 -176.88487 4294967120
519.96899 1955.8311 -176.93219 4294967120
520.63129 1923.5974 -175.1656 4294967121
527.31494 1925.0543 -175.5361 4294967121
529.72925 1924.6578 -175.01935 4294967121
538.66058 1938.7778 -175.05209 4294967121
538.7226 1946.9858 -175.00757 4294967121
519.27783 1952.8425 -175.35344 4294967121
518.37488 1913.0646 -174.84566 4294967122
518.25452 1917.3717 -174.95157 4294967122
518.8399 1921.2831 -174.95699 4294967122
522.54102 1924.7484 -174.98622 4294967122
534.42059 1924.4838 -174.86989 4294967122
537.49579 1927.6146 -174.74861 4294967122
538.04608 1929.7253 -174.6657 4294967122
538.13049 1934.7504 -174.84755 4294967122
539.18109 1941.3093 -174.74844 4294967122
539.3277 1945.5593 -174.84317 4294967122
521.25842 1949.9011 -174.8396 4294967122
529.44177 1948.9056 -174.47778 4294967122
532.27899 1948.9379 -174.77902 4294967122
536.30298 1948.4589 -174.58955 4294967122
519.40967 1951.7766 -174.70212 4294967122
519.46973 1956.2383 -174.96942 4294967122
517.79028 1919.598 -173.27528 4294967123
519.2403 1922.8988 -173.16725 4294967123
521.11151 1924.3818 -173.3241 4294967123
527.28229 1925.1272 -173.0587 4294967123
535.59912 1925.1414 -173.03255 4294967123
537.90704 1929.939 -173.30527 4294967123
538.83887 1946.605 -173.17838 4294967123
539.25873 1944.2722 -173.08617 4294967123
529.59247 1949.0425 -173.01259 4294967123
519.66876 1951.0487 -173.16589 4294967123
524.70465 1925.3632 -172.79456 4294967124
530.09082 1924.5552 -172.69617 4294967124
532.58685 1924.3892 -172.49086 4294967124
533.9729 1924.5925 -172.34964 4294967124
536.69165 1926.4147 -172.71475 4294967124
537.19 1927.5045 -172.40614 4294967124
537.94269 1934.6071 -172.96252 4294967124
538.15839 1936.9412 -172.99709 4294967124
538.45667 1938.9487 -172.64079 4294967124
538.99878 1941.6744 -172.64749 4294967124
521.19666 1949.823 -172.8358 4294967124
525.74628 1948.7976 -172.97411 4294967124
532.20953 1949.0865 -172.92934 4294967124
535.41333 1948.8878 -172.65288 4294967124
537.42694 1948.0573 -172.68898 4294967124
518.64117 1955.6981 -172.83185 4294967124
517.11554 1919.7498 -171.12918 4294967125
519.04779 1923.5742 -171.05769 4294967125
521.15363 1924.818 -171.29387 4294967125
536.44257 1926.4265 -171.00111 4294967125
538.60986 1946.308 -171.4415 4294967125
524.71387 1948.8505 -171.20563 4294967125
527.16687 1948.9991 -171.00777 4294967125
530.02386 1949.181 -171.06494 4294967125
518.41876 1952.0204 -171.06488 4294967125
518.53796 1957.4685 -171.29987 4294967125
517.70343 1921.7787 -170.96362 4294967126
522.7243 1925.3245 -170.87566 4294967126
527.5307 1925.1178 -170.93878 4294967126
530.35144 1924.5029 -170.98085 4294967126
532.4469 1924.3339 -170.54945 4294967126
535.38379 1925.2991 -170.83487 4294967126
537.6474 1929.6771 -170.92337 4294967126
537.66956 1933.7029 -170.79254 4294967126
538.23804 1938.9344 -170.80048 4294967126
538.8382 1941.698 -170.70627 4294967126
538.80109 1945.035 -170.00935 4294967126
539.00647 1944.2839 -170.95015 4294967126
520.83136 1949.8567 -170.9041 4294967126
531.86865 1949.2216 -170.70615 4294967126
535.33838 1948.7728 -170.70528 4294967126
517.97803 1953.3287 -170.89899 4294967126
519.08752 1962.713 -170.69469 4294967126
516.35742 1918.2163 -169.27585 4294967127
522.63354 1925.5039 -169.1057 4294967127
525.02313 1925.4784 -169.29636 4294967127
537.96692 1938.6971 -169.12044 4294967127
538.58826 1941.5533 -169.15955 4294967127
538.78461 1944.0427 -169.33124 4294967127
520.89746 1949.532 -169.22379 4294967127
524.47394 1948.9528 -169.0773 4294967127
529.76001 1949.281 -169.01498 4294967127
517.94232 1958.5569 -169.06387 4294967127
518.36676 1960.7997 -169.283 4294967127
516.77069 1921.5461 -168.74207 4294967128
517.86322 1923.1763 -168.92896 4294967128
519.27966 1924.4445 -168.87422 4294967128
527.33173 1925.1453 -168.73192 4294967128
530.42505 1924.5027 -168.5006 4294967128
533.9826 1924.9154 -168.86378 4294967128
536.71307 1927.7825 -168.47047 4294967128
537.41321 1929.896 -168.81351 4294967128
537.46893 1934.3828 -168.81418 4294967128
527.65057 1949.1949 -168.55431 4294967128
532.78406 1949.4148 -168.54327 4294967128
534.70728 1948.9736 -168.69867 4294967128
536.16577 1948.448 -168.54234 4294967128
537.8208 1947.3104 -168.79227 4294967128
518.83911 1950.8008 -168.73965 4294967128
517.42365 1954.4338 -168.95302 4294967128
522.79584 1925.6647 -167.21788 4294967129
527.61462 1925.0844 -167.00453 4294967129
532.67957 1924.7205 -167.03203 4294967129
537.34161 1935.2345 -167.55281 4294967129
525.34009 1949.1288 -167.00366 4294967129
529.59918 1949.3982 -167.19737 4294967129
516.78033 1955.5234 -167.71944 4294967129
517.75122 1962.886 -167.16681 4294967129
518.13208 1963.7782 -167.90054 4294967129
515.45673 1919.2416 -166.85376 4294967130
516.21198 1921.8845 -166.94646 4294967130
519.31738 1924.8463 -166.89005 4294967130
525.04816 1925.4729 -166.87276 4294967130
530.53284 1924.5216 -166.67729 4294967130
535.41876 1926.1075 -166.91006 4294967130
537.11072 1929.6853 -166.85799 4294967130
537.09363 1932.1454 -166.46547 4294967130
537.37384 1936.9354 -166.82388 4294967130
538.15082 1941.6045 -166.54955 4294967130
538.2951 1945.0415 -166.86415 4294967130
