# .PCD v0.7 - Point Cloud Data file format
VERSION 0.7
FIELDS x y z rgba
SIZE 4 4 4 4
TYPE F F F U
COUNT 1 1 1 1
WIDTH 1147
HEIGHT 1
VIEWPOINT 0 0 0 1 0 0 0
POINTS 1147
DATA ascii
243.54034 1922.6073 -649.08655 4294966647
245.31261 1922.426 -649.15399 4294966647
249.62497 1921.8365 -649.00543 4294966647
251.48338 1921.7576 -649.17566 4294966647
253.35242 1921.7434 -649.25934 4294966647
255.20923 1921.6697 -649.28198 4294966647
257.61902 1921.5876 -649.29401 4294966647
259.30289 1921.4762 -649.23145 4294966647
261.69934 1921.2693 -649.11603 4294966647
263.35043 1921.1967 -649.20374 4294966647
265.5134 1921.0831 -649.21301 4294966647
267.54742 1920.9207 -649.1131 4294966647
269.45111 1921.1646 -649.69836 4294966647
271.45251 1921.123 -649.7558 4294966647
275.38434 1920.8889 -649.82996 4294966647
277.47989 1920.7113 -649.79089 4294966647
279.45303 1920.6395 -649.79602 4294966647
195.63696 1925.8827 -649.08136 4294966647
197.18013 1925.7305 -649.13672 4294966647
199.62364 1925.5269 -649.11249 4294966647
201.22023 1925.4352 -649.18329 4294966647
203.46106 1925.2957 -649.16602 4294966647
205.6826 1925.2416 -649.28998 4294966647
209.21179 1924.817 -649.18677 4294966647
213.50473 1924.6343 -649.24921 4294966647
217.35912 1924.9907 -649.91675 4294966647
219.47426 1924.1904 -649.11475 4294966647
221.39268 1923.9436 -649.21832 4294966647
223.2267 1923.5261 -649.25842 4294966647
161.47878 1928.8083 -649.51849 4294966647
163.23071 1928.4985 -649.43665 4294966647
165.29439 1927.8564 -649.18591 4294966647
167.50566 1927.4633 -649.07562 4294966647
169.78685 1927.2054 -649.31775 4294966647
171.40871 1927.1451 -649.36401 4294966647
173.36568 1927.1251 -649.41522 4294966647
175.54863 1927.1354 -649.49908 4294966647
179.54698 1926.9403 -649.61481 4294966647
183.55344 1926.8698 -649.69891 4294966647
185.44678 1926.4288 -649.50928 4294966647
189.43137 1926.6198 -649.68341 4294966647
129.47299 1931.8704 -649.30902 4294966647
133.52773 1931.1915 -649.27637 4294966647
135.49193 1930.9045 -649.25739 4294966647
137.31445 1930.7245 -649.30786 4294966647
139.48042 1930.6616 -649.54303 4294966647
141.4053 1930.3237 -649.46667 4294966647
143.64821 1929.5867 -649.02795 4294966647
145.72336 1929.4276 -649.11334 4294966647
149.40887 1929.4227 -649.72308 4294966647
151.54591 1929.3652 -649.55017 4294966647
153.57001 1929.2572 -649.48248 4294966647
155.52643 1929.302 -649.66376 4294966647
157.43665 1929.1064 -649.46826 4294966647
159.39157 1929.0583 -649.573 4294966647
114.71555 1934.2264 -649.0224 4294966647
127.30657 1932.3915 -649.52405 4294966647
131.33656 1932.3978 -649.82672 4294966647
105.47641 1946.86 -649.02563 4294966647
107.52103 1946.8569 -649.13232 4294966647
109.80519 1946.9006 -649.24347 4294966647
111.16965 1944.8182 -649.09167 4294966647
113.45992 1944.9108 -649.21552 4294966647
281.32227 1946.9501 -649.75543 4294966647
293.55298 1945.8954 -649.19958 4294966647
105.65579 1948.9487 -649.3999 4294966647
107.37108 1949.1578 -649.55389 4294966647
109.50142 1949.1659 -649.65057 4294966647
111.62618 1949.0533 -649.70752 4294966647
113.29112 1949.0936 -649.80713 4294966647
233.49814 1949.979 -649.9151 4294966647
235.46568 1949.8322 -649.77014 4294966647
237.19455 1949.6946 -649.98682 4294966647
241.58594 1949.9036 -649.93542 4294966647
243.21277 1949.9122 -649.94818 4294966647
245.4041 1949.8602 -649.85681 4294966647
247.59254 1949.6536 -649.78204 4294966647
249.25009 1949.2544 -649.9848 4294966647
251.50903 1949.1111 -649.85352 4294966647
253.47481 1948.9916 -649.95203 4294966647
255.46907 1948.9741 -649.97003 4294966647
257.33072 1949.0713 -649.70508 4294966647
263.60425 1948.2067 -649.91498 4294966647
267.58759 1947.7534 -649.96539 4294966647
271.54449 1947.7397 -649.8399 4294966647
273.45337 1947.6484 -649.86011 4294966647
277.37814 1947.3605 -649.70691 4294966647
279.56741 1947.2522 -649.60297 4294966647
93.557449 1951.0581 -649.0351 4294966647
95.619324 1951.4781 -649.25031 4294966647
99.549858 1951.6422 -649.55298 4294966647
103.23997 1951.6727 -649.77948 4294966647
105.86102 1951.569 -649.90363 4294966647
191.3882 1952.5073 -649.98297 4294966647
193.5757 1952.3645 -649.95184 4294966647
195.24069 1952.2361 -649.95142 4294966647
197.72423 1952.1246 -649.90485 4294966647
199.3528 1952.1025 -649.73499 4294966647
201.42612 1951.9205 -649.91711 4294966647
205.36165 1951.6145 -649.93774 4294966647
207.50298 1951.5076 -649.89313 4294966647
209.47148 1951.4187 -649.80139 4294966647
213.37029 1951.2728 -649.80103 4294966647
217.23743 1951.0925 -649.92004 4294966647
229.65283 1950.4313 -649.95746 4294966647
231.73312 1950.2046 -649.85846 4294966647
89.356277 1953.5374 -649.08698 4294966647
91.300171 1954.806 -649.17212 4294966647
93.331451 1954.7871 -649.42761 4294966647
95.561867 1955.7887 -649.32959 4294966647
97.34153 1953.9277 -649.85034 4294966647
99.602554 1955.9 -649.62061 4294966647
103.46185 1955.952 -649.95483 4294966647
105.53972 1955.6835 -649.84344 4294966647
133.18311 1955.9805 -649.68823 4294966647
135.05135 1955.9753 -649.64313 4294966647
137.4426 1955.8326 -649.62659 4294966647
139.31352 1955.9314 -649.39124 4294966647
141.45464 1955.6407 -649.30835 4294966647
147.60056 1955.2869 -649.45929 4294966647
149.48479 1955.0118 -649.88757 4294966647
171.68185 1953.7052 -649.98584 4294966647
175.55573 1953.467 -649.98767 4294966647
177.42943 1953.3341 -649.99255 4294966647
179.25093 1953.2343 -649.99408 4294966647
183.55934 1953.0527 -649.87439 4294966647
97.408257 1956.0631 -649.47717 4294966647
99.373718 1957.2064 -649.05859 4294966647
101.51549 1956.1285 -649.81372 4294966647
104.28404 1956.8462 -649.29077 4294966647
107.3291 1956.4399 -649.53351 4294966647
111.50982 1956.7455 -649.43872 4294966647
113.26133 1956.6741 -649.50702 4294966647
115.32718 1956.8232 -649.35089 4294966647
121.42335 1956.3766 -649.69769 4294966647
124.96006 1956.4557 -649.72675 4294966647
127.39332 1956.5339 -649.13025 4294966647
129.21518 1956.3407 -649.3194 4294966647
131.30147 1956.2723 -649.22504 4294966647
283.25946 1919.3344 -648.03094 4294966648
285.56415 1919.1802 -648.06812 4294966648
291.28027 1918.8158 -648.00616 4294966648
293.4227 1918.6808 -648.06299 4294966648
251.67239 1921.3663 -648.05261 4294966648
253.58954 1921.3065 -648.16028 4294966648
255.33699 1921.2202 -648.10431 4294966648
257.56998 1921.1597 -648.17371 4294966648
259.17429 1921.0658 -648.05566 4294966648
261.39362 1920.9229 -648.08014 4294966648
263.48499 1920.7551 -648.05811 4294966648
265.37372 1920.6984 -648.18408 4294966648
269.55789 1920.3691 -648.01746 4294966648
203.46274 1924.8181 -648.0517 4294966648
147.13039 1928.881 -648.1123 4294966648
167.28729 1926.9866 -648.00037 4294966648
115.20514 1931.7054 -648.00824 4294966648
131.41554 1931.0492 -648.89258 4294966648
98.705902 1934.9042 -648.24188 4294966648
100.08052 1934.6222 -648.00488 4294966648
103.20931 1934.9561 -648.33356 4294966648
105.30321 1934.395 -648.27252 4294966648
107.22014 1934.8722 -648.54468 4294966648
109.27014 1933.8582 -648.44885 4294966648
111.14932 1933.6733 -648.61713 4294966648
113.41593 1932.071 -648.22552 4294966648
115.42212 1932.163 -648.40863 4294966648
87.150543 1937.7229 -648.30328 4294966648
89.546272 1937.6978 -648.48743 4294966648
91.28627 1936.7021 -648.29895 4294966648
93.349655 1936.9434 -648.67377 4294966648
95.189102 1935.4248 -648.21216 4294966648
96.796326 1935.145 -648.25348 4294966648
101.19743 1936.3662 -648.52094 4294966648
103.55581 1937.1271 -648.7691 4294966648
105.03715 1937.6807 -648.9361 4294966648
107.35924 1937.8595 -648.95905 4294966648
109.49638 1937.9379 -648.99384 4294966648
83.350807 1940.1967 -648.34894 4294966648
85.647751 1938.1285 -648.20514 4294966648
87.434677 1939.7905 -648.73041 4294966648
89.640465 1939.9236 -648.73792 4294966648
91.095924 1939.7251 -648.7547 4294966648
93.368561 1940.1035 -648.66614 4294966648
95.332031 1940.1344 -648.59814 4294966648
97.323395 1940.0095 -648.57025 4294966648
99.165062 1940.2922 -648.57397 4294966648
101.50148 1940.5228 -648.61066 4294966648
103.66359 1940.8225 -648.69519 4294966648
105.06877 1940.6144 -648.76398 4294966648
107.29842 1940.6915 -648.84753 4294966648
109.53126 1940.8109 -648.92181 4294966648
85.25634 1942.5861 -648.26746 4294966648
101.36139 1942.9042 -648.5788 4294966648
105.32063 1942.8254 -648.77332 4294966648
109.1932 1942.8068 -648.91425 4294966648
91.424294 1946.9803 -648.46844 4294966648
97.49649 1944.7577 -648.48578 4294966648
101.46649 1944.7349 -648.61725 4294966648
103.3142 1946.8054 -648.88409 4294966648
105.47161 1944.7467 -648.83356 4294966648
107.65247 1944.8889 -648.93872 4294966648
295.42258 1946.2109 -648.03589 4294966648
86.076645 1949.381 -648.28894 4294966648
89.359131 1948.9545 -648.53357 4294966648
93.351677 1948.8611 -648.71021 4294966648
253.38846 1949.9457 -648.0188 4294966648
261.60471 1949.4287 -648.10089 4294966648
267.60834 1948.6139 -648.11792 4294966648
273.59686 1948.4161 -648.02136 4294966648
275.30753 1948.1338 -648.00476 4294966648
83.347458 1951.2344 -648.30731 4294966648
87.693596 1951.0157 -648.63287 4294966648
89.447098 1950.9991 -648.75085 4294966648
91.221428 1950.9347 -648.85779 4294966648
193.32285 1952.9614 -648.05511 4294966648
203.62091 1952.4906 -648.08588 4294966648
227.22142 1951.201 -648.06262 4294966648
231.71896 1950.7146 -648.05225 4294966648
233.63524 1950.5397 -648.18713 4294966648
235.47 1950.2922 -648.13165 4294966648
237.48311 1950.3496 -648.07367 4294966648
239.46681 1950.6173 -648.21796 4294966648
247.21599 1950.5421 -648.11023 4294966648
79.595314 1954.8258 -648.35156 4294966648
81.409081 1953.3046 -648.30908 4294966648
83.448792 1953.2867 -648.46802 4294966648
85.378838 1953.6432 -648.68414 4294966648
87.569473 1953.64 -648.92206 4294966648
89.204857 1955.9329 -648.94678 4294966648
151.58614 1955.6077 -648.00836 4294966648
167.22229 1954.5028 -648.12848 4294966648
169.71802 1954.4871 -648.07416 4294966648
175.25807 1954.1006 -648.10577 4294966648
81.457977 1956.0959 -648.56903 4294966648
83.678024 1957.0214 -648.32318 4294966648
85.555481 1956.1252 -648.62128 4294966648
87.522659 1956.2384 -648.93365 4294966648
91.599991 1957.2727 -648.7049 4294966648
93.881447 1957.0786 -648.81708 4294966648
95.618179 1958.1685 -648.18591 4294966648
97.493744 1957.1984 -648.92963 4294966648
102.30338 1957.603 -648.74353 4294966648
121.37949 1957.4158 -648.17316 4294966648
123.28665 1957.2782 -648.22455 4294966648
125.37647 1957.2158 -648.09906 4294966648
137.41585 1956.4438 -648.0462 4294966648
275.4751 1919.8184 -647.7345 4294966649
279.09775 1919.6797 -647.79877 4294966649
281.33716 1919.4641 -647.88165 4294966649
295.47144 1918.4863 -647.92126 4294966649
223.11871 1922.8309 -647.83765 4294966649
227.27676 1921.7893 -647.37781 4294966649
229.48984 1921.6113 -647.27972 4294966649
233.20042 1921.9987 -647.7619 4294966649
235.42308 1922.3889 -647.91864 4294966649
237.37938 1922.4747 -647.96478 4294966649
241.5587 1922.3221 -647.84283 4294966649
242.93098 1922.2034 -647.92664 4294966649
245.52032 1921.8574 -647.85297 4294966649
249.19327 1921.548 -647.96429 4294966649
271.54672 1920.2448 -647.90204 4294966649
183.73318 1925.8558 -647.35535 4294966649
187.52217 1925.6451 -647.81006 4294966649
191.22835 1925.5005 -647.75812 4294966649
193.35042 1925.3489 -647.79565 4294966649
197.1048 1925.2212 -647.81531 4294966649
199.45296 1925.0493 -647.86218 4294966649
201.17885 1924.9414 -647.99243 4294966649
207.21191 1924.5573 -647.97498 4294966649
211.44467 1924.0986 -647.90942 4294966649
217.40335 1923.6433 -647.87134 4294966649
219.40204 1923.4274 -647.90356 4294966649
221.17401 1923.2832 -647.86334 4294966649
145.77791 1928.9315 -647.96881 4294966649
151.63589 1928.6648 -647.97998 4294966649
155.54062 1928.521 -647.9469 4294966649
157.26578 1928.3951 -647.9458 4294966649
159.31654 1928.2191 -647.87952 4294966649
161.25018 1927.9979 -647.81384 4294966649
163.05833 1927.7616 -647.87244 4294966649
165.24045 1927.4009 -647.94189 4294966649
169.57477 1926.812 -647.8988 4294966649
171.36365 1926.688 -647.97778 4294966649
181.4129 1926.2404 -647.82166 4294966649
111.42044 1931.8008 -647.64441 4294966649
117.15421 1931.3672 -647.07928 4294966649
119.55396 1931.0731 -647.09979 4294966649
125.51629 1930.9968 -647.97675 4294966649
129.32132 1930.3292 -647.51752 4294966649
131.35168 1930.0706 -647.57935 4294966649
133.73338 1929.8405 -647.55804 4294966649
135.07346 1929.7786 -647.73016 4294966649
137.23111 1929.6 -647.74213 4294966649
141.2252 1929.2793 -647.80719 4294966649
89.51593 1934.8379 -647.13666 4294966649
93.465126 1934.505 -647.49341 4294966649
95.354301 1934.4236 -647.42914 4294966649
97.503876 1934.8319 -647.83899 4294966649
99.290192 1933.9171 -647.44385 4294966649
101.31636 1933.3182 -647.22504 4294966649
103.70008 1933.1552 -647.56769 4294966649
105.70775 1932.9032 -647.46606 4294966649
107.54593 1932.7299 -647.74774 4294966649
109.47398 1932.3075 -647.7663 4294966649
81.834915 1936.7181 -647.20758 4294966649
85.282677 1936.4745 -647.58069 4294966649
87.31646 1936.1841 -647.7691 4294966649
75.072411 1939.7157 -647.06268 4294966649
77.494354 1939.9392 -647.45221 4294966649
79.244049 1939.6147 -647.63422 4294966649
81.603706 1938.1602 -647.90442 4294966649
75.31266 1942.0848 -647.13416 4294966649
77.229591 1942.2878 -647.36517 4294966649
251.48932 1949.9976 -647.89716 4294966649
259.33267 1949.9263 -647.67316 4294966649
263.58292 1949.1261 -647.91962 4294966649
269.48996 1948.3761 -647.97467 4294966649
271.31436 1948.301 -647.99658 4294966649
277.37201 1948.0116 -647.89246 4294966649
281.54907 1947.7357 -647.86273 4294966649
195.53294 1952.8685 -647.87219 4294966649
197.60986 1952.7604 -647.99609 4294966649
201.53137 1952.6362 -647.79065 4294966649
205.4382 1952.3878 -647.97363 4294966649
207.6163 1952.2333 -647.953 4294966649
209.23717 1952.1373 -647.9762 4294966649
211.64558 1952.0349 -647.90344 4294966649
213.38341 1951.9648 -647.84155 4294966649
215.57652 1951.8671 -647.90503 4294966649
217.08691 1951.7981 -647.99518 4294966649
219.51218 1951.6987 -647.84625 4294966649
221.47295 1951.4828 -647.89386 4294966649
223.435 1951.3695 -647.79944 4294966649
225.50273 1951.2164 -647.78174 4294966649
229.67653 1950.9553 -647.80176 4294966649
243.36276 1951.161 -647.31104 4294966649
245.11351 1950.897 -647.78094 4294966649
249.42445 1950.2094 -647.98138 4294966649
255.76387 1950.104 -647.6629 4294966649
149.5024 1955.7081 -647.92523 4294966649
155.39699 1955.3683 -647.99023 4294966649
165.79256 1954.7651 -647.7652 4294966649
173.51791 1954.2313 -647.93793 4294966649
177.34044 1953.9974 -647.99457 4294966649
179.33951 1953.8755 -647.99567 4294966649
181.66174 1953.5933 -647.80811 4294966649
183.39998 1953.4773 -647.99255 4294966649
185.52095 1953.3407 -647.9184 4294966649
187.56122 1953.2509 -647.91864 4294966649
189.50969 1953.2512 -647.91522 4294966649
191.50539 1953.1089 -647.63037 4294966649
69.605743 1957.6945 -647.0423 4294966649
73.34024 1958.9425 -647.18335 4294966649
75.288353 1957.8231 -647.86108 4294966649
77.587578 1958.9539 -647.46478 4294966649
79.293991 1958.8447 -647.47223 4294966649
81.957451 1958.7056 -647.53729 4294966649
83.38826 1958.9304 -647.48236 4294966649
85.421715 1958.0569 -647.95422 4294966649
91.081314 1958.795 -647.8526 4294966649
93.371849 1958.7865 -647.79749 4294966649
98.936646 1958.958 -647.21826 4294966649
103.48037 1958.7241 -647.36713 4294966649
106.13188 1958.4902 -647.06903 4294966649
107.769 1958.3378 -647.26666 4294966649
109.73167 1958.1924 -647.41455 4294966649
111.61483 1958.0858 -647.5097 4294966649
113.47134 1957.8861 -647.81708 4294966649
114.90995 1957.7631 -647.94434 4294966649
119.90325 1957.6178 -647.8327 4294966649
129.3222 1956.9141 -647.97974 4294966649
133.89818 1956.5846 -647.9715 4294966649
135.16995 1956.6284 -647.80176 4294966649
89.361137 1959.2086 -647.67218 4294966649
97.529549 1959.2374 -647.12518 4294966649
269.40363 1919.9105 -646.05835 4294966650
283.20474 1919.024 -646.02319 4294966650
285.55344 1918.9052 -646.11206 4294966650
289.12936 1918.5011 -646.0387 4294966650
293.36691 1918.1798 -646.2005 4294966650
295.07275 1918.0253 -646.3299 4294966650
239.16805 1921.9446 -646.03394 4294966650
179.65976 1925.9509 -646.03046 4294966650
181.33833 1925.8446 -646.10419 4294966650
139.39352 1928.9705 -646.18958 4294966650
141.25035 1928.8469 -646.29724 4294966650
143.63174 1928.6621 -646.10968 4294966650
147.43726 1928.3107 -646.13208 4294966650
149.34171 1928.2552 -646.034 4294966650
153.31133 1928.1207 -646.08264 4294966650
155.46289 1928.1298 -646.00006 4294966650
157.44063 1927.9854 -646.11359 4294966650
159.45139 1927.8226 -646.06409 4294966650
161.44603 1927.6304 -646.12659 4294966650
163.09763 1927.4513 -646.17999 4294966650
165.26825 1927.1119 -646.16315 4294966650
167.39264 1926.8772 -646.61743 4294966650
169.16893 1926.4767 -646.16809 4294966650
171.48741 1926.3047 -646.03271 4294966650
175.20589 1926.1245 -646.02325 4294966650
177.25658 1926.0704 -646.12384 4294966650
114.77007 1931.032 -646.08051 4294966650
86.014313 1934.9937 -646.64618 4294966650
71.358948 1937.6027 -646.00751 4294966650
73.607346 1937.3107 -646.22888 4294966650
75.395493 1937.0559 -646.40326 4294966650
77.064835 1936.4949 -646.44739 4294966650
79.433228 1936.5598 -646.83667 4294966650
67.269058 1939.769 -646.05292 4294966650
69.254845 1939.348 -646.42926 4294966650
71.564178 1939.7059 -646.56494 4294966650
73.0168 1939.4297 -646.73474 4294966650
66.961937 1941.7625 -646.25098 4294966650
69.358665 1942.137 -646.40863 4294966650
71.577675 1942.2913 -646.62396 4294966650
73.671928 1942.3103 -646.8985 4294966650
65.117226 1955.8252 -646.14276 4294966650
65.097443 1957.6747 -646.32233 4294966650
69.708664 1958.8468 -646.69922 4294966650
113.33396 1958.5851 -646.14423 4294966650
117.26132 1958.4591 -646.10651 4294966650
119.08691 1958.2963 -646.59088 4294966650
124.99921 1957.953 -646.37982 4294966650
87.245338 1959.7509 -646.83136 4294966650
91.354103 1959.9784 -646.07434 4294966650
101.11012 1959.4766 -646.14777 4294966650
105.80631 1959.0752 -646.07025 4294966650
271.43445 1919.7688 -645.98499 4294966651
273.51581 1919.6271 -645.91321 4294966651
275.58179 1919.4954 -645.81445 4294966651
277.28391 1919.3602 -645.89929 4294966651
281.21109 1919.074 -645.80731 4294966651
291.44754 1918.4492 -645.9809 4294966651
221.09799 1922.7532 -645.97388 4294966651
224.95039 1921.9485 -645.64978 4294966651
229.25447 1921.335 -645.49188 4294966651
231.73508 1921.4561 -645.29236 4294966651
237.40889 1921.98 -645.91083 4294966651
241.72523 1921.769 -645.77246 4294966651
243.14352 1921.6503 -645.92834 4294966651
245.51111 1921.5171 -645.88989 4294966651
247.41605 1921.35 -645.8208 4294966651
251.59462 1921.1051 -645.91986 4294966651
253.2505 1920.9205 -645.8432 4294966651
255.38911 1920.9191 -645.87463 4294966651
259.4245 1920.7449 -645.88562 4294966651
261.43396 1920.5977 -645.966 4294966651
265.62592 1920.1842 -645.91437 4294966651
185.48663 1925.6539 -645.87512 4294966651
189.51813 1925.2792 -645.93396 4294966651
193.50174 1925.0349 -645.94513 4294966651
195.31985 1924.8967 -645.98676 4294966651
197.30176 1924.8914 -645.69177 4294966651
199.40178 1924.741 -645.85638 4294966651
201.23552 1924.5049 -645.90497 4294966651
203.75818 1924.3264 -645.73157 4294966651
207.4933 1923.9751 -645.74298 4294966651
209.45979 1923.8098 -645.83771 4294966651
211.5602 1923.6521 -645.72668 4294966651
213.35358 1923.557 -645.91718 4294966651
218.97797 1923.1045 -645.8681 4294966651
135.42972 1928.9493 -645.65546 4294966651
109.52186 1931.5256 -645.97742 4294966651
117.40656 1931.0854 -645.93585 4294966651
123.15781 1930.6168 -645.67828 4294966651
129.51225 1929.6321 -645.9726 4294966651
131.33508 1929.3372 -645.65466 4294966651
83.787323 1934.767 -645.83813 4294966651
85.493294 1934.1938 -645.23468 4294966651
87.433945 1934.031 -645.35217 4294966651
89.357574 1933.8643 -645.68842 4294966651
91.381088 1933.7423 -645.66858 4294966651
93.750061 1933.6027 -645.70313 4294966651
95.059731 1933.5168 -645.81415 4294966651
97.037521 1933.2911 -645.7627 4294966651
99.575386 1932.9933 -645.7901 4294966651
105.35773 1932.1644 -645.95978 4294966651
69.232079 1937.8536 -645.78229 4294966651
71.205643 1936.4108 -645.20679 4294966651
73.353569 1935.6993 -645.0271 4294966651
77.119576 1935.2605 -645.34814 4294966651
79.565002 1935.2383 -645.94531 4294966651
81.262077 1935.2434 -645.99884 4294966651
61.290577 1939.8176 -645.12219 4294966651
63.156307 1938.3962 -645.05322 4294966651
65.209305 1939.0715 -645.60693 4294966651
61.182659 1942.0415 -645.21747 4294966651
63.324261 1941.8097 -645.80322 4294966651
295.49948 1946.9281 -645.76715 4294966651
263.49039 1949.7291 -645.24847 4294966651
265.29263 1949.2548 -645.47345 4294966651
267.67664 1948.7231 -645.23444 4294966651
269.30505 1948.5544 -645.3175 4294966651
271.5224 1948.4406 -645.10608 4294966651
273.36743 1948.453 -645.64972 4294966651
275.34769 1948.4059 -645.54132 4294966651
277.55185 1948.3302 -645.81317 4294966651
279.45999 1948.1865 -645.27637 4294966651
281.30457 1948.0707 -645.37494 4294966651
283.60269 1947.9395 -645.67725 4294966651
65.506668 1952.8087 -645.77362 4294966651
195.50861 1952.9346 -645.18463 4294966651
197.5045 1952.8566 -645.21118 4294966651
201.34052 1952.684 -645.17163 4294966651
203.54291 1952.5862 -645.10474 4294966651
207.44409 1952.3506 -645.2597 4294966651
209.44107 1952.2456 -645.10162 4294966651
211.5594 1952.1432 -645.18414 4294966651
213.45473 1952.0701 -645.08759 4294966651
221.47639 1951.5636 -645.00421 4294966651
223.42346 1951.4304 -645.03119 4294966651
225.50121 1951.2729 -645.06396 4294966651
227.34009 1951.1163 -645.06897 4294966651
229.54384 1950.9091 -645.16071 4294966651
231.73357 1950.7039 -645.16388 4294966651
235.41882 1950.531 -645.35486 4294966651
237.42621 1950.674 -645.51617 4294966651
239.44661 1950.9821 -645.58167 4294966651
241.83612 1951.4281 -645.21088 4294966651
249.50696 1950.7048 -645.28552 4294966651
253.47794 1950.6628 -645.07501 4294966651
255.60326 1950.835 -645.13489 4294966651
257.42001 1950.9205 -645.08838 4294966651
151.67426 1955.902 -645.69324 4294966651
153.32706 1955.774 -645.66156 4294966651
165.58141 1954.7286 -645.24554 4294966651
169.41423 1954.4984 -645.21942 4294966651
171.70284 1954.3438 -645.08319 4294966651
175.38608 1954.1171 -645.23712 4294966651
177.37347 1954.0116 -645.02704 4294966651
181.48111 1953.7601 -645.13788 4294966651
191.11292 1953.1537 -645.1485 4294966651
107.44926 1958.906 -645.87695 4294966651
110.19609 1958.6854 -645.85345 4294966651
111.6692 1958.5724 -645.9491 4294966651
121.4738 1958.4069 -645.97522 4294966651
123.8215 1958.2336 -645.68805 4294966651
127.29288 1957.8104 -645.71356 4294966651
129.30621 1957.5342 -645.90295 4294966651
131.14172 1957.3264 -645.89044 4294966651
134.06241 1957.0894 -645.44037 4294966651
137.27989 1956.8861 -645.94757 4294966651
139.27602 1956.7686 -645.61395 4294966651
141.54103 1956.6298 -645.87115 4294966651
149.48042 1956.0636 -645.66589 4294966651
76.877861 1960.8079 -645.68567 4294966651
87.350563 1960.4218 -645.83099 4294966651
89.496017 1960.2167 -645.84924 4294966651
94.017128 1960.1064 -645.3053 4294966651
95.634789 1960.0001 -645.76251 4294966651
103.16596 1959.4575 -645.8031 4294966651
107.26955 1931.8998 -644.69269 4294966652
111.09449 1931.4908 -644.86896 4294966652
115.29061 1931.1327 -644.49011 4294966652
119.20984 1930.7587 -644.06873 4294966652
121.06555 1930.623 -644.00635 4294966652
125.09918 1930.1477 -644.13794 4294966652
128.3558 1929.6803 -644.56873 4294966652
131.69583 1929.2797 -644.06531 4294966652
76.968643 1934.4875 -644.1701 4294966652
89.288979 1933.4685 -644.05865 4294966652
91.194466 1933.3223 -644.16296 4294966652
93.725586 1933.2515 -644.10187 4294966652
94.885582 1933.0439 -644.16858 4294966652
99.368713 1932.7334 -644.21942 4294966652
100.92064 1932.687 -644.65741 4294966652
103.7728 1932.325 -644.8775 4294966652
105.42471 1932.1438 -644.75482 4294966652
63.386967 1937.1604 -644.43359 4294966652
65.707809 1937.0052 -644.7121 4294966652
67.708153 1936.9302 -644.98572 4294966652
69.284859 1936.6187 -644.9967 4294966652
74.52317 1935.1309 -644.31946 4294966652
56.997173 1939.6639 -644.01636 4294966652
59.477066 1939.8077 -644.8714 4294966652
61.273056 1938.5747 -644.71631 4294966652
57.156464 1941.8339 -644.34814 4294966652
59.350056 1942.0177 -644.92224 4294966652
57.750286 1944.7419 -644.18573 4294966652
59.267593 1944.6699 -644.54529 4294966652
60.979317 1950.9528 -644.62354 4294966652
199.73759 1952.7531 -644.88385 4294966652
261.74152 1950.2957 -644.96497 4294966652
163.70381 1954.8853 -644.87708 4294966652
167.35149 1954.6377 -644.9267 4294966652
193.53516 1953.0116 -644.99884 4294966652
116.95981 1958.7184 -644.04999 4294966652
73.748016 1960.1045 -644.03845 4294966652
74.697014 1961.6478 -644.27032 4294966652
85.330734 1960.8503 -644.59241 4294966652
89.396271 1960.7474 -644.42755 4294966652
98.946457 1960.1613 -644.28455 4294966652
275.48404 1919.6919 -643.25922 4294966653
277.21994 1919.5427 -643.2807 4294966653
279.37427 1919.3823 -643.29553 4294966653
281.57251 1919.234 -643.32806 4294966653
283.42017 1919.1003 -643.37701 4294966653
287.28714 1918.8 -643.46088 4294966653
289.31635 1918.6775 -643.32526 4294966653
291.32788 1918.5332 -643.17871 4294966653
293.45343 1918.3115 -643.38208 4294966653
295.50583 1918.0961 -643.53552 4294966653
225.23389 1922.1941 -643.40527 4294966653
229.62247 1921.7255 -643.01172 4294966653
245.35208 1921.6517 -643.21063 4294966653
247.27005 1921.4861 -643.31488 4294966653
249.44882 1921.3781 -643.008 4294966653
255.44331 1921.1135 -643.02167 4294966653
257.54175 1921.0155 -643.00635 4294966653
261.47708 1920.709 -643.18402 4294966653
263.23773 1920.6488 -643.23267 4294966653
265.39163 1920.4888 -643.32117 4294966653
267.47519 1920.3541 -643.16949 4294966653
271.24808 1920.0215 -643.36938 4294966653
185.42601 1925.8044 -643.34082 4294966653
193.38155 1925.2813 -643.36365 4294966653
195.18529 1925.1515 -643.30713 4294966653
199.65939 1924.842 -643.29364 4294966653
203.56931 1924.5948 -643.05481 4294966653
207.50702 1924.1816 -643.07922 4294966653
209.29341 1923.9966 -643.13947 4294966653
215.2905 1923.5565 -643.38824 4294966653
217.34106 1923.4437 -643.43146 4294966653
141.22217 1928.7993 -643.74921 4294966653
143.49677 1928.6298 -643.63763 4294966653
147.64879 1928.3785 -643.02271 4294966653
149.39464 1928.3158 -643.51825 4294966653
151.34554 1928.3066 -643.31329 4294966653
153.37411 1928.2744 -643.18439 4294966653
155.3521 1928.1666 -643.26514 4294966653
157.61981 1928.0288 -643.29309 4294966653
159.51602 1927.8979 -643.26434 4294966653
161.17253 1927.6958 -643.65369 4294966653
163.23372 1927.4865 -643.51459 4294966653
165.35838 1927.2325 -643.61658 4294966653
167.4005 1926.991 -643.51166 4294966653
169.08368 1926.7858 -643.58685 4294966653
171.37209 1926.5975 -643.61273 4294966653
173.42123 1926.5594 -643.2345 4294966653
175.33533 1926.4952 -643.23383 4294966653
177.32899 1926.4103 -643.28052 4294966653
179.5475 1926.2939 -643.29504 4294966653
181.42343 1926.1359 -643.31915 4294966653
117.01484 1931.0325 -643.97113 4294966653
133.41245 1929.124 -643.94983 4294966653
137.2619 1929.063 -643.30042 4294966653
80.911316 1934.0997 -643.83478 4294966653
83.403969 1933.9027 -643.92395 4294966653
59.524738 1937.1111 -643.33905 4294966653
61.182343 1936.9221 -643.60974 4294966653
64.220779 1936.0139 -643.09851 4294966653
67.413315 1935.7557 -643.51904 4294966653
69.347527 1935.5375 -643.44116 4294966653
73.165329 1935.137 -643.82617 4294966653
53.280941 1939.3158 -643.09766 4294966653
57.511917 1938.3409 -643.60315 4294966653
55.329235 1941.6001 -643.89124 4294966653
53.656982 1944.0894 -643.19855 4294966653
57.327641 1946.7964 -643.90948 4294966653
265.26321 1949.381 -643.10376 4294966653
281.4975 1947.9147 -643.0285 4294966653
205.28117 1952.5165 -643.10895 4294966653
209.26852 1952.2562 -643.00623 4294966653
223.17975 1951.3726 -643.04913 4294966653
233.79686 1950.6337 -643.00842 4294966653
237.34016 1950.8475 -643.1781 4294966653
239.50499 1951.2662 -643.02161 4294966653
263.32108 1950.1382 -643.04913 4294966653
153.07034 1955.7422 -643.13385 4294966653
167.07179 1954.7048 -643.02759 4294966653
189.21983 1953.2997 -643.20123 4294966653
193.4715 1953.006 -643.06274 4294966653
111.83437 1958.9061 -643.28174 4294966653
113.3776 1958.7712 -643.49988 4294966653
115.01819 1958.657 -643.09448 4294966653
123.16042 1958.8051 -643.26208 4294966653
125.49876 1958.469 -643.37689 4294966653
133.67528 1957.1165 -643.005 4294966653
135.60941 1956.9634 -643.34503 4294966653
139.26375 1956.692 -643.12671 4294966653
143.24652 1956.3458 -643.0105 4294966653
147.52185 1956.119 -643.05804 4294966653
80.230957 1961.2526 -643.76569 4294966653
83.300316 1961.0856 -643.8075 4294966653
88.069214 1960.7244 -643.73401 4294966653
91.364853 1960.6798 -643.49084 4294966653
103.22968 1959.7976 -643.89246 4294966653
107.40957 1959.3265 -643.44287 4294966653
109.64581 1959.1028 -643.349 4294966653
241.34256 1922.0234 -642.96082 4294966654
251.45795 1921.2813 -642.98358 4294966654
205.39214 1924.4303 -642.96802 4294966654
135.73871 1929.3213 -642.04572 4294966654
72.787643 1934.8608 -642.37128 4294966654
75.571381 1934.5173 -642.24231 4294966654
76.992485 1934.4899 -642.61676 4294966654
85.25119 1933.5481 -642.02283 4294966654
89.199638 1933.239 -642.03748 4294966654
55.351788 1937.5587 -642.41583 4294966654
63.745411 1935.725 -642.34949 4294966654
64.864098 1935.4749 -642.0285 4294966654
67.540138 1935.2627 -642.05353 4294966654
267.60028 1948.6677 -642.93488 4294966654
269.52252 1948.327 -642.7948 4294966654
273.52496 1948.1316 -642.987 4294966654
275.42426 1948.0615 -642.71277 4294966654
277.26205 1948.0369 -642.88293 4294966654
279.39093 1947.9788 -642.88715 4294966654
211.62283 1952.1379 -642.99292 4294966654
225.59476 1951.1752 -642.87677 4294966654
229.61275 1950.8547 -642.97552 4294966654
255.93777 1951.4987 -642.84418 4294966654
259.67728 1951.3582 -642.91974 4294966654
261.57928 1950.8163 -642.90381 4294966654
179.4921 1954.0085 -642.89819 4294966654
129.55656 1957.7643 -642.98517 4294966654
131.5148 1957.3594 -642.84119 4294966654
137.43552 1956.8373 -642.99097 4294966654
293.05771 1918.5787 -641.10461 4294966655
247.36229 1921.7935 -641.04089 4294966655
191.46342 1925.7611 -641.01508 4294966655
195.46686 1925.4626 -641.00397 4294966655
197.27733 1925.2686 -641.24841 4294966655
221.54692 1923.5027 -641.08917 4294966655
143.33832 1928.9089 -641.12946 4294966655
111.15795 1931.7161 -641.67719 4294966655
113.25848 1931.5452 -641.6452 4294966655
115.34653 1931.5256 -641.3335 4294966655
117.2327 1931.4187 -641.48004 4294966655
139.65773 1929.1228 -641.53687 4294966655
141.46652 1929.0361 -641.26422 4294966655
81.067719 1933.9072 -641.98389 4294966655
83.329269 1933.7382 -641.94489 4294966655
87.296112 1933.4103 -641.88715 4294966655
91.309898 1933.1736 -641.87091 4294966655
93.870338 1933.1572 -641.62915 4294966655
96.92337 1932.9364 -641.85455 4294966655
99.604126 1932.8136 -641.41211 4294966655
103.81978 1932.407 -641.72046 4294966655
105.32718 1932.2446 -641.82593 4294966655
107.37498 1932.0896 -641.63916 4294966655
52.140076 1937.8024 -641.6748 4294966655
56.982533 1936.4596 -641.50739 4294966655
59.154198 1936.1426 -641.73749 4294966655
69.559669 1935.0995 -641.9809 4294966655
265.25226 1949.3998 -641.01361 4294966655
221.47226 1951.3828 -641.01434 4294966655
109.56211 1958.9525 -641.0603 4294966655
82.902847 1961.2175 -641.16388 4294966655
87.272545 1960.8633 -641.63989 4294966655
89.368874 1960.7271 -641.63934 4294966655
91.628647 1960.4783 -641.19025 4294966655
101.64636 1959.6526 -641.10492 4294966655
103.09654 1959.5604 -641.14764 4294966655
107.24751 1959.1599 -641.20685 4294966655
277.35654 1919.7861 -640.89355 4294966656
279.39966 1919.6371 -640.90906 4294966656
281.37448 1919.4844 -640.8891 4294966656
285.36096 1919.2526 -640.77588 4294966656
289.52634 1918.9189 -640.83032 4294966656
295.90479 1918.4421 -640.78198 4294966656
227.37051 1922.6173 -640.88849 4294966656
229.4227 1922.4525 -640.84442 4294966656
243.57822 1922.0935 -640.89777 4294966656
249.49261 1921.6436 -640.96387 4294966656
253.50766 1921.4487 -640.92944 4294966656
255.57101 1921.3613 -640.8963 4294966656
259.51508 1921.1716 -640.901 4294966656
261.30847 1921.1376 -640.77124 4294966656
265.23346 1920.818 -640.92554 4294966656
267.5293 1920.6268 -640.87329 4294966656
269.51913 1920.447 -640.92139 4294966656
273.57489 1920.1105 -640.92242 4294966656
193.46335 1925.5968 -640.97949 4294966656
201.4493 1925.0752 -640.90961 4294966656
203.50169 1924.9047 -640.99786 4294966656
207.3577 1924.5869 -640.80621 4294966656
145.27155 1928.7378 -640.81042 4294966656
149.45677 1928.6183 -640.63898 4294966656
153.3244 1928.469 -640.8302 4294966656
155.20197 1928.3806 -640.7428 4294966656
157.74643 1928.203 -640.99683 4294966656
161.1839 1927.9795 -640.95074 4294966656
163.28427 1927.7642 -640.99493 4294966656
165.54256 1927.5542 -640.78149 4294966656
167.30281 1927.444 -640.70673 4294966656
169.3436 1927.3284 -640.6087 4294966656
171.61032 1927.1104 -640.88507 4294966656
173.42194 1927.0452 -640.63306 4294966656
177.50816 1926.8138 -640.81061 4294966656
181.37544 1926.4554 -640.81744 4294966656
183.61331 1926.2526 -640.81952 4294966656
55.295738 1936.3125 -640.0564 4294966656
61.090546 1935.6077 -640.22864 4294966656
64.846863 1935.0454 -640.12402 4294966656
46.418762 1940.8392 -640.77936 4294966656
267.75214 1948.443 -640.83588 4294966656
269.45218 1948.0692 -640.64703 4294966656
273.29318 1947.8578 -640.8913 4294966656
279.39896 1947.7709 -640.68683 4294966656
281.26196 1947.7644 -640.87384 4294966656
283.47806 1947.7195 -640.86652 4294966656
197.33128 1952.7976 -640.90796 4294966656
203.47337 1952.5795 -640.8092 4294966656
207.36197 1952.275 -640.82391 4294966656
209.36351 1952.2512 -640.73242 4294966656
223.46703 1951.2234 -640.86279 4294966656
227.21091 1951.0179 -640.87238 4294966656
229.42004 1950.8827 -640.98572 4294966656
231.4469 1950.7543 -640.87927 4294966656
235.3714 1950.729 -640.7052 4294966656
263.37579 1950.3018 -640.79309 4294966656
148.02505 1955.8984 -640.47552 4294966656
163.77521 1954.8104 -640.49274 4294966656
111.70474 1958.7578 -640.91986 4294966656
127.53314 1958.434 -640.99445 4294966656
129.65685 1957.9464 -640.90588 4294966656
133.54539 1957.2126 -640.89972 4294966656
137.22736 1956.871 -640.9837 4294966656
141.23224 1956.4309 -640.8985 4294966656
78.327469 1961.7485 -640.78198 4294966656
85.978088 1960.8225 -640.36646 4294966656
105.33949 1959.2975 -640.71948 4294966656
151.52126 1928.777 -639.26447 4294966657
169.65834 1927.6279 -639.12701 4294966657
171.81805 1927.4894 -639.29065 4294966657
67.76136 1934.9685 -639.91058 4294966657
69.536324 1934.9205 -639.67328 4294966657
70.992973 1934.8214 -639.83636 4294966657
73.181137 1934.7354 -639.8382 4294966657
74.460686 1934.7203 -639.54517 4294966657
77.168282 1934.5736 -639.4682 4294966657
81.06118 1934.3425 -639.15692 4294966657
83.501289 1934.2723 -639.07611 4294966657
85.331818 1934.1912 -639.0899 4294966657
50.931183 1937.0447 -639.68304 4294966657
63.232906 1935.2018 -639.86987 4294966657
47.022469 1938.3951 -639.57227 4294966657
77.449173 1961.7537 -639.24286 4294966657
84.905563 1960.8103 -639.18066 4294966657
87.494568 1960.7678 -639.08893 4294966657
89.390968 1960.5288 -639.03625 4294966657
91.228149 1960.214 -639.51355 4294966657
105.26398 1959.1713 -639.06573 4294966657
106.91649 1959.037 -639.11273 4294966657
279.43814 1919.9141 -638.75909 4294966658
283.82733 1919.5958 -638.83679 4294966658
285.19855 1919.521 -638.72211 4294966658
287.47092 1919.3499 -638.6911 4294966658
289.46805 1919.1958 -638.70837 4294966658
291.51926 1919.1184 -638.75812 4294966658
293.62439 1919.0214 -638.50482 4294966658
237.2003 1922.99 -638.86462 4294966658
239.53525 1922.8762 -638.58167 4294966658
241.55376 1922.6938 -638.57898 4294966658
243.62206 1922.6321 -638.66443 4294966658
245.19528 1922.3545 -638.72906 4294966658
247.468 1922.1779 -638.73547 4294966658
251.50516 1921.9185 -638.76459 4294966658
253.36362 1921.8331 -638.79419 4294966658
257.43259 1921.6785 -638.46051 4294966658
261.28662 1921.4362 -638.54364 4294966658
263.52527 1921.3107 -638.56287 4294966658
265.54208 1921.2524 -638.20941 4294966658
267.60947 1920.9713 -638.80304 4294966658
269.30606 1920.9113 -638.31317 4294966658
195.39461 1925.944 -638.67664 4294966658
197.55948 1925.7742 -638.78876 4294966658
199.80133 1925.6696 -638.62762 4294966658
203.45929 1925.3831 -638.75146 4294966658
205.32127 1925.1997 -638.79163 4294966658
209.47542 1924.8536 -638.59064 4294966658
215.40422 1924.4143 -638.74438 4294966658
229.46808 1923.2114 -638.77899 4294966658
159.34184 1928.5261 -638.81799 4294966658
165.85889 1927.9456 -638.99084 4294966658
173.45058 1927.4806 -638.96796 4294966658
175.38541 1927.4482 -638.67883 4294966658
179.72197 1927.1724 -638.63995 4294966658
187.26955 1926.5962 -638.63708 4294966658
189.25581 1926.4053 -638.53027 4294966658
191.45872 1926.2444 -638.67419 4294966658
193.54297 1926.1802 -638.62091 4294966658
119.48632 1931.8884 -638.71234 4294966658
133.35561 1930.3546 -638.67548 4294966658
137.99597 1929.9893 -638.47156 4294966658
139.80632 1929.7753 -638.6427 4294966658
143.11371 1929.4135 -638.52203 4294966658
87.474266 1933.9869 -638.94635 4294966658
89.457382 1933.8478 -638.96637 4294966658
95.18232 1933.5571 -638.91943 4294966658
99.52877 1933.1692 -638.84003 4294966658
103.75871 1932.8417 -638.9472 4294966658
105.32515 1932.7395 -638.97491 4294966658
107.6209 1932.5555 -638.8667 4294966658
109.45461 1932.4153 -638.88538 4294966658
111.18658 1932.2957 -638.93494 4294966658
115.18023 1932.0863 -638.8291 4294966658
50.687954 1936.4799 -638.13763 4294966658
56.524563 1935.8232 -638.677 4294966658
265.43356 1949.1633 -638.69373 4294966658
267.65631 1948.1902 -638.51892 4294966658
269.37997 1947.76 -638.09503 4294966658
283.52606 1947.3739 -638.09949 4294966658
195.59212 1952.8967 -638.62292 4294966658
199.52199 1952.7849 -638.66223 4294966658
225.49854 1951.1631 -638.65594 4294966658
247.07225 1951.2698 -638.08929 4294966658
259.4299 1951.9143 -638.93567 4294966658
262.80826 1950.444 -638.19098 4294966658
145.29274 1955.9175 -638.76587 4294966658
149.16716 1955.6747 -638.63971 4294966658
153.66257 1955.3462 -638.65674 4294966658
109.02262 1958.8248 -638.88812 4294966658
111.52979 1958.5597 -638.63434 4294966658
113.68166 1958.3817 -638.72559 4294966658
115.42374 1958.3644 -638.50623 4294966658
131.06999 1957.8191 -638.62451 4294966658
133.6355 1957.3599 -638.87177 4294966658
135.22571 1957.1934 -638.89215 4294966658
137.41081 1956.9357 -638.75519 4294966658
139.51176 1956.7288 -638.65253 4294966658
141.31073 1956.4453 -638.42108 4294966658
143.58351 1956.1068 -638.72174 4294966658
103.07373 1959.2391 -638.5473 4294966658
46.481918 1937.4185 -637.75751 4294966659
59.472141 1935.6412 -637.82947 4294966659
61.412292 1935.6658 -637.35431 4294966659
64.781311 1935.489 -637.25769 4294966659
281.27225 1947.4091 -637.92487 4294966659
193.58524 1952.9854 -637.9975 4294966659
217.5042 1951.4149 -637.69781 4294966659
231.49339 1950.786 -637.67902 4294966659
82.673409 1960.9132 -637.27673 4294966659
92.981575 1959.9326 -637.33301 4294966659
285.48569 1919.9564 -636.1734 4294966660
287.5925 1919.7877 -636.18518 4294966660
290.9657 1919.5975 -636.28723 4294966660
253.55988 1922.4124 -636.0141 4294966660
279.62268 1920.402 -636.12012 4294966660
281.34512 1920.3052 -636.0697 4294966660
205.24435 1925.7977 -636.10577 4294966660
221.55647 1924.8488 -636.08411 4294966660
175.33699 1928.0247 -636.06934 4294966660
179.56734 1927.5327 -636.19403 4294966660
197.55283 1926.4126 -636.27942 4294966660
199.70901 1926.3171 -636.10345 4294966660
135.38315 1930.5989 -636.63177 4294966660
137.67201 1930.3181 -636.91559 4294966660
139.51048 1930.3241 -636.04816 4294966660
141.45074 1930.1497 -636.09607 4294966660
145.40707 1929.7739 -636.12378 4294966660
147.79497 1929.6106 -636.04761 4294966660
77.523544 1934.9114 -636.78955 4294966660
79.50531 1934.8562 -636.95313 4294966660
81.110573 1934.7565 -636.69458 4294966660
83.600975 1934.6368 -636.5871 4294966660
85.405472 1934.499 -636.73584 4294966660
89.395195 1934.2607 -636.68719 4294966660
93.704224 1934.0042 -636.60138 4294966660
97.401031 1933.7129 -636.66644 4294966660
101.6954 1933.3875 -636.0874 4294966660
103.6497 1933.1466 -636.82684 4294966660
105.45113 1933.053 -636.6358 4294966660
107.32555 1932.9775 -636.62091 4294966660
111.59519 1932.6898 -636.40515 4294966660
117.4284 1932.3315 -636.49786 4294966660
46.722221 1936.8291 -636.00403 4294966660
49.434216 1936.4595 -636.12573 4294966660
67.799515 1935.4622 -636.93909 4294966660
70.91893 1935.3251 -636.89478 4294966660
72.875832 1935.23 -636.96069 4294966660
74.872162 1935.1366 -636.8952 4294966660
265.30368 1949.1198 -636.34814 4294966660
267.45163 1948.3629 -636.04535 4294966660
201.40344 1952.8386 -636.30731 4294966660
219.93387 1951.3167 -636.51917 4294966660
223.45796 1951.2177 -636.14392 4294966660
261.22775 1951.0958 -636.56458 4294966660
106.20474 1958.7074 -636.23566 4294966660
111.35384 1958.3143 -636.29938 4294966660
87.193642 1960.4106 -636.70343 4294966660
101.96848 1959.0415 -636.01459 4294966660
293.30457 1919.3711 -635.77209 4294966661
249.5341 1922.7224 -635.79254 4294966661
251.50284 1922.566 -635.88043 4294966661
255.51866 1922.3193 -635.95587 4294966661
257.43063 1922.0709 -635.92377 4294966661
261.46002 1922.0874 -635.67499 4294966661
263.70184 1921.9733 -635.7077 4294966661
267.56796 1921.7007 -635.63324 4294966661
269.48837 1921.5476 -635.53778 4294966661
271.48849 1921.3124 -635.6615 4294966661
283.57733 1920.2485 -635.8949 4294966661
207.55988 1925.9723 -635.66418 4294966661
209.67871 1925.792 -635.65143 4294966661
211.42879 1925.4929 -635.08038 4294966661
215.55685 1925.45 -635.13391 4294966661
217.59146 1925.2697 -635.58545 4294966661
219.55394 1925.0558 -635.89825 4294966661
227.49899 1924.5281 -635.62878 4294966661
231.57919 1924.2157 -635.76904 4294966661
233.4308 1924.1656 -635.59937 4294966661
237.4306 1923.9216 -635.54803 4294966661
243.55479 1923.1786 -635.11053 4294966661
245.12498 1923.1665 -635.69452 4294966661
159.42982 1928.9324 -635.93762 4294966661
163.5489 1928.688 -635.88116 4294966661
167.40971 1928.4742 -635.68884 4294966661
169.60266 1928.2782 -635.85907 4294966661
173.73752 1928.0988 -635.99951 4294966661
177.63173 1927.9758 -635.90631 4294966661
181.46329 1927.4155 -635.90997 4294966661
185.76712 1927.176 -635.9248 4294966661
187.32983 1927.3651 -635.12585 4294966661
189.34702 1927.1644 -635.75598 4294966661
191.5443 1926.9949 -635.9881 4294966661
195.44946 1926.6759 -635.90106 4294966661
201.30879 1926.2847 -635.88214 4294966661
203.46318 1926.2048 -635.73846 4294966661
149.53308 1929.7374 -635.20697 4294966661
151.60991 1929.5494 -635.60803 4294966661
153.47104 1929.5083 -635.20752 4294966661
155.27458 1929.3403 -635.20264 4294966661
157.69095 1929.0356 -635.88397 4294966661
61.371555 1935.944 -635.14276 4294966661
62.816303 1935.7981 -635.86182 4294966661
263.89786 1949.8824 -635.75983 4294966661
279.4278 1947.6478 -635.5376 4294966661
227.41095 1951.3005 -635.71667 4294966661
248.47586 1950.9224 -635.86249 4294966661
259.26639 1951.8557 -635.6524 4294966661
262.97818 1950.3214 -635.27502 4294966661
143.70674 1955.9861 -635.52789 4294966661
144.98495 1955.7885 -635.74951 4294966661
147.608 1955.7069 -635.00433 4294966661
153.76237 1955.198 -635.77563 4294966661
155.49542 1955.0928 -635.83148 4294966661
157.70676 1954.9044 -635.46844 4294966661
161.28796 1954.9291 -635.89319 4294966661
163.47617 1954.8058 -635.61426 4294966661
165.62547 1955.0188 -635.52045 4294966661
195.51834 1953.144 -635.86206 4294966661
197.1571 1953.15 -635.77655 4294966661
199.59625 1953.0685 -635.88446 4294966661
109.16367 1958.4229 -635.76508 4294966661
113.65847 1958.1165 -635.59235 4294966661
116.94638 1958.0858 -635.12195 4294966661
127.66978 1958.9564 -635.67352 4294966661
129.66376 1958.2656 -635.81555 4294966661
131.23839 1957.8907 -635.66339 4294966661
133.46292 1957.543 -635.69464 4294966661
91.474686 1959.9752 -635.51416 4294966661
213.54231 1925.6195 -634.88849 4294966662
239.62053 1923.7706 -634.91339 4294966662
241.60617 1923.3792 -634.8584 4294966662
199.72246 1926.4023 -634.06445 4294966662
83.383331 1934.8301 -634.33026 4294966662
85.398346 1934.718 -634.06403 4294966662
87.562904 1934.6235 -634.16559 4294966662
91.338898 1934.4417 -634.01807 4294966662
107.40205 1933.1655 -634.07275 4294966662
109.36269 1933.0457 -634.01038 4294966662
111.80423 1932.8618 -634.08783 4294966662
113.43685 1932.7202 -634.40875 4294966662
46.539291 1936.7584 -634.03333 4294966662
56.38266 1936.2192 -634.63678 4294966662
65.19709 1935.8733 -634.76221 4294966662
67.338692 1935.748 -634.9726 4294966662
69.841499 1935.6992 -634.75189 4294966662
72.717972 1935.4987 -634.63898 4294966662
77.51149 1935.2948 -634.3811 4294966662
79.49662 1935.1632 -634.15735 4294966662
265.42453 1949.218 -634.63666 4294966662
271.4726 1948.4916 -634.21246 4294966662
273.38547 1948.5824 -634.26135 4294966662
277.52353 1948.5776 -634.10077 4294966662
283.4184 1947.5286 -634.72559 4294966662
287.29053 1947.4084 -634.86444 4294966662
293.19714 1947.3356 -634.03088 4294966662
203.23967 1952.9109 -634.89673 4294966662
205.38776 1952.8134 -634.35559 4294966662
221.3317 1951.8503 -634.16437 4294966662
241.73151 1951.5527 -634.53979 4294966662
243.70782 1951.4644 -634.30878 4294966662
245.33684 1951.2521 -634.646 4294966662
250.65453 1951.3713 -634.57404 4294966662
149.31516 1955.6958 -634.1629 4294966662
159.49228 1955.0939 -634.06879 4294966662
191.49931 1953.2899 -634.87689 4294966662
115.58992 1958.0369 -634.85638 4294966662
85.770309 1960.4133 -634.12036 4294966662
287.17148 1919.901 -633.89929 4294966663
291.23865 1919.6842 -633.60229 4294966663
247.60638 1922.795 -633.71027 4294966663
251.3436 1922.5067 -633.81769 4294966663
255.43861 1922.2158 -633.29047 4294966663
259.56345 1921.9658 -633.95264 4294966663
263.90247 1921.6926 -633.77185 4294966663
211.36966 1925.5214 -633.76978 4294966663
231.39853 1924.2737 -633.92963 4294966663
235.49776 1923.869 -633.80341 4294966663
243.38045 1923.2198 -633.53827 4294966663
173.59947 1928.1262 -633.53571 4294966663
175.33189 1928.2179 -633.5647 4294966663
177.51289 1928.0817 -633.62848 4294966663
179.62175 1927.91 -633.56592 4294966663
189.35475 1927.1471 -633.09747 4294966663
191.60458 1926.964 -633.0437 4294966663
193.45175 1926.8849 -633.68427 4294966663
195.4445 1926.6375 -633.7746 4294966663
203.62718 1926.1392 -633.8551 4294966663
205.25935 1926.1106 -633.88623 4294966663
207.64464 1926.0093 -633.81012 4294966663
125.52605 1931.9624 -633.55151 4294966663
131.61258 1931.3219 -633.31445 4294966663
135.35995 1930.9735 -633.3653 4294966663
149.21149 1929.8536 -633.01398 4294966663
89.681221 1934.5287 -633.89044 4294966663
93.715454 1934.3093 -633.90204 4294966663
97.429054 1933.973 -633.95099 4294966663
101.47076 1933.5713 -633.85858 4294966663
103.79347 1933.4071 -633.78583 4294966663
117.51395 1932.5822 -633.86615 4294966663
119.32363 1932.4641 -633.82007 4294966663
121.82973 1932.0908 -633.7196 4294966663
123.49435 1932.1486 -633.7085 4294966663
59.448139 1936.3304 -633.05249 4294966663
269.36685 1948.8885 -633.48248 4294966663
289.24759 1947.7192 -633.14264 4294966663
293.26437 1947.3793 -633.11176 4294966663
215.56618 1952.3992 -633.42017 4294966663
217.4369 1952.2802 -633.30298 4294966663
219.35661 1952.2401 -633.422 4294966663
247.40051 1950.9736 -633.7948 4294966663
260.02551 1951.1091 -633.46045 4294966663
263.7084 1950.0095 -633.72693 4294966663
153.57941 1955.4838 -633.53619 4294966663
155.52313 1955.4425 -633.54633 4294966663
193.43512 1953.9208 -633.29608 4294966663
195.23929 1953.7355 -633.97156 4294966663
199.37453 1953.7708 -633.6571 4294966663
201.33353 1953.83 -633.04272 4294966663
103.7524 1958.9312 -633.92322 4294966663
106.03186 1958.989 -633.47632 4294966663
107.76037 1958.9399 -633.07538 4294966663
111.07574 1958.6564 -633.60974 4294966663
