# .PCD v0.7 - Point Cloud Data file format
VERSION 0.7
FIELDS x y z rgba
SIZE 4 4 4 4
TYPE F F F U
COUNT 1 1 1 1
WIDTH 561
HEIGHT 1
VIEWPOINT 0 0 0 1 0 0 0
POINTS 561
DATA ascii
531.58936 2312.8137 -615.42322 4294966681
558.39954 2313.3481 -615.23578 4294966681
558.90344 2335.6833 -615.1153 4294966681
530.13428 2299.843 -614.82043 4294966682
530.32452 2302.8081 -614.79669 4294966682
530.36292 2304.8928 -614.72656 4294966682
530.28571 2307.5532 -614.73126 4294966682
531.18481 2310.9639 -614.33826 4294966682
533.35571 2313.8108 -614.82343 4294966682
535.47894 2314.5891 -614.59467 4294966682
536.68481 2314.8604 -614.24249 4294966682
538.79297 2315.1436 -614.44629 4294966682
541.32428 2315.1968 -614.94806 4294966682
551.36102 2313.6853 -614.91724 4294966682
554.91675 2313.052 -614.98328 4294966682
560.19769 2314.6877 -614.94391 4294966682
561.7168 2317.2954 -614.84821 4294966682
561.97998 2320.6299 -614.56146 4294966682
561.72467 2333.6787 -614.89386 4294966682
538.51929 2336.6736 -614.43597 4294966682
542.71844 2335.9663 -614.52313 4294966682
553.91498 2336.1079 -614.96698 4294966682
533.88629 2339.8611 -614.61444 4294966682
534.85486 2338.3862 -614.98956 4294966682
537.22443 2337.1238 -614.54724 4294966682
535.22217 2314.2371 -613.03412 4294966683
547.20569 2314.6355 -613.40234 4294966683
554.21985 2313.3501 -613.04193 4294966683
557.44208 2313.26 -613.25055 4294966683
562.01373 2317.6074 -613.2179 4294966683
558.72083 2336.0078 -613.13348 4294966683
535.91309 2338.415 -613.41492 4294966683
532.00513 2304.9673 -612.80835 4294966684
531.80316 2307.6838 -612.85315 4294966684
532.42639 2310.6348 -612.41095 4294966684
533.05249 2311.9348 -612.47528 4294966684
533.95709 2313.3596 -612.86566 4294966684
536.9364 2314.8254 -612.66803 4294966684
538.71375 2315.2295 -612.85229 4294966684
541.12567 2315.4995 -612.50104 4294966684
542.89246 2315.353 -612.64331 4294966684
558.68048 2313.4927 -612.83307 4294966684
559.81323 2313.959 -612.9538 4294966684
562.16486 2322.6506 -612.40619 4294966684
561.85193 2333.7769 -612.94135 4294966684
539.16461 2336.9512 -612.62024 4294966684
540.59473 2336.5151 -612.45416 4294966684
543.04083 2336.0139 -612.52533 4294966684
553.94714 2336.1194 -612.87622 4294966684
556.51324 2336.3108 -612.91119 4294966684
535.58362 2339.7766 -612.53198 4294966684
537.33765 2337.5115 -612.91937 4294966684
535.75269 2314.219 -611.71558 4294966685
536.78107 2314.4844 -611.36694 4294966685
559.79175 2313.8787 -611.1734 4294966685
558.57635 2335.925 -611.06146 4294966685
533.62726 2304.927 -610.81628 4294966686
533.7525 2308.5737 -610.55121 4294966686
534.14374 2311.9568 -610.99829 4294966686
535.03107 2313.071 -610.82666 4294966686
539.0025 2315.2126 -610.09076 4294966686
540.73785 2315.5378 -610.15137 4294966686
545.44263 2315.2107 -610.42926 4294966686
549.50146 2314.3491 -610.7981 4294966686
554.20624 2313.6062 -610.58978 4294966686
557.95935 2313.4753 -610.98175 4294966686
561.85828 2317.45 -610.9455 4294966686
561.69409 2333.9785 -610.77551 4294966686
540.74023 2336.8364 -610.45428 4294966686
542.46155 2336.3267 -610.58136 4294966686
545.00482 2335.9368 -610.37939 4294966686
549.34564 2335.8997 -610.97198 4294966686
556.41742 2336.3372 -610.88135 4294966686
537.10052 2339.8027 -610.55365 4294966686
539.56897 2337.3135 -610.80646 4294966686
558.68768 2313.4729 -609.33258 4294966687
561.54163 2316.9551 -609.13824 4294966687
535.01385 2304.9292 -608.89795 4294966688
535.06207 2307.075 -608.85254 4294966688
534.99738 2310.0764 -608.82458 4294966688
535.72046 2311.8267 -608.69434 4294966688
540.48871 2315.4233 -608.11322 4294966688
543.01953 2315.5654 -608.125 4294966688
544.7774 2315.4419 -608.72577 4294966688
547.13361 2314.8879 -608.90277 4294966688
558.14642 2313.3777 -608.68103 4294966688
560.31628 2314.2825 -608.79602 4294966688
561.24933 2315.7688 -608.87854 4294966688
561.88977 2320.074 -608.94281 4294966688
562.24963 2326.2515 -608.86133 4294966688
544.40234 2336.1406 -608.51471 4294966688
546.67035 2335.8716 -608.70392 4294966688
549.71838 2335.9265 -608.5542 4294966688
553.97839 2336.1692 -608.91022 4294966688
556.68628 2336.3635 -608.92859 4294966688
560.2981 2335.2522 -608.86823 4294966688
539.08197 2338.3628 -608.87579 4294966688
541.03668 2337.165 -608.71204 4294966688
538.36511 2340.9766 -608.33203 4294966688
537.42273 2313.3516 -607.12811 4294966689
559.89227 2314.197 -607.00116 4294966689
561.60956 2322.9854 -607.13788 4294966689
540.15002 2338.6318 -607.07507 4294966689
536.45526 2305.0508 -606.77435 4294966690
536.57513 2308.6655 -606.49915 4294966690
536.96307 2312.0195 -606.59247 4294966690
539.78925 2314.8875 -606.44647 4294966690
542.66858 2315.6433 -606.19617 4294966690
544.60413 2315.6167 -606.03583 4294966690
547.30109 2314.6763 -606.67078 4294966690
558.57373 2313.7095 -606.85107 4294966690
560.9527 2315.7256 -606.89551 4294966690
561.15887 2316.8013 -606.89081 4294966690
561.59058 2319.634 -606.78381 4294966690
561.49323 2333.874 -606.79639 4294966690
542.68164 2336.8862 -606.51227 4294966690
546.38641 2335.9048 -606.25867 4294966690
549.38525 2335.9314 -606.73145 4294966690
553.78033 2336.1982 -606.77332 4294966690
558.66656 2336.0161 -606.9137 4294966690
539.62305 2341.6541 -606.46753 4294966690
540.11548 2343.8962 -606.52045 4294966690
550.46924 2314.3135 -605.02667 4294966691
561.53357 2324.8757 -605.11096 4294966691
537.71692 2304.9067 -604.90649 4294966692
537.63385 2307.1113 -604.95752 4294966692
537.77087 2310.0515 -604.5451 4294966692
538.35358 2312.1472 -604.65723 4294966692
539.19104 2313.7234 -604.73358 4294966692
541.27112 2315.2551 -604.64667 4294966692
542.638 2315.519 -604.26855 4294966692
544.64606 2315.5249 -604.34845 4294966692
547.32056 2314.907 -604.68976 4294966692
555.23767 2313.5127 -604.7171 4294966692
558.77679 2313.677 -604.92218 4294966692
559.76532 2314.5713 -604.90527 4294966692
560.5191 2315.5322 -604.86133 4294966692
560.85352 2316.7117 -604.89612 4294966692
561.35095 2319.9517 -604.75092 4294966692
561.87561 2327.3496 -604.82709 4294966692
561.77905 2333.1619 -604.9726 4294966692
544.37299 2336.6038 -604.54614 4294966692
546.66711 2335.9824 -604.35333 4294966692
549.0285 2335.8977 -604.67444 4294966692
551.54987 2336.0779 -604.87457 4294966692
556.31848 2336.415 -604.74927 4294966692
558.43164 2336.0613 -604.82684 4294966692
560.479 2334.833 -604.79565 4294966692
541.54883 2338.2666 -604.99347 4294966692
541.0282 2341.031 -604.36731 4294966692
541.23785 2344.1904 -604.70087 4294966692
541.52002 2314.9922 -603.06573 4294966693
562.12537 2330.011 -603.16833 4294966693
538.95789 2305.1414 -602.88519 4294966694
538.89343 2307.0513 -602.77197 4294966694
538.88568 2310.0471 -602.64771 4294966694
539.40729 2312.2263 -602.84052 4294966694
540.15674 2313.5227 -602.65387 4294966694
542.77966 2315.3503 -602.43365 4294966694
544.6261 2315.5222 -602.565 4294966694
549.34937 2314.6582 -602.63672 4294966694
551.55103 2314.2642 -602.78699 4294966694
554.39117 2313.6887 -602.72168 4294966694
558.59344 2313.9761 -602.73517 4294966694
560.73798 2316.9075 -602.99884 4294966694
561.20068 2319.6243 -602.66888 4294966694
561.35492 2324.9109 -602.72601 4294966694
561.64191 2326.937 -602.9538 4294966694
561.84686 2333.0918 -602.80743 4294966694
546.24194 2336.3418 -602.4295 4294966694
548.58429 2335.9277 -602.6709 4294966694
551.24377 2336.0774 -602.82111 4294966694
554.14587 2336.3286 -602.7724 4294966694
556.28198 2336.4539 -602.81592 4294966694
558.66644 2336.0078 -602.77045 4294966694
543.15527 2337.8767 -602.56195 4294966694
542.04095 2340.9761 -602.56036 4294966694
542.46289 2344.1162 -602.46136 4294966694
539.92737 2304.9663 -601.10004 4294966695
541.78485 2314.5215 -601.04761 4294966695
546.63074 2315.656 -601.50153 4294966695
551.5885 2314.5884 -601.20435 4294966695
558.24896 2314.072 -601.21429 4294966695
559.4433 2314.8623 -601.27576 4294966695
559.82086 2335.4143 -601.0202 4294966695
539.98395 2308.7197 -600.68011 4294966696
540.45404 2312.1477 -600.83905 4294966696
540.93591 2313.2659 -600.8974 4294966696
546.15198 2315.7979 -600.92023 4294966696
549.25525 2315.0044 -600.93634 4294966696
554.09174 2314.0107 -600.74597 4294966696
556.78088 2313.8721 -600.99451 4294966696
560.17651 2315.7156 -600.67181 4294966696
560.62451 2317.1484 -600.69153 4294966696
561.14703 2319.8545 -600.89038 4294966696
561.10608 2322.5959 -600.93359 4294966696
562.2085 2331.698 -600.92969 4294966696
545.08264 2336.9966 -600.81738 4294966696
546.12921 2336.6301 -600.64398 4294966696
548.71509 2336.0244 -600.435 4294966696
551.33307 2336.1116 -600.62842 4294966696
553.60321 2336.2969 -600.74084 4294966696
555.74927 2336.4575 -600.86823 4294966696
543.6767 2338.2549 -600.84528 4294966696
542.909 2340.9707 -600.25165 4294966696
543.29559 2344.2212 -600.96545 4294966696
543.10413 2314.7373 -599.13208 4294966697
561.45306 2326.9253 -599.0752 4294966697
540.87036 2309.946 -598.86066 4294966698
541.0506 2307.1597 -598.80469 4294966698
541.59991 2312.2161 -598.6001 4294966698
541.89789 2313.2424 -598.95642 4294966698
546.54254 2315.6951 -598.66162 4294966698
551.57117 2314.9534 -598.55469 4294966698
553.69745 2314.3118 -598.61169 4294966698
556.34534 2314.1328 -598.84998 4294966698
557.76978 2314.3423 -598.31403 4294966698
559.32672 2315.0474 -598.6604 4294966698
560.49451 2316.8628 -598.95441 4294966698
561.17346 2319.8879 -598.56018 4294966698
561.12457 2324.8433 -598.96436 4294966698
561.7179 2333.0845 -598.5672 4294966698
548.22461 2336.3359 -598.65747 4294966698
551.60791 2336.167 -598.53564 4294966698
558.54828 2335.9856 -598.73315 4294966698
544.52698 2338.728 -598.74646 4294966698
544.04559 2340.8147 -598.52112 4294966698
543.89307 2314.7017 -597.19446 4294966699
558.45258 2336.1199 -597.0506 4294966699
541.86682 2309.8347 -596.76172 4294966700
543.03644 2313.3345 -596.62885 4294966700
544.92853 2315.2031 -596.7912 4294966700
546.54413 2315.6821 -596.55396 4294966700
550.95081 2315.3103 -596.93152 4294966700
556.94843 2314.425 -596.41547 4294966700
560.67072 2317.5591 -596.8891 4294966700
561.15741 2319.5649 -596.88312 4294966700
560.96533 2322.6318 -596.92273 4294966700
561.3432 2326.9858 -596.83069 4294966700
562.05347 2330.2039 -596.97614 4294966700
548.7074 2336.6204 -596.08759 4294966700
550.56244 2336.1902 -596.4447 4294966700
555.79401 2336.5085 -596.94849 4294966700
560.43457 2334.9531 -596.77856 4294966700
545.42511 2338.1912 -596.98865 4294966700
546.89923 2337.1074 -596.76691 4294966700
544.6488 2340.4639 -596.71014 4294966700
556.36487 2314.1833 -595.01563 4294966701
558.95862 2315.2434 -595.06482 4294966701
561.01025 2324.7839 -595.01294 4294966701
561.29346 2327.0554 -595.26263 4294966701
558.46625 2336.1953 -595.1228 4294966701
542.89703 2310.0176 -594.61401 4294966702
543.21838 2311.9717 -594.93262 4294966702
544.02936 2313.6091 -594.76221 4294966702
545.23694 2314.9136 -594.85803 4294966702
547.98804 2315.8979 -594.94904 4294966702
550.46692 2315.6653 -594.38495 4294966702
553.89789 2314.564 -594.31543 4294966702
559.89954 2316.5635 -594.44525 4294966702
560.60559 2319.7009 -594.48309 4294966702
560.9079 2322.666 -594.40717 4294966702
561.87274 2329.8101 -594.75159 4294966702
562.01111 2331.8064 -594.86102 4294966702
548.71375 2336.9216 -594.38696 4294966702
553.15369 2336.4646 -594.63049 4294966702
555.9162 2336.6001 -594.83429 4294966702
560.47766 2334.9792 -594.95227 4294966702
546.11218 2339.1514 -594.45251 4294966702
547.18304 2337.4993 -594.7995 4294966702
545.68341 2341.0276 -594.77948 4294966702
561.03052 2324.2283 -593.24915 4294966703
561.31219 2326.7871 -593.29767 4294966703
543.73743 2310.1355 -592.70935 4294966704
544.21918 2312.0232 -592.62024 4294966704
544.69312 2313.3328 -592.89606 4294966704
545.68555 2314.5977 -592.86639 4294966704
547.21564 2315.3999 -592.47125 4294966704
550.63397 2315.7808 -592.53687 4294966704
553.7699 2314.8589 -592.3924 4294966704
555.5072 2314.6426 -592.1571 4294966704
557.88794 2314.8921 -592.73566 4294966704
559.42816 2315.9553 -592.71393 4294966704
559.80206 2317.4949 -592.77179 4294966704
560.82886 2322.1045 -592.22699 4294966704
561.59448 2329.4829 -592.44934 4294966704
561.57916 2333.2764 -592.91187 4294966704
550.63422 2336.8081 -592.45502 4294966704
552.58344 2336.6519 -592.47717 4294966704
555.66986 2336.7734 -592.87 4294966704
558.58179 2336.3376 -592.70197 4294966704
546.56525 2339.6106 -592.62823 4294966704
546.45575 2340.6306 -592.80981 4294966704
545.0321 2312.3328 -591.00592 4294966705
556.35229 2314.8369 -591.02106 4294966705
558.45447 2316.2405 -591.13477 4294966705
560.19806 2319.1677 -591.08173 4294966705
561.10297 2324.8018 -591.38464 4294966705
561.34698 2327.2576 -591.1983 4294966705
561.42242 2332.0649 -591.16486 4294966705
560.80859 2334.9792 -591.02179 4294966705
548.0097 2338.3816 -591.32312 4294966705
544.67749 2309.6067 -590.63379 4294966706
545.5083 2313.2673 -590.89331 4294966706
546.86536 2314.9531 -590.63287 4294966706
550.48889 2315.7932 -590.38525 4294966706
560.74823 2321.377 -590.39783 4294966706
560.94794 2322.9683 -590.55035 4294966706
556.20001 2336.8401 -590.5083 4294966706
559.42908 2335.9443 -590.63068 4294966706
551.51569 2337.2019 -590.1076 4294966706
547.46698 2340.655 -590.48029 4294966706
546.24524 2313.3765 -589.06274 4294966707
557.46613 2315.8406 -589.47968 4294966707
558.60956 2316.6121 -589.05957 4294966707
559.5365 2317.6807 -589.3894 4294966707
560.18115 2318.9063 -589.17035 4294966707
560.55798 2320.3306 -589.19495 4294966707
561.06653 2324.1611 -589.80682 4294966707
561.26361 2326.1472 -589.50549 4294966707
561.49524 2329.0496 -589.41541 4294966707
555.90814 2336.8682 -589.21362 4294966707
558.83557 2336.2153 -589.07208 4294966707
560.57257 2334.1128 -589.21472 4294966707
548.76202 2338.5676 -589.87946 4294966707
547.89093 2340.5063 -589.02502 4294966707
545.57031 2309.7163 -588.54932 4294966708
545.74487 2312.2092 -588.70209 4294966708
547.40302 2314.7336 -588.85541 4294966708
550.91864 2315.6897 -588.78296 4294966708
553.4538 2315.2549 -588.78687 4294966708
555.75903 2315.5229 -588.75732 4294966708
559.87122 2318.3406 -588.22833 4294966708
560.26477 2319.3911 -588.13428 4294966708
560.9079 2322.5142 -588.9986 4294966708
561.12756 2324.4695 -588.59314 4294966708
561.42749 2327.3635 -588.39166 4294966708
561.40442 2331.7219 -588.38666 4294966708
553.22522 2337.1692 -588.77295 4294966708
548.08575 2340.2573 -588.43329 4294966708
548.11969 2314.6731 -587.09546 4294966709
557.81445 2316.4893 -587.6283 4294966709
559.16418 2317.4236 -587.95074 4294966709
560.5733 2320.9712 -587.52277 4294966709
561.31934 2325.9878 -587.59644 4294966709
561.61218 2330.0916 -587.32147 4294966709
561.00952 2333.2671 -587.00421 4294966709
560.17456 2334.7095 -587.43829 4294966709
546.39978 2312.1396 -586.80127 4294966710
551.78485 2315.1897 -586.19159 4294966710
554.0647 2315.5198 -586.83875 4294966710
558.82629 2317.3806 -586.98895 4294966710
559.69495 2318.823 -586.7356 4294966710
561.03711 2323.5803 -586.92194 4294966710
561.54211 2328.1155 -586.9173 4294966710
561.48981 2331.5947 -586.3692 4294966710
556.28369 2336.8521 -586.35962 4294966710
558.63409 2336.2927 -586.72156 4294966710
559.48981 2335.4644 -586.75995 4294966710
549.28113 2339.978 -586.70013 4294966710
553.20496 2337.8579 -586.22083 4294966710
556.11554 2316.23 -585.62384 4294966711
558.29803 2317.4177 -585.8667 4294966711
560.51685 2321.5833 -585.15619 4294966711
561.06207 2323.7231 -585.23914 4294966711
561.58508 2329.0425 -585.30396 4294966711
561.159 2332.8325 -585.4823 4294966711
559.11505 2335.5286 -585.37109 4294966711
560.28381 2334.2981 -585.35529 4294966711
547.16919 2312.0322 -584.94299 4294966712
549.62415 2314.1387 -584.36475 4294966712
553.89728 2315.6123 -584.92987 4294966712
557.73267 2317.4331 -584.20477 4294966712
559.25641 2319.1284 -584.27515 4294966712
561.45374 2326.9683 -584.48975 4294966712
560.93787 2332.9983 -584.2674 4294966712
561.37909 2331.5256 -584.59277 4294966712
555.86243 2336.907 -584.22327 4294966712
557.74097 2336.1855 -584.87085 4294966712
550.55695 2338.9705 -584.98828 4294966712
555.01477 2316.0012 -583.64978 4294966713
556.59991 2316.8022 -583.27289 4294966713
560.08728 2320.7827 -583.61304 4294966713
561.06415 2323.9329 -583.83582 4294966713
561.45972 2329.5405 -583.59985 4294966713
560.34528 2333.7285 -583.52142 4294966713
557.31708 2336.1807 -583.32239 4294966713
559.02838 2335.0317 -583.37158 4294966713
551.7193 2339.5432 -583.56317 4294966713
553.0918 2315.3462 -582.36194 4294966714
556.88159 2317.1841 -582.02173 4294966714
558.1803 2318.3623 -582.13647 4294966714
559.70239 2320.5022 -582.27106 4294966714
560.6217 2322.5081 -582.70465 4294966714
561.07245 2324.2024 -582.5025 4294966714
561.33472 2326.7148 -582.66199 4294966714
560.47992 2332.8062 -582.46069 4294966714
556.31274 2336.6438 -582.50378 4294966714
555.60999 2316.4509 -581.89752 4294966715
560.95575 2324.6804 -581.27161 4294966715
561.13464 2329.6157 -581.51794 4294966715
560.33447 2332.6897 -581.31268 4294966715
556.33362 2336.5046 -581.35327 4294966715
557.58978 2335.7585 -581.85492 4294966715
554.61084 2337.6501 -581.87042 4294966715
548.422 2311.9167 -580.90234 4294966716
550.37457 2313.6497 -580.84106 4294966716
554.73059 2316.1128 -580.91699 4294966716
557.05908 2317.5481 -580.83246 4294966716
558.29462 2318.9434 -580.01794 4294966716
559.2937 2320.2104 -580.71069 4294966716
560.27478 2322.5205 -580.38116 4294966716
561.1134 2327.2563 -580.92017 4294966716
560.4845 2331.6582 -580.58209 4294966716
555.979 2336.6377 -580.63403 4294966716
559.17297 2334.0115 -580.89148 4294966716
552.57159 2339.7866 -580.95886 4294966716
554.51672 2316.0525 -579.41351 4294966717
555.99457 2316.9202 -579.7121 4294966717
557.31378 2318.0015 -579.35724 4294966717
559.34198 2320.7898 -579.07355 4294966717
560.70868 2325.5911 -579.37927 4294966717
558.65607 2333.8623 -579.11969 4294966717
559.65973 2332.4619 -579.43591 4294966717
555.78375 2336.7646 -579.35883 4294966717
557.24933 2335.5667 -579.91229 4294966717
551.04736 2313.6123 -578.32019 4294966718
552.90375 2314.9824 -578.50934 4294966718
557.05267 2317.9524 -578.17401 4294966718
558.21588 2319.1748 -578.34186 4294966718
560.11316 2323.1167 -578.17163 4294966718
560.48608 2329.5898 -578.92987 4294966718
556.70386 2335.8169 -578.47998 4294966718
554.24298 2338.6863 -578.05505 4294966718
552.45892 2341.8699 -578.42957 4294966718
554.49304 2316.0068 -577.63336 4294966719
555.9516 2317.1121 -577.17859 4294966719
559.11255 2320.8909 -577.24823 4294966719
560.41052 2325.7593 -577.22357 4294966719
559.25989 2332.3433 -577.89325 4294966719
556.06683 2336.4316 -577.28552 4294966719
557.70038 2334.5295 -577.34979 4294966719
550.64441 2313.1875 -576.87506 4294966720
552.0307 2314.0994 -576.86444 4294966720
553.97827 2315.5898 -576.95093 4294966720
554.823 2316.1602 -576.14551 4294966720
557.75018 2318.9509 -576.70679 4294966720
559.81964 2322.9441 -576.1712 4294966720
559.73157 2330.5732 -576.24554 4294966720
558.80127 2332.6069 -576.06757 4294966720
553.31177 2340.6646 -576.50824 4294966720
553.5224 2315.0408 -575.77936 4294966721
555.7533 2316.9434 -575.47198 4294966721
558.7132 2320.5918 -575.36584 4294966721
560.10065 2324.9529 -575.00128 4294966721
560.25726 2327.8594 -575.86914 4294966721
556.74561 2335.6121 -575.48969 4294966721
555.57758 2337.4277 -575.17676 4294966721
550.81268 2311.55 -574.60895 4294966722
552.17767 2313.4961 -574.96417 4294966722
555.08636 2316.2512 -574.47321 4294966722
557.02338 2318.301 -574.32251 4294966722
559.43634 2322.387 -574.25336 4294966722
559.8421 2329.1604 -574.15802 4294966722
557.92633 2333.853 -574.25116 4294966722
559.14886 2331.4661 -574.39697 4294966722
554.34601 2339.748 -574.93005 4294966722
553.88867 2314.6533 -573.12567 4294966723
558.51721 2320.4692 -573.72589 4294966723
560.07104 2326.5911 -573.59875 4294966723
556.73969 2335.9644 -573.47229 4294966723
552.49005 2312.4277 -572.66229 4294966724
555.64539 2316.5586 -572.45068 4294966724
558.11542 2319.8633 -572.44958 4294966724
559.05048 2321.6755 -572.50836 4294966724
559.75958 2323.9832 -572.96265 4294966724
559.81604 2327.9856 -572.12415 4294966724
559.40594 2330.2893 -572.6286 4294966724
558.76373 2332.125 -572.86926 4294966724
557.47961 2334.7705 -572.64954 4294966724
555.8847 2338.5737 -572.06586 4294966724
554.89191 2315.2568 -571.02539 4294966725
557.19727 2318.3972 -571.08429 4294966725
559.38684 2322.9648 -571.07849 4294966725
559.82281 2325.425 -571.48804 4294966725
558.58569 2332.4863 -571.53333 4294966725
557.16736 2335.7952 -571.47229 4294966725
553.05939 2311.6455 -570.44427 4294966726
553.88751 2313.5364 -570.72638 4294966726
555.92303 2316.5701 -570.68262 4294966726
558.56293 2320.7791 -570.97308 4294966726
559.75946 2326.979 -570.15735 4294966726
559.46313 2329.6401 -570.6557 4294966726
558.88544 2331.8198 -570.29919 4294966726
554.82635 2314.4656 -569.48724 4294966727
555.49353 2315.6812 -569.72485 4294966727
556.50922 2316.9246 -569.07458 4294966727
557.40851 2318.4014 -569.2276 4294966727
558.26477 2320.021 -569.21869 4294966727
559.02563 2321.9331 -569.72833 4294966727
558.52124 2333.3423 -569.26019 4294966727
557.4231 2336.2791 -569.62689 4294966727
555.54675 2315.0566 -568.32117 4294966728
559.05109 2321.8862 -568.5434 4294966728
559.60834 2324.2104 -568.97809 4294966728
559.80109 2326.5657 -568.54889 4294966728
559.66284 2328.5125 -568.92535 4294966728
559.2395 2331.0032 -568.74799 4294966728
558.18335 2335.2129 -568.05621 4294966728
554.62439 2312.6567 -567.65161 4294966729
557.63953 2318.2957 -567.45514 4294966729
558.73444 2320.6526 -567.37415 4294966729
559.35699 2322.5576 -567.44995 4294966729
559.87213 2326.7998 -567.23639 4294966729
559.6275 2329.5151 -567.79132 4294966729
558.99231 2333.0242 -567.24243 4294966729
555.69885 2314.5088 -566.92596 4294966730
556.49969 2315.9802 -566.9295 4294966730
559.7829 2324.0095 -566.22864 4294966730
559.6488 2330.1841 -566.7984 4294966730
559.43567 2331.9617 -566.24304 4294966730
557.95233 2337.5564 -566.48749 4294966730
555.4552 2312.5652 -565.09033 4294966731
557.5177 2316.9204 -565.07611 4294966731
558.53394 2319.3557 -565.43536 4294966731
559.2981 2321.7078 -565.92719 4294966731
560.08344 2326.415 -565.26117 4294966731
559.87628 2330.6946 -565.05432 4294966731
560.01257 2328.4988 -565.59717 4294966731
559.39777 2333.0713 -565.46924 4294966731
558.80719 2335.0537 -565.95331 4294966731
556.35303 2314.3757 -564.82385 4294966732
559.71021 2322.5813 -564.69409 4294966732
559.79858 2332.6953 -564.17487 4294966732
558.92334 2336.3545 -564.33612 4294966732
559.48859 2334.4712 -564.00342 4294966732
557.51025 2315.8167 -563.31946 4294966733
559.30298 2320.7437 -563.96661 4294966733
559.81689 2322.1978 -563.29016 4294966733
560.06879 2324.0847 -563.84839 4294966733
560.23627 2328.2012 -563.84863 4294966733
559.96185 2333.2905 -563.07758 4294966733
560.16077 2331.7163 -563.02631 4294966733
558.51123 2317.9221 -562.75183 4294966734
560.15948 2323.5779 -562.19025 4294966734
560.31268 2326.0117 -562.9447 4294966734
560.30017 2329.8137 -562.91656 4294966734
559.6734 2335.3362 -562.40533 4294966734
559.64832 2320.8086 -561.54309 4294966735
560.42493 2326.5659 -561.29993 4294966735
560.46436 2330.7683 -561.04706 4294966735
560.25812 2333.0166 -561.54639 4294966735
560.21466 2323.2874 -560.35205 4294966736
560.10272 2334.6274 -560.96594 4294966736
559.23767 2318.0339 -559.24359 4294966737
560.46747 2325.8264 -559.20197 4294966737
559.98804 2321.1677 -558.98206 4294966738
560.63373 2329.1519 -558.61938 4294966738
560.35559 2323.5569 -557.28784 4294966739
560.26526 2320.6399 -556.61371 4294966740
560.39441 2320.8064 -553.02551 4294966743
