# .PCD v0.7 - Point Cloud Data file format
VERSION 0.7
FIELDS x y z rgba
SIZE 4 4 4 4
TYPE F F F U
COUNT 1 1 1 1
WIDTH 1147
HEIGHT 1
VIEWPOINT 0 0 0 1 0 0 0
POINTS 1147
DATA ascii
133.00307 2341.2688 -656.93689 4294966640
135.43677 2341.1938 -656.79333 4294966640
139.46371 2340.9751 -656.71777 4294966640
143.69043 2340.6973 -656.77417 4294966640
145.5166 2340.5874 -656.78333 4294966640
147.18797 2340.4534 -656.92896 4294966640
149.48154 2340.3347 -656.74646 4294966640
151.30084 2340.2383 -656.68329 4294966640
153.13606 2340.1289 -656.77979 4294966640
157.27588 2340.0044 -656.72467 4294966640
69.860428 2345.8701 -656.48651 4294966640
78.98613 2343.8606 -656.44147 4294966640
67.134903 2348.021 -656.31323 4294966640
293.20251 2351.925 -656.90625 4294966640
255.43571 2354.3491 -656.28192 4294966640
257.28262 2354.2166 -656.18695 4294966640
261.38361 2353.9563 -656.39703 4294966640
271.32953 2353.3337 -656.54303 4294966640
273.57852 2353.1331 -656.16736 4294966640
275.38513 2353.019 -656.2854 4294966640
277.24881 2352.9368 -656.74707 4294966640
229.16519 2356.3794 -656.26349 4294966640
231.43962 2356.2158 -656.40607 4294966640
235.44991 2355.97 -656.43921 4294966640
239.51849 2355.7651 -656.02124 4294966640
241.38181 2355.5618 -656.21527 4294966640
245.4377 2355.2236 -656.15363 4294966640
171.36017 2360.832 -656.48895 4294966640
173.33011 2360.7773 -656.74231 4294966640
177.34064 2360.5403 -656.83105 4294966640
179.43025 2360.3276 -656.72284 4294966640
181.74725 2359.9958 -656.57251 4294966640
185.36314 2359.5791 -656.48352 4294966640
187.61086 2359.4431 -656.61047 4294966640
189.85945 2359.2468 -656.00494 4294966640
191.45197 2359.2129 -656.04242 4294966640
193.27797 2359.1687 -656.50623 4294966640
195.45377 2358.9766 -656.21332 4294966640
198.96349 2358.6702 -656.78113 4294966640
201.3163 2358.8362 -656.65924 4294966640
213.29323 2358.3562 -656.42291 4294966640
139.36234 2363.2214 -656.74567 4294966640
141.61369 2363.0857 -656.94073 4294966640
151.48241 2362.4192 -656.54529 4294966640
155.44768 2362.0518 -656.784 4294966640
157.59283 2361.8435 -656.83783 4294966640
159.65961 2361.6292 -656.03693 4294966640
161.34691 2361.5574 -656.81482 4294966640
167.29684 2361.1108 -656.73688 4294966640
105.395 2366.4839 -656.91443 4294966640
107.66659 2366.2246 -656.83246 4294966640
111.57047 2365.7407 -656.87567 4294966640
115.31197 2365.3218 -656.91302 4294966640
117.49304 2365.0745 -656.34344 4294966640
119.40789 2364.9539 -656.78375 4294966640
121.58858 2364.78 -656.68036 4294966640
279.41833 2378.4336 -656.02765 4294966640
287.5806 2377.635 -656.77203 4294966640
187.50943 2384.9749 -656.08984 4294966640
191.37656 2384.6775 -656.05579 4294966640
197.07784 2384.4563 -656.16754 4294966640
221.66473 2382.5688 -656.07172 4294966640
149.44365 2387.4512 -656.0213 4294966640
159.1411 2386.7307 -656.04559 4294966640
167.39095 2386.2244 -656.14813 4294966640
171.47562 2386.0425 -656.1571 4294966640
173.55269 2385.908 -656.1745 4294966640
175.45062 2385.7791 -656.06091 4294966640
183.23593 2385.2637 -656.2735 4294966640
185.50436 2385.1379 -656.12952 4294966640
121.31891 2389.3801 -656.07538 4294966640
131.43105 2388.6514 -656.36371 4294966640
229.41331 2429.9387 -656.96082 4294966640
231.48831 2429.8428 -656.95807 4294966640
235.2934 2429.5117 -656.97076 4294966640
237.33923 2429.3384 -656.9743 4294966640
241.56664 2429.3281 -656.94836 4294966640
247.42157 2428.9685 -656.89386 4294966640
251.42757 2428.5803 -656.28687 4294966640
267.41531 2427.4958 -656.20526 4294966640
207.51497 2431.5706 -656.2179 4294966640
209.06642 2431.5964 -656.06281 4294966640
213.37134 2431.0996 -656.90967 4294966640
225.53972 2430.1809 -656.92169 4294966640
227.34319 2430.0723 -656.79657 4294966640
153.37613 2435.6143 -656.0163 4294966640
157.24968 2435.2427 -656.11108 4294966640
165.32066 2434.6675 -656.1203 4294966640
68.630478 2345.8027 -655.87476 4294966641
71.045784 2344.8682 -655.55304 4294966641
72.671547 2344.6174 -655.73523 4294966641
81.141548 2343.4299 -655.83679 4294966641
82.920685 2343.4248 -655.64594 4294966641
85.078796 2343.478 -655.54773 4294966641
93.268814 2343.5125 -655.05084 4294966641
64.993248 2348.8523 -655.30908 4294966641
275.42273 2378.8015 -655.87415 4294966641
277.55322 2378.6396 -655.67493 4294966641
231.4666 2381.9316 -655.63959 4294966641
233.22154 2381.9727 -655.09485 4294966641
239.74171 2381.532 -655.02777 4294966641
241.55736 2381.3323 -655.60236 4294966641
243.33383 2381 -655.98291 4294966641
245.73917 2380.9421 -655.83301 4294966641
247.23076 2380.7083 -655.87946 4294966641
249.47672 2380.5994 -655.88196 4294966641
251.44867 2380.5186 -655.71838 4294966641
253.52747 2380.5886 -655.09277 4294966641
255.29681 2380.3096 -655.71375 4294966641
257.50684 2380.3796 -655.04083 4294966641
259.44717 2380.1814 -655.01306 4294966641
271.76611 2379.249 -655.53705 4294966641
273.57877 2379.1196 -655.11279 4294966641
189.22633 2384.8464 -655.99622 4294966641
199.57825 2384.3499 -655.84082 4294966641
209.53201 2383.4707 -655.94971 4294966641
215.36774 2382.9724 -655.96411 4294966641
227.48825 2382.3535 -655.64874 4294966641
229.46255 2382.1489 -655.61902 4294966641
157.32907 2386.8733 -655.80511 4294966641
161.97003 2386.5857 -655.76086 4294966641
163.56693 2386.4792 -655.80804 4294966641
169.7341 2386.1509 -655.88538 4294966641
179.29286 2385.575 -655.91577 4294966641
125.63394 2389.2419 -655.62164 4294966641
129.40466 2388.8777 -655.72961 4294966641
133.67703 2388.6443 -655.9267 4294966641
137.11819 2388.3733 -655.91364 4294966641
139.63846 2388.2034 -655.82977 4294966641
292.11444 2404.3123 -655.98828 4294966641
292.20612 2407.2603 -655.95465 4294966641
254.55356 2411.6248 -655.48907 4294966641
292.54047 2409.0645 -655.95215 4294966641
203.65614 2413.5293 -655.43048 4294966641
256.30859 2413.9351 -655.70807 4294966641
204.68842 2415.4482 -655.43756 4294966641
206.65408 2417.6387 -655.67773 4294966641
260.8576 2417.1184 -655.62292 4294966641
263.14087 2417.7527 -655.57587 4294966641
208.94679 2419.3445 -655.80884 4294966641
267.61118 2418.2148 -655.71332 4294966641
241.74387 2429.592 -655.61694 4294966641
243.49776 2429.4336 -655.74731 4294966641
245.51065 2429.2935 -655.70703 4294966641
249.27672 2429.1934 -655.21912 4294966641
263.34348 2428.0984 -655.04657 4294966641
271.32291 2427.4622 -655.95435 4294966641
275.49512 2427.2329 -655.62109 4294966641
193.29033 2432.9089 -655.67944 4294966641
195.43687 2432.7244 -655.82916 4294966641
197.58252 2432.5579 -655.9043 4294966641
201.4664 2432.3318 -655.57727 4294966641
205.60947 2431.8384 -655.75958 4294966641
210.53824 2431.5977 -655.55798 4294966641
211.25304 2431.7639 -655.05609 4294966641
217.53473 2431.2051 -655.78119 4294966641
219.43901 2431.0454 -655.73376 4294966641
223.45679 2430.7991 -655.70044 4294966641
233.38258 2430.0488 -655.54785 4294966641
159.53145 2435.1638 -655.8783 4294966641
161.93466 2435.2354 -655.20636 4294966641
169.18048 2434.4429 -655.85608 4294966641
295.64377 2330.7632 -654.20721 4294966642
207.4006 2336.9016 -654.10028 4294966642
211.44698 2336.718 -654.01251 4294966642
237.55226 2334.8311 -654.00171 4294966642
167.41782 2339.719 -654.14319 4294966642
169.36394 2339.6104 -654.02869 4294966642
171.57753 2339.4448 -654.16992 4294966642
183.33063 2338.3352 -654.14435 4294966642
199.3607 2337.5674 -654.10028 4294966642
111.65576 2342.8289 -654.71661 4294966642
115.22671 2342.666 -654.67792 4294966642
119.50856 2342.4878 -654.41174 4294966642
121.69403 2342.4131 -654.12689 4294966642
127.20494 2342.0303 -654.27557 4294966642
131.57222 2341.8066 -654.43628 4294966642
133.37944 2341.8079 -654.01904 4294966642
135.45421 2341.6641 -654.2663 4294966642
141.34645 2341.342 -654.01178 4294966642
145.20706 2341.0381 -654.1767 4294966642
147.33304 2340.8738 -654.19012 4294966642
150.96346 2340.5837 -654.33563 4294966642
66.569115 2345.7441 -654.54187 4294966642
70.694283 2344.4944 -654.04309 4294966642
74.724998 2344.1914 -654.82214 4294966642
87.077621 2343.6013 -654.9101 4294966642
89.586411 2343.5227 -654.84924 4294966642
95.263054 2343.4629 -654.82092 4294966642
97.797348 2343.3501 -654.9671 4294966642
99.461174 2343.3152 -654.83899 4294966642
101.56294 2343.2781 -654.73608 4294966642
107.71284 2343.0579 -654.5528 4294966642
62.997959 2348.8037 -654.01215 4294966642
65.304024 2346.6265 -654.25232 4294966642
295.30157 2351.9326 -654.37012 4294966642
299.70157 2351.5354 -654.12537 4294966642
259.44266 2354.2734 -654.17633 4294966642
265.32605 2353.8391 -654.30225 4294966642
269.31088 2353.6118 -654.07971 4294966642
271.41901 2353.4509 -654.25311 4294966642
273.57935 2353.3179 -654.26367 4294966642
277.26151 2353.1509 -654.66864 4294966642
291.28824 2352.4248 -654.48383 4294966642
223.35066 2357.5522 -654.61737 4294966642
227.51132 2357.0356 -654.66571 4294966642
233.47693 2356.6111 -654.72894 4294966642
236.89497 2356.3872 -654.61633 4294966642
183.30673 2359.6348 -654.18927 4294966642
199.30893 2359.0156 -654.34857 4294966642
137.539 2363.3076 -654.27661 4294966642
141.63791 2363.0234 -654.25714 4294966642
155.3745 2361.97 -654.0434 4294966642
159.42641 2361.5776 -654.01154 4294966642
109.46009 2366.0469 -654.81232 4294966642
111.5603 2365.8005 -654.70093 4294966642
113.34663 2365.543 -654.88458 4294966642
119.21787 2364.8142 -654.11798 4294966642
235.6142 2381.6472 -654.92438 4294966642
237.63966 2381.4958 -654.99872 4294966642
261.75281 2379.9104 -654.9176 4294966642
265.46716 2379.7073 -654.89606 4294966642
267.6889 2379.5637 -654.98669 4294966642
269.35406 2379.4639 -654.92352 4294966642
193.46034 2384.5322 -654.05402 4294966642
291.18655 2383.9729 -654.99811 4294966642
293.00479 2408.7617 -654.35968 4294966642
293.30246 2411.2939 -654.44586 4294966642
255.65616 2412.5044 -654.06024 4294966642
293.25854 2412.5879 -654.66498 4294966642
205.20355 2415.0303 -654.01099 4294966642
207.34276 2417.3425 -654.07715 4294966642
260.98444 2416.7322 -654.19336 4294966642
263.39972 2417.3926 -654.36108 4294966642
265.41574 2417.812 -654.59332 4294966642
267.28705 2417.7712 -654.50928 4294966642
293.3461 2415.0791 -654.96283 4294966642
209.10959 2418.7747 -654.23779 4294966642
212.08243 2420.5154 -654.42792 4294966642
294.05051 2420.2893 -654.66541 4294966642
245.58467 2429.7195 -654.65814 4294966642
247.56419 2429.55 -654.77332 4294966642
249.49496 2429.449 -654.66278 4294966642
253.28456 2429.1382 -654.25452 4294966642
255.44258 2428.7375 -654.69843 4294966642
257.48352 2428.9429 -654.22198 4294966642
259.73102 2428.4207 -654.77319 4294966642
265.41095 2428.104 -654.72772 4294966642
277.50427 2427.4246 -654.13446 4294966642
279.29608 2427.1423 -654.44971 4294966642
286.21509 2427.1777 -654.32178 4294966642
213.24797 2431.9277 -654.37427 4294966642
215.60585 2431.8748 -654.04431 4294966642
219.64748 2431.4521 -654.66705 4294966642
221.53139 2431.3706 -654.61761 4294966642
225.60127 2431.1316 -654.18994 4294966642
227.55391 2431.0862 -654.15869 4294966642
231.51799 2430.9221 -654.20752 4294966642
237.50209 2430.3967 -654.41095 4294966642
239.40643 2430.6516 -654.12726 4294966642
241.52542 2430.2043 -654.53192 4294966642
155.63074 2435.9783 -654.48206 4294966642
159.62399 2435.5552 -654.65015 4294966642
165.12196 2435.1213 -654.86688 4294966642
167.33014 2434.9402 -654.93213 4294966642
169.07339 2434.8911 -654.73077 4294966642
195.15076 2433.1082 -654.75446 4294966642
197.46759 2433.0222 -654.58844 4294966642
293.60983 2330.8708 -653.85364 4294966643
299.39584 2330.6052 -653.87921 4294966643
301.36453 2330.2832 -653.68756 4294966643
305.3385 2330.3054 -653.82062 4294966643
309.43939 2330.0857 -653.77661 4294966643
251.8105 2333.9702 -653.5752 4294966643
253.45378 2333.8523 -653.68744 4294966643
255.59679 2333.7056 -653.73718 4294966643
257.46317 2333.5955 -653.57642 4294966643
259.43256 2333.4351 -653.63135 4294966643
261.43951 2333.2532 -653.73798 4294966643
263.37146 2333.0942 -653.66394 4294966643
265.30453 2332.9111 -653.86499 4294966643
267.41119 2332.6646 -653.8443 4294966643
271.56219 2332.585 -653.81824 4294966643
275.72186 2332.3738 -653.63251 4294966643
279.42337 2332.1816 -653.58484 4294966643
283.54761 2331.8201 -653.07697 4294966643
285.69043 2331.6506 -653.52002 4294966643
287.0921 2331.4995 -653.92975 4294966643
289.47449 2331.2036 -653.61127 4294966643
291.72757 2331.0291 -653.89905 4294966643
209.33546 2336.7793 -653.99408 4294966643
215.67035 2336.5229 -653.76044 4294966643
223.36855 2335.8127 -653.8476 4294966643
227.42186 2335.5698 -653.13727 4294966643
229.40828 2335.4939 -653.17383 4294966643
231.75024 2335.3535 -653.67737 4294966643
233.4879 2335.22 -653.58191 4294966643
241.56958 2334.5022 -653.96161 4294966643
185.19597 2338.3245 -653.99829 4294966643
187.53937 2338.2444 -653.9953 4294966643
191.61932 2338.0625 -653.7713 4294966643
193.48433 2337.9443 -653.93091 4294966643
195.37984 2337.7483 -653.8587 4294966643
197.53004 2337.7251 -653.95068 4294966643
201.69119 2337.4397 -653.86816 4294966643
203.65065 2337.2627 -653.92303 4294966643
139.3819 2341.4695 -653.89911 4294966643
149.73485 2340.7231 -653.90607 4294966643
153.20506 2340.5181 -653.99341 4294966643
155.48431 2340.4534 -653.84082 4294966643
159.33145 2340.2898 -653.72858 4294966643
161.77882 2340.1313 -653.8233 4294966643
163.29832 2340.0239 -653.88287 4294966643
66.974983 2344.9878 -653.19556 4294966643
69.198105 2344.6033 -653.85095 4294966643
72.882713 2344.208 -653.81738 4294966643
77.161194 2343.9331 -653.48792 4294966643
79.526955 2343.9622 -653.2204 4294966643
84.845329 2343.8735 -653.09888 4294966643
255.41823 2354.6411 -653.94568 4294966643
229.03854 2357.9297 -653.1153 4294966643
171.47345 2360.6494 -653.81836 4294966643
177.40198 2360.2769 -653.87872 4294966643
185.26245 2359.3945 -653.73737 4294966643
187.66492 2359.2832 -653.56891 4294966643
189.7274 2359.2961 -653.67712 4294966643
223.87914 2358.3257 -653.5993 4294966643
225.37286 2358.3838 -653.26123 4294966643
153.28813 2362.24 -653.9978 4294966643
161.7086 2361.425 -653.97406 4294966643
115.71878 2365.342 -653.8606 4294966643
271.83731 2378.8999 -653.48962 4294966643
275.59406 2378.6667 -653.71021 4294966643
281.28461 2378.0657 -653.96106 4294966643
283.7269 2377.7808 -653.61981 4294966643
286.1055 2377.5488 -653.24591 4294966643
287.05661 2377.6553 -653.70898 4294966643
289.42731 2378.574 -653.25726 4294966643
235.72635 2381.5056 -653.50897 4294966643
237.6926 2381.3933 -653.58246 4294966643
249.63576 2380.4727 -653.61383 4294966643
251.6795 2380.3728 -653.591 4294966643
255.61345 2380.1362 -653.77924 4294966643
291.06934 2380.8545 -653.61517 4294966643
187.51474 2384.9832 -653.69562 4294966643
207.27597 2383.4507 -653.81714 4294966643
209.37628 2383.2527 -653.71576 4294966643
213.5509 2382.9617 -653.73016 4294966643
217.24013 2382.6606 -653.89038 4294966643
169.47174 2386.1301 -653.01697 4294966643
171.826 2385.9666 -653.53284 4294966643
173.29836 2385.9897 -653.75049 4294966643
175.39426 2385.7622 -653.77356 4294966643
179.64159 2385.5129 -653.68744 4294966643
183.37296 2385.3162 -653.88251 4294966643
185.67969 2385.1206 -653.62634 4294966643
293.89395 2408.7048 -653.01349 4294966643
204.24237 2413.1333 -653.95752 4294966643
259.29919 2414.9343 -653.00714 4294966643
294.17761 2414.7239 -653.48138 4294966643
294.05124 2416.7144 -653.75061 4294966643
294.04166 2418.8896 -653.8996 4294966643
295.4462 2418.7646 -653.22418 4294966643
255.55551 2429.4873 -653.7428 4294966643
257.46481 2429.4631 -653.73962 4294966643
261.36383 2429.1299 -653.8158 4294966643
265.57339 2429.9443 -653.60181 4294966643
277.20825 2429.6914 -653.36957 4294966643
279.4198 2429.1204 -653.48053 4294966643
281.28668 2429.7437 -653.32465 4294966643
283.59967 2429.7241 -653.35938 4294966643
285.40524 2427.532 -653.84161 4294966643
223.09477 2432.03 -653.47235 4294966643
227.37181 2432.7847 -653.04065 4294966643
231.36407 2431.7312 -653.51355 4294966643
233.38568 2431.1179 -653.92743 4294966643
235.5466 2432.4387 -653.37744 4294966643
239.24753 2432.1428 -653.35822 4294966643
241.31772 2432.8914 -653.11407 4294966643
243.29594 2432.1216 -653.2594 4294966643
245.31625 2430.8682 -653.58612 4294966643
247.38179 2431.5505 -653.35059 4294966643
249.53247 2430.7739 -653.49823 4294966643
251.59972 2430.521 -653.5697 4294966643
253.55545 2431.6528 -653.24432 4294966643
259.45514 2431.8054 -653.26416 4294966643
263.54767 2431.009 -653.24854 4294966643
265.23764 2431.6853 -653.28381 4294966643
269.46262 2430.9729 -653.28748 4294966643
275.45715 2430.9998 -653.2608 4294966643
281.39389 2431.7837 -653.21667 4294966643
199.50832 2433.4246 -653.46722 4294966643
201.26181 2433.9512 -653.07281 4294966643
205.35556 2433.5422 -653.4762 4294966643
209.51218 2433.2537 -653.84998 4294966643
211.34366 2433.2319 -653.59521 4294966643
213.49507 2433.6868 -653.06079 4294966643
255.46797 2433.9827 -653.04578 4294966643
303.63495 2330.415 -652.8457 4294966644
281.43875 2332.0195 -652.89301 4294966644
63.443581 2345.96 -652.23309 4294966644
65.496414 2345.5247 -652.86041 4294966644
72.754982 2344.1191 -652.01105 4294966644
87.000511 2343.9036 -652.81909 4294966644
89.722275 2343.9563 -652.6767 4294966644
95.246361 2343.7976 -652.78943 4294966644
97.876091 2343.7275 -652.64313 4294966644
99.556862 2343.74 -652.31189 4294966644
101.36472 2343.6738 -652.41888 4294966644
103.69081 2343.6387 -652.07806 4294966644
105.15729 2343.5679 -652.12689 4294966644
60.796616 2349.2935 -652.6994 4294966644
257.11389 2354.9377 -652.39948 4294966644
259.40198 2354.7102 -652.44189 4294966644
265.28177 2354.2417 -652.43207 4294966644
269.38605 2353.9539 -652.39941 4294966644
273.28955 2353.6836 -652.52936 4294966644
275.47119 2353.5908 -652.66437 4294966644
277.27655 2353.5754 -652.9389 4294966644
279.76996 2353.6174 -652.93018 4294966644
281.28906 2353.6255 -652.99359 4294966644
291.38324 2352.9219 -652.79761 4294966644
293.55475 2352.7417 -652.62769 4294966644
297.3204 2352.3328 -652.78802 4294966644
299.32251 2352.2324 -652.40253 4294966644
231.57768 2357.8462 -652.89807 4294966644
235.26259 2357.8586 -652.32434 4294966644
237.24327 2357.4751 -652.48822 4294966644
239.49176 2357.1292 -652.66956 4294966644
243.31659 2356.5884 -652.99036 4294966644
182.97731 2359.7876 -652.03424 4294966644
189.65984 2359.6147 -652.23456 4294966644
191.34912 2359.8826 -652.42328 4294966644
193.92627 2359.9121 -652.35956 4294966644
195.68845 2359.9763 -652.19 4294966644
197.30521 2359.5334 -652.78009 4294966644
227.99762 2359.188 -652.04352 4294966644
139.52641 2363.3542 -652.75421 4294966644
141.53661 2363.3052 -652.55481 4294966644
149.52687 2362.9595 -652.29675 4294966644
113.78127 2365.7065 -652.4281 4294966644
115.50984 2365.4788 -652.47925 4294966644
267.56937 2378.5981 -652.00781 4294966644
269.63876 2378.7893 -652.75549 4294966644
271.59659 2378.6267 -652.64905 4294966644
273.36392 2378.5378 -652.67493 4294966644
279.43268 2377.9917 -652.0744 4294966644
283.49854 2377.499 -652.72296 4294966644
285.8241 2377.4368 -652.67419 4294966644
289.68741 2378.4941 -652.0755 4294966644
225.3418 2381.9929 -652.59204 4294966644
229.32333 2381.7852 -652.76465 4294966644
231.45314 2381.4797 -652.84808 4294966644
233.9693 2381.2634 -652.6286 4294966644
239.3084 2380.9084 -652.66174 4294966644
241.14705 2380.7651 -652.64172 4294966644
245.11467 2380.4641 -652.80908 4294966644
249.59708 2380.1897 -652.66266 4294966644
257.50201 2379.8042 -652.76495 4294966644
259.60565 2379.4087 -652.42322 4294966644
261.53467 2379.1211 -652.16742 4294966644
263.46603 2379.1445 -652.28198 4294966644
290.88431 2380.2151 -652.60443 4294966644
178.23483 2384.9663 -652.07996 4294966644
181.34839 2384.946 -652.01135 4294966644
183.46643 2384.9836 -652.37897 4294966644
189.33492 2384.6438 -652.50623 4294966644
203.55753 2383.3618 -652.70508 4294966644
163.75365 2386.4243 -652.21692 4294966644
165.28481 2386.3213 -652.35706 4294966644
167.32382 2386.314 -652.94965 4294966644
115.9184 2389.7451 -652.12494 4294966644
127.12089 2389.2368 -652.26416 4294966644
129.51514 2389.0288 -652.00903 4294966644
255.90874 2411.217 -652.65009 4294966644
206.12123 2413.8816 -652.00439 4294966644
258.41202 2412.697 -652.0589 4294966644
262.58093 2414.925 -652.12244 4294966644
294.64011 2412.8521 -652.81262 4294966644
295.23386 2414.8635 -652.87012 4294966644
296.36588 2413.9016 -652.38641 4294966644
207.82549 2416.7156 -652.8374 4294966644
209.43616 2417.7322 -652.68927 4294966644
210.68242 2417.6516 -652.18011 4294966644
263.42093 2416.0669 -652.94702 4294966644
264.80008 2415.061 -652.05939 4294966644
265.45966 2416.26 -652.83948 4294966644
213.22575 2419.1919 -652.29224 4294966644
250.99542 2432.9824 -652.96484 4294966644
199.5293 2434.302 -652.91278 4294966644
205.34111 2435.4753 -652.69421 4294966644
207.46333 2435.0723 -652.94061 4294966644
209.53125 2435.4976 -652.87677 4294966644
211.25171 2434.9368 -652.87128 4294966644
215.36182 2434.6914 -652.6568 4294966644
217.5154 2434.2937 -652.68781 4294966644
219.06696 2434.1206 -652.94824 4294966644
232.93445 2433.4158 -652.86499 4294966644
237.45111 2433.541 -652.93237 4294966644
289.36346 2330.9922 -651.69812 4294966645
291.6525 2330.8135 -651.69299 4294966645
293.1741 2330.8328 -651.6051 4294966645
297.45367 2330.4648 -651.63293 4294966645
301.38492 2330.2837 -651.68988 4294966645
305.65756 2330.0288 -651.63782 4294966645
307.43933 2329.6318 -651.21313 4294966645
247.39059 2333.8835 -651.71313 4294966645
249.19319 2333.7131 -651.64337 4294966645
253.431 2333.4114 -651.72699 4294966645
255.12531 2333.3357 -651.82544 4294966645
257.47485 2333.1897 -651.61292 4294966645
261.74268 2332.8657 -651.47211 4294966645
263.41382 2332.7756 -651.62677 4294966645
267.50876 2332.4885 -651.83203 4294966645
269.51782 2332.4399 -651.66913 4294966645
277.34265 2332.0671 -651.85992 4294966645
279.37234 2331.7292 -651.6488 4294966645
287.48227 2331.1128 -651.48743 4294966645
205.50912 2336.8003 -651.81445 4294966645
207.53304 2336.7603 -651.79865 4294966645
209.48767 2336.5745 -651.71069 4294966645
213.36932 2336.4495 -651.89209 4294966645
217.79437 2336.106 -651.7793 4294966645
221.36885 2335.5999 -651.95166 4294966645
225.45311 2335.2634 -651.83148 4294966645
233.24413 2334.895 -651.58649 4294966645
237.27829 2334.6143 -651.75055 4294966645
241.74892 2334.3279 -651.88611 4294966645
167.6886 2339.4663 -651.80005 4294966645
169.30138 2339.4958 -651.91656 4294966645
171.73404 2339.2886 -651.84998 4294966645
175.42635 2338.9634 -651.7168 4294966645
179.43369 2338.6033 -651.98608 4294966645
181.27545 2338.4502 -651.96887 4294966645
183.36548 2338.155 -651.29608 4294966645
185.26389 2338.2756 -651.97003 4294966645
187.73538 2338.2097 -651.74493 4294966645
189.31708 2338.0537 -651.89899 4294966645
195.31015 2337.7844 -651.88379 4294966645
199.71101 2337.2129 -651.67322 4294966645
203.35757 2337.0952 -651.63892 4294966645
117.63185 2342.8235 -651.091 4294966645
119.6554 2342.7 -651.07196 4294966645
121.59311 2342.6018 -651.5517 4294966645
125.82607 2342.4749 -651.36578 4294966645
129.59666 2342.2859 -651.49976 4294966645
131.60617 2342.1672 -651.57813 4294966645
133.12808 2342.0867 -651.62109 4294966645
135.62614 2341.9595 -651.60693 4294966645
137.69441 2341.6462 -651.51062 4294966645
139.33528 2341.5391 -651.54285 4294966645
141.20886 2341.4375 -651.58917 4294966645
143.66209 2341.22 -651.16632 4294966645
145.54752 2341.0896 -651.08905 4294966645
159.36902 2340.4307 -651.43896 4294966645
161.74319 2340.1775 -651.47687 4294966645
65.311928 2345.1653 -651.67444 4294966645
66.765457 2344.8428 -651.83643 4294966645
69.006813 2344.5232 -651.91467 4294966645
71.079163 2344.3257 -651.71985 4294966645
75.591484 2344.3022 -651.28839 4294966645
79.603683 2344.2678 -651.03925 4294966645
107.78794 2343.4705 -651.98187 4294966645
109.51729 2343.3833 -651.97174 4294966645
111.69311 2343.1531 -651.84186 4294966645
113.35771 2343.0754 -651.81573 4294966645
61.204105 2346.4358 -651.11823 4294966645
58.963863 2349.5601 -651.34869 4294966645
253.99747 2356.0212 -651.54889 4294966645
181.24153 2360.0356 -651.91565 4294966645
185.42703 2359.875 -651.75867 4294966645
200.63759 2359.8931 -651.81934 4294966645
228.32149 2359.4153 -651.83539 4294966645
231.03448 2359.5796 -651.39587 4294966645
143.77072 2363.5779 -651.10516 4294966645
153.45924 2362.6204 -651.45789 4294966645
155.35036 2362.2908 -651.89703 4294966645
159.46739 2361.8533 -651.95068 4294966645
223.18201 2361.9255 -651.09467 4294966645
119.01464 2365.1624 -651.85138 4294966645
123.33685 2364.563 -651.97089 4294966645
249.55588 2378.9897 -651.04413 4294966645
259.29584 2378.1648 -651.18884 4294966645
265.62375 2377.3743 -651.0235 4294966645
269.53024 2377.6086 -651.21185 4294966645
271.26196 2377.7048 -651.22443 4294966645
273.36258 2377.7485 -651.38251 4294966645
277.4411 2377.5698 -651.46539 4294966645
283.44348 2376.2373 -651.40082 4294966645
285.49713 2376.2354 -651.43384 4294966645
289.32553 2377.239 -651.40344 4294966645
291.63504 2378.9053 -651.37396 4294966645
229.38927 2380.8848 -651.67224 4294966645
233.62001 2380.3311 -651.37341 4294966645
239.54155 2379.8853 -651.11902 4294966645
241.43965 2379.6938 -651.17731 4294966645
243.49713 2380.0083 -651.48572 4294966645
245.55997 2379.4417 -651.03809 4294966645
253.54189 2379.5349 -651.60168 4294966645
255.33099 2379.1042 -651.42615 4294966645
292.13931 2381.5723 -651.65173 4294966645
175.45174 2384.6792 -651.08356 4294966645
201.44394 2382.6421 -651.0954 4294966645
292.15912 2383.5918 -651.89502 4294966645
293.1044 2382.7659 -651.40356 4294966645
159.35725 2386.772 -651.98285 4294966645
161.6033 2386.5872 -651.95349 4294966645
173.38959 2385.5293 -651.88806 4294966645
127.29413 2389.124 -651.23914 4294966645
139.87131 2388.115 -651.04077 4294966645
205.86256 2412.5454 -651.86707 4294966645
207.47249 2413.8977 -651.48926 4294966645
208.64938 2412.1965 -651.07233 4294966645
209.70955 2414.5452 -651.21942 4294966645
259.85352 2412.6326 -651.70831 4294966645
261.98361 2413.1729 -651.58942 4294966645
209.85626 2416.4468 -651.76379 4294966645
211.63638 2415.416 -651.11877 4294966645
212.29718 2416.988 -651.44647 4294966645
211.82106 2418.2351 -651.7298 4294966645
285.4057 2330.8987 -650.63464 4294966646
287.51218 2330.7253 -650.56195 4294966646
289.56604 2330.6213 -650.6134 4294966646
291.80496 2330.4758 -650.57294 4294966646
295.2251 2330.3743 -650.5929 4294966646
299.67218 2329.8887 -650.51959 4294966646
303.46271 2329.6543 -650.58032 4294966646
309.57434 2329.3342 -650.52008 4294966646
241.62982 2333.9934 -650.5589 4294966646
245.31972 2333.825 -650.81805 4294966646
255.7298 2332.8794 -650.60107 4294966646
257.42004 2332.8042 -650.61755 4294966646
259.56006 2332.668 -650.52527 4294966646
261.5459 2332.5491 -650.53271 4294966646
265.3475 2332.2429 -650.47125 4294966646
271.63251 2331.863 -650.66901 4294966646
280.91321 2331.2229 -650.66852 4294966646
199.64642 2336.7917 -650.53778 4294966646
201.70436 2336.8254 -650.45837 4294966646
205.28268 2336.6138 -650.54224 4294966646
207.52611 2336.2813 -650.57843 4294966646
211.5939 2336.1345 -650.57043 4294966646
213.98471 2335.8982 -650.46588 4294966646
219.44157 2334.7888 -650.01428 4294966646
221.57195 2334.6753 -650.13062 4294966646
225.52603 2334.7878 -650.59039 4294966646
237.27843 2334.2686 -650.51062 4294966646
239.01952 2334.1719 -650.55981 4294966646
165.31274 2339.231 -650.1214 4294966646
167.53833 2339.0313 -650.19348 4294966646
169.40497 2338.946 -650.4704 4294966646
179.73427 2338.2048 -650.5592 4294966646
185.39912 2337.7568 -650.72913 4294966646
189.32693 2337.5942 -650.66974 4294966646
191.40283 2337.5024 -650.67645 4294966646
193.35144 2337.3386 -650.58569 4294966646
195.50854 2337.1509 -650.57141 4294966646
123.3304 2342.6157 -650.99329 4294966646
149.62273 2340.7117 -650.8501 4294966646
151.35104 2340.5847 -650.97327 4294966646
155.49234 2340.5718 -650.99622 4294966646
64.678986 2345.0295 -650.11383 4294966646
83.100113 2344.2327 -650.93701 4294966646
84.868713 2344.2097 -650.89313 4294966646
87.177994 2344.2307 -650.77759 4294966646
89.610817 2344.208 -650.74414 4294966646
91.487106 2344.2134 -650.90753 4294966646
93.638199 2344.2654 -650.30634 4294966646
97.766228 2344.1628 -650.08124 4294966646
57.954433 2348.9724 -650.40436 4294966646
59.412617 2347.7581 -650.70526 4294966646
295.50961 2353.9158 -650.77588 4294966646
248.72806 2357.9634 -650.86475 4294966646
251.96404 2357.8716 -650.51801 4294966646
255.39973 2356.4187 -650.82129 4294966646
259.51859 2355.7693 -650.68823 4294966646
187.56273 2360.2703 -650.54523 4294966646
229.70557 2360.6021 -650.93036 4294966646
233.43365 2359.8564 -650.85742 4294966646
235.32294 2360.5168 -650.25714 4294966646
236.83665 2359.1978 -650.87604 4294966646
240.26575 2359.0964 -650.54053 4294966646
155.41925 2362.8567 -650.50262 4294966646
157.53587 2362.3718 -650.57837 4294966646
159.31151 2362.2661 -650.70441 4294966646
162.12457 2362.1887 -650.97754 4294966646
190.44772 2361.2551 -650.2417 4294966646
195.18999 2361.6763 -650.42303 4294966646
226.05058 2361.9202 -650.9588 4294966646
227.87286 2362.8418 -650.35059 4294966646
229.29117 2362.2954 -650.33368 4294966646
231.74411 2363.0149 -650.01733 4294966646
133.26103 2364.3843 -650.57318 4294966646
137.31084 2364.1104 -650.79578 4294966646
223.57806 2364.1387 -650.45886 4294966646
225.00989 2364.8984 -650.22742 4294966646
227.08073 2364.8301 -650.01392 4294966646
245.46803 2366.803 -650.10632 4294966646
249.01776 2366.8284 -650.20697 4294966646
251.71539 2365.8662 -650.14087 4294966646
253.60388 2366.7751 -650.26495 4294966646
257.40353 2366.9299 -650.32867 4294966646
259.41763 2364.8445 -650.18311 4294966646
233.58156 2368.8054 -650.04413 4294966646
245.4064 2368.8076 -650.4184 4294966646
246.88367 2367.2078 -650.20972 4294966646
249.29829 2368.9016 -650.35815 4294966646
251.94249 2368.7576 -650.3653 4294966646
235.49081 2370.8796 -650.18982 4294966646
243.17644 2371.8506 -650.39014 4294966646
247.45374 2371.0566 -650.37732 4294966646
249.28453 2370.9043 -650.40662 4294966646
251.92783 2370.958 -650.45264 4294966646
253.01884 2370.9702 -650.39258 4294966646
263.58234 2371.051 -650.35388 4294966646
285.7572 2371.093 -650.2796 4294966646
235.45532 2373.366 -650.15289 4294966646
237.17387 2373.084 -650.21295 4294966646
239.68314 2373.126 -650.19482 4294966646
241.52597 2373.0662 -650.3006 4294966646
245.6234 2373.1401 -650.34589 4294966646
247.25575 2373.3994 -650.34302 4294966646
249.57243 2373.6836 -650.28259 4294966646
251.59181 2373.9985 -650.19269 4294966646
259.36032 2373.8845 -650.30396 4294966646
261.30618 2373.6755 -650.1665 4294966646
263.49338 2373.8599 -650.11194 4294966646
265.49649 2373.9844 -650.09277 4294966646
267.52451 2374.3523 -650.0957 4294966646
269.46793 2374.1147 -650.2453 4294966646
273.65079 2374.7151 -650.18903 4294966646
275.45895 2375.4949 -650.30286 4294966646
279.81305 2374.6978 -650.38165 4294966646
281.23407 2374.7209 -650.49658 4294966646
283.38065 2374.1599 -650.52081 4294966646
287.30643 2373.9734 -650.60376 4294966646
289.12305 2373.5808 -650.5625 4294966646
290.98718 2375.6328 -650.73767 4294966646
291.29535 2373.2339 -650.46033 4294966646
293.39929 2375.1409 -650.55151 4294966646
225.76422 2378.2512 -650.02399 4294966646
229.13869 2378.1348 -650.22595 4294966646
233.5818 2378.8115 -650.37683 4294966646
237.36917 2378.2849 -650.39294 4294966646
239.90616 2378.22 -650.44153 4294966646
241.80042 2376.7737 -650.0954 4294966646
243.26978 2376.9482 -650.17053 4294966646
245.54198 2376.8772 -650.19611 4294966646
247.48038 2376.936 -650.21185 4294966646
249.49574 2377.5525 -650.31262 4294966646
253.55954 2377.0183 -650.29132 4294966646
255.47536 2377.1711 -650.49786 4294966646
259.38382 2376.3203 -650.47321 4294966646
261.48785 2377.3267 -650.80029 4294966646
263.55496 2376.6863 -650.66235 4294966646
265.50436 2376.3884 -650.60858 4294966646
267.32285 2376.7192 -650.78064 4294966646
269.73761 2376.2214 -650.60162 4294966646
271.29077 2376.1106 -650.6076 4294966646
275.36832 2376.8965 -650.95728 4294966646
291.38129 2377.1169 -650.98468 4294966646
292.97943 2377.4675 -650.82184 4294966646
295.02191 2377.1162 -650.62933 4294966646
217.80655 2380.8635 -650.36993 4294966646
221.39114 2379.0701 -650.00922 4294966646
231.43643 2379.8052 -650.99841 4294966646
235.55983 2379.4094 -650.84692 4294966646
237.60942 2379.3386 -650.8493 4294966646
294.55304 2380.2471 -650.92358 4294966646
171.31865 2384.7632 -650.15649 4294966646
173.56195 2384.1765 -650.06366 4294966646
177.6017 2383.7493 -650.31201 4294966646
179.41841 2383.8984 -650.41394 4294966646
181.4985 2383.3484 -650.06146 4294966646
185.55565 2383.4636 -650.19037 4294966646
187.53342 2383.6177 -650.45026 4294966646
189.76717 2382.7688 -650.02362 4294966646
191.63213 2383.1494 -650.43103 4294966646
195.52551 2382.7439 -650.6936 4294966646
197.48489 2382.4683 -650.5993 4294966646
139.36951 2387.8203 -650.47699 4294966646
141.38161 2387.7388 -650.71552 4294966646
143.28786 2387.2224 -650.26862 4294966646
153.43594 2386.97 -650.35059 4294966646
157.47243 2386.7813 -650.46075 4294966646
159.56508 2386.5398 -650.95325 4294966646
161.72377 2386.1084 -650.60065 4294966646
163.46358 2385.3376 -650.06335 4294966646
165.36469 2385.3062 -650.10095 4294966646
167.8645 2385.053 -650.13947 4294966646
119.03741 2389.5806 -650.59491 4294966646
121.18223 2389.219 -650.23389 4294966646
123.24765 2389.4861 -650.87952 4294966646
129.25447 2388.7683 -650.70361 4294966646
131.5475 2388.8157 -650.74231 4294966646
133.76535 2388.6677 -650.85358 4294966646
135.27245 2388.2478 -650.74115 4294966646
137.39967 2388.1912 -650.79132 4294966646
207.62262 2412.9656 -650.91235 4294966646
269.28943 2330.7043 -649.1651 4294966647
271.56113 2330.3201 -649.02222 4294966647
279.43655 2330.7903 -649.82214 4294966647
281.47717 2330.2554 -649.36163 4294966647
285.5242 2329.6436 -649.06189 4294966647
287.28369 2329.5894 -649.0683 4294966647
289.58081 2329.5574 -649.11322 4294966647
291.21127 2329.4275 -649.04181 4294966647
297.32559 2329.3384 -649.2569 4294966647
305.46213 2328.4026 -649.3374 4294966647
223.33206 2333.553 -649.29865 4294966647
225.72871 2333.187 -649.01154 4294966647
229.31898 2333.5903 -649.12299 4294966647
231.4821 2333.6118 -649.06195 4294966647
235.30086 2333.3867 -649.08112 4294966647
243.4453 2333.0298 -649.336 4294966647
245.48981 2333.1179 -649.71808 4294966647
249.38068 2332.6663 -649.66827 4294966647
255.35739 2331.6152 -649.12244 4294966647
257.32401 2331.646 -649.14679 4294966647
259.23135 2331.5637 -649.09796 4294966647
261.50949 2331.5571 -649.14313 4294966647
275.43823 2331.084 -649.91504 4294966647
185.41489 2336.8679 -649.40173 4294966647
189.41429 2336.6387 -649.19611 4294966647
191.39433 2336.5291 -649.17438 4294966647
201.35941 2335.6379 -649.00946 4294966647
157.75105 2339.6462 -649.37323 4294966647
162.04459 2339.5144 -649.8562 4294966647
113.30249 2342.8313 -649.79675 4294966647
117.5396 2342.6421 -649.64075 4294966647
121.44671 2342.3723 -649.84363 4294966647
125.45467 2342.1406 -649.84259 4294966647
127.37399 2341.8215 -649.45935 4294966647
129.46185 2341.8828 -649.75354 4294966647
135.5264 2341.5024 -649.84064 4294966647
137.50517 2341.3398 -649.71973 4294966647
139.4314 2341.2332 -649.74683 4294966647
141.3819 2341.1023 -649.70355 4294966647
143.7433 2341.1255 -649.8172 4294966647
147.52423 2340.6785 -649.68463 4294966647
150.03709 2340.5459 -649.70605 4294966647
151.20686 2340.4719 -649.79266 4294966647
153.66054 2340.1907 -649.90588 4294966647
61.164993 2345.5149 -649.28577 4294966647
66.966461 2344.707 -649.81311 4294966647
70.908867 2344.5049 -649.48407 4294966647
99.650284 2344.0938 -649.72015 4294966647
101.68114 2343.9351 -649.67438 4294966647
103.83385 2343.728 -649.76196 4294966647
107.64291 2343.2227 -649.89423 4294966647
257.99231 2357.6692 -649.73138 4294966647
183.97142 2360.9045 -649.47803 4294966647
237.23837 2360.52 -649.98889 4294966647
241.65964 2360.5332 -649.85101 4294966647
243.86732 2360.9585 -649.56683 4294966647
245.50754 2360.5486 -649.74506 4294966647
246.73521 2360.2937 -649.82367 4294966647
251.21724 2360.718 -649.71368 4294966647
253.56955 2360.0317 -649.5943 4294966647
257.46124 2359.8718 -649.43292 4294966647
259.07434 2359.3953 -649.64575 4294966647
260.22104 2360.0742 -649.72705 4294966647
175.55949 2362.3716 -649.04657 4294966647
181.459 2361.3711 -649.05353 4294966647
185.68962 2361.2507 -649.23584 4294966647
190.25589 2361.5266 -649.88861 4294966647
191.90578 2363.9854 -649.10614 4294966647
194.44376 2363.1592 -649.67621 4294966647
199.10646 2362.9268 -649.82117 4294966647
233.27066 2362.9824 -649.88165 4294966647
234.68155 2362.7661 -649.73206 4294966647
237.59657 2362.2473 -649.45319 4294966647
240.13342 2361.1096 -649.51324 4294966647
241.37021 2361.8584 -649.30817 4294966647
247.38528 2362.1934 -649.60834 4294966647
248.49591 2362.5955 -649.71204 4294966647
251.23575 2362.208 -649.67694 4294966647
255.08853 2362.5693 -649.73645 4294966647
257.25925 2362.26 -649.73242 4294966647
135.8479 2364.8125 -649.66321 4294966647
193.28758 2366.2297 -649.12793 4294966647
195.75461 2366.3921 -649.28882 4294966647
197.81673 2366.6296 -649.45087 4294966647
198.27948 2364.6028 -649.51526 4294966647
199.51788 2366.3005 -649.28748 4294966647
201.3582 2366.3918 -649.35187 4294966647
203.51361 2366.814 -649.4339 4294966647
213.57053 2364.4226 -649.50562 4294966647
215.40135 2364.9211 -649.37787 4294966647
227.30591 2366.7722 -649.84833 4294966647
229.13187 2365.6311 -649.89539 4294966647
231.51358 2365.7188 -649.77747 4294966647
234.97629 2364.3452 -649.61688 4294966647
237.2962 2366.5198 -649.81287 4294966647
240.90878 2364.207 -649.50922 4294966647
241.25253 2366.7302 -649.95251 4294966647
243.4666 2366.5015 -649.98236 4294966647
245.20883 2364.3792 -649.72278 4294966647
248.7869 2364.7104 -649.92188 4294966647
114.17855 2367.2939 -649.56183 4294966647
201.62106 2368.5088 -649.52185 4294966647
205.82753 2368.7751 -649.67944 4294966647
231.78094 2368.76 -649.98511 4294966647
163.51556 2372.7219 -649.18671 4294966647
168.81526 2372.9827 -649.29211 4294966647
173.46764 2372.9038 -649.39874 4294966647
179.10883 2372.8677 -649.59766 4294966647
155.36957 2374.791 -649.16827 4294966647
163.23347 2374.9473 -649.33923 4294966647
165.84793 2374.7192 -649.35773 4294966647
171.77158 2374.8325 -649.41577 4294966647
177.37489 2374.9807 -649.50507 4294966647
179.09619 2375.0491 -649.55627 4294966647
233.51054 2375.9954 -649.98193 4294966647
137.4883 2378.9644 -649.0282 4294966647
139.38449 2378.8704 -649.04443 4294966647
153.56348 2377.9177 -649.09174 4294966647
159.29773 2377.8569 -649.2699 4294966647
167.4315 2377.0366 -649.35223 4294966647
177.54216 2377.4453 -649.35406 4294966647
179.23187 2377.5583 -649.38531 4294966647
181.61824 2377.5007 -649.46796 4294966647
235.46515 2376.0015 -649.92847 4294966647
237.21814 2376.2456 -649.89038 4294966647
239.68311 2376.1621 -649.9505 4294966647
163.25034 2379.7563 -649.2298 4294966647
165.27084 2379.7437 -649.22577 4294966647
167.4688 2379.7581 -649.19263 4294966647
169.38893 2380.0862 -649.14392 4294966647
171.62344 2380.4092 -649.12579 4294966647
174.04129 2379.4363 -649.17682 4294966647
175.51521 2379.6533 -649.13141 4294966647
177.73296 2380.0242 -649.07361 4294966647
179.36731 2380.5049 -649.11078 4294966647
181.70937 2380.1904 -649.19458 4294966647
183.97658 2380.9712 -649.36646 4294966647
191.86142 2381.0662 -649.60791 4294966647
139.81375 2384.072 -649.05121 4294966647
141.9212 2384.1899 -649.01807 4294966647
157.2518 2382.0244 -649.05011 4294966647
159.52631 2382.7742 -649.23651 4294966647
161.78246 2383.2695 -649.37885 4294966647
163.70053 2383.4595 -649.45483 4294966647
165.34334 2384.199 -649.59216 4294966647
167.69902 2383.7556 -649.60413 4294966647
169.59373 2384.5557 -649.76831 4294966647
171.70796 2384.1875 -649.76782 4294966647
175.1572 2382.1685 -649.37567 4294966647
177.83008 2382.2734 -649.49786 4294966647
179.51161 2382.7407 -649.67505 4294966647
181.78127 2382.1292 -649.47083 4294966647
185.69086 2382.7488 -649.80707 4294966647
127.37402 2386.8416 -649.11731 4294966647
129.34027 2387.123 -649.27612 4294966647
131.65704 2387.127 -649.42865 4294966647
133.85002 2386.95 -649.47168 4294966647
137.69183 2385.9446 -649.1214 4294966647
139.82695 2385.9919 -649.30353 4294966647
157.8054 2386.2178 -649.75946 4294966647
161.55081 2385.0503 -649.76898 4294966647
117.39163 2389.0745 -649.72357 4294966647
119.6565 2388.9253 -649.68793 4294966647
123.48471 2388.8462 -649.81696 4294966647
125.65495 2388.739 -649.75671 4294966647
299.78281 2326.8652 -648.18738 4294966648
301.64886 2326.8113 -648.14655 4294966648
303.60855 2326.6641 -648.23853 4294966648
305.25769 2327.2844 -648.44501 4294966648
307.35062 2327.3381 -648.49384 4294966648
225.80135 2329.9763 -648.12958 4294966648
239.58949 2330.8455 -648.05786 4294966648
241.45625 2330.9016 -648.12921 4294966648
243.65227 2330.7607 -648.14795 4294966648
245.71335 2330.8477 -648.22968 4294966648
247.68445 2330.1409 -648.24731 4294966648
249.63181 2330.0728 -648.13141 4294966648
251.46161 2328.0017 -648.02936 4294966648
253.79279 2329.9048 -648.3371 4294966648
255.683 2330.0664 -648.3844 4294966648
257.46899 2330.0662 -648.36627 4294966648
261.28772 2330.0798 -648.4408 4294966648
265.63351 2330.1956 -648.57233 4294966648
267.6311 2329.4077 -648.45953 4294966648
273.48322 2328.0386 -648.2149 4294966648
275.47705 2329.3101 -648.68365 4294966648
277.49298 2329.3738 -648.66235 4294966648
279.32718 2328.6768 -648.48926 4294966648
281.58661 2328.0129 -648.20648 4294966648
283.36404 2328.1333 -648.2868 4294966648
287.48715 2328.1648 -648.37469 4294966648
291.44849 2328.2925 -648.26471 4294966648
295.47308 2329.0493 -648.81317 4294966648
299.41565 2328.5244 -648.97852 4294966648
301.48825 2328.2683 -648.95697 4294966648
217.53241 2333.3247 -648.52643 4294966648
219.21217 2333.3359 -648.6723 4294966648
221.49438 2332.6133 -648.70685 4294966648
223.6235 2332.4089 -648.53723 4294966648
227.46207 2332.6438 -648.69922 4294966648
229.27133 2332.1118 -648.40277 4294966648
239.48576 2332.5901 -648.83673 4294966648
241.47107 2332.5879 -648.93451 4294966648
245.47235 2331.7168 -648.70996 4294966648
251.39056 2331.1345 -648.77673 4294966648
253.68709 2331.3044 -648.91541 4294966648
179.3717 2336.415 -648.22778 4294966648
181.35371 2336.6357 -648.59094 4294966648
183.37144 2336.4128 -648.71857 4294966648
187.48315 2335.9724 -648.59723 4294966648
193.32036 2335.2161 -648.33282 4294966648
197.49518 2335.6626 -648.86591 4294966648
199.42677 2335.4597 -648.71594 4294966648
203.34137 2334.8306 -648.40814 4294966648
205.40643 2335.2356 -648.67871 4294966648
207.53247 2335.1938 -648.76703 4294966648
209.49567 2334.7327 -648.61639 4294966648
149.7355 2339.9824 -648.43976 4294966648
151.47957 2339.3469 -648.29449 4294966648
153.35648 2339.1453 -648.32288 4294966648
155.41801 2339.4482 -648.54504 4294966648
159.51938 2338.7061 -648.39801 4294966648
161.42322 2338.7637 -648.6377 4294966648
163.33044 2338.6086 -648.7782 4294966648
165.48952 2338.4534 -648.87463 4294966648
167.46013 2337.6106 -648.34729 4294966648
169.3649 2337.8286 -648.651 4294966648
171.37704 2337.4683 -648.45813 4294966648
175.34506 2337.3804 -648.55353 4294966648
107.6415 2342.8311 -648.56232 4294966648
111.42154 2342.5081 -648.71039 4294966648
113.54735 2342.3604 -648.5777 4294966648
117.79574 2342.3638 -648.53821 4294966648
119.61007 2342.1084 -648.39038 4294966648
123.4386 2341.4407 -648.11157 4294966648
125.50271 2341.0938 -648.10187 4294966648
131.49739 2340.7922 -648.30341 4294966648
133.31395 2340.7661 -648.31726 4294966648
135.73982 2340.5972 -648.2229 4294966648
137.49911 2340.6279 -648.37347 4294966648
139.51859 2340.4971 -648.33612 4294966648
141.16061 2340.5171 -648.46527 4294966648
143.77823 2340.4238 -648.58063 4294966648
83.155777 2344.5544 -648.79639 4294966648
87.537498 2344.5374 -648.59674 4294966648
101.14668 2343.5383 -648.01697 4294966648
105.22252 2343.22 -648.35376 4294966648
57.750828 2347.0872 -648.94171 4294966648
188.28891 2362.8311 -648.76117 4294966648
157.30818 2364.387 -648.61658 4294966648
173.8763 2365.668 -648.49255 4294966648
176.84312 2364.7249 -648.49731 4294966648
179.58376 2364.0903 -648.68628 4294966648
183.36592 2364.9185 -648.87891 4294966648
185.67401 2364.717 -648.61108 4294966648
187.70599 2365.5364 -648.68988 4294966648
189.85545 2366.0696 -648.86749 4294966648
124.33721 2376.7629 -648.82361 4294966648
133.89153 2378.8088 -648.90149 4294966648
135.45889 2376.7397 -648.95673 4294966648
151.27081 2377.835 -648.97339 4294966648
121.87898 2381.0835 -648.82178 4294966648
128.92227 2381.6123 -648.70209 4294966648
131.46048 2380.8511 -648.79523 4294966648
134.15755 2380.8171 -648.85724 4294966648
135.79105 2381.6558 -648.8277 4294966648
137.41414 2381.3967 -648.85675 4294966648
139.57646 2381.3989 -648.87891 4294966648
141.62112 2381.6079 -648.86395 4294966648
151.61086 2381.7415 -648.81836 4294966648
153.03691 2381.7927 -648.88818 4294966648
119.57951 2384.6587 -648.48596 4294966648
122.02988 2384.1831 -648.60358 4294966648
123.48003 2384.0588 -648.63318 4294966648
125.68919 2383.9033 -648.65302 4294966648
127.31849 2384.1077 -648.6391 4294966648
131.80423 2383.8594 -648.61163 4294966648
134.3452 2384.8643 -648.90302 4294966648
135.7133 2384.666 -648.79059 4294966648
137.71274 2384.0369 -648.96027 4294966648
145.32816 2383.9192 -648.9491 4294966648
155.30042 2382.0322 -648.98529 4294966648
117.04598 2385.6182 -648.65668 4294966648
119.82674 2387.1531 -648.81146 4294966648
121.79121 2386.8601 -648.86169 4294966648
123.71448 2386.7864 -648.86969 4294966648
253.5657 2327.8298 -647.87549 4294966649
259.44708 2327.9888 -647.90277 4294966649
279.07614 2326.0544 -647.96069 4294966649
281.64023 2325.9739 -647.91394 4294966649
285.54724 2326.0479 -647.83795 4294966649
287.49521 2326.0994 -647.8562 4294966649
289.60034 2326.7468 -647.89551 4294966649
295.66928 2326.7678 -647.9245 4294966649
297.50867 2326.2859 -647.93854 4294966649
227.59323 2330.0615 -647.93481 4294966649
235.58368 2330.9084 -647.93793 4294966649
237.474 2330.8149 -647.97351 4294966649
247.66946 2328.0427 -647.8797 4294966649
255.56688 2328.188 -647.87671 4294966649
263.2561 2328.1863 -647.97443 4294966649
155.29289 2333.6245 -647.08344 4294966649
157.30988 2333.479 -647.05713 4294966649
161.6199 2333.7737 -647.10876 4294966649
148.09564 2336.7661 -647.10596 4294966649
149.70132 2336.7358 -647.16205 4294966649
153.61604 2336.6389 -647.33636 4294966649
155.28133 2336.1423 -647.25183 4294966649
157.43382 2336.0469 -647.26862 4294966649
159.6564 2336.0718 -647.24152 4294966649
161.66455 2336.1638 -647.31097 4294966649
163.39777 2335.9805 -647.15588 4294966649
165.49138 2336.1311 -647.47522 4294966649
167.61339 2334.2122 -647.00531 4294966649
169.40688 2335.9216 -647.3924 4294966649
171.08527 2335.7878 -647.42401 4294966649
173.50343 2336.0254 -647.51929 4294966649
177.72795 2334.9597 -647.40289 4294966649
183.55919 2334.2275 -647.58783 4294966649
189.52899 2334.0686 -647.71356 4294966649
123.14317 2339.8455 -647.21283 4294966649
129.34856 2339.3345 -647.33221 4294966649
131.30949 2339.2412 -647.29419 4294966649
133.43784 2339.4355 -647.36896 4294966649
135.23694 2339.2744 -647.36438 4294966649
139.49326 2338.7456 -647.26105 4294966649
141.57602 2338.7983 -647.30139 4294966649
143.42365 2338.8059 -647.36462 4294966649
145.48283 2338.7183 -647.42493 4294966649
147.3477 2339.3225 -647.62445 4294966649
149.11267 2338.9788 -647.79456 4294966649
151.35463 2337.9307 -647.52759 4294966649
153.5163 2337.844 -647.63831 4294966649
157.46262 2337.8691 -647.77441 4294966649
159.66559 2337.5825 -647.72321 4294966649
165.37938 2337.199 -647.93695 4294966649
109.53785 2341.7476 -647.26727 4294966649
111.21212 2341.2588 -647.12006 4294966649
113.59001 2341.2947 -647.29547 4294966649
115.47482 2341.4194 -647.44855 4294966649
117.53217 2341.2471 -647.44385 4294966649
121.64371 2340.9666 -647.46558 4294966649
59.297512 2345.7615 -647.7088 4294966649
62.65131 2345.0476 -647.89667 4294966649
65.266853 2344.9055 -647.47693 4294966649
67.22229 2344.8853 -647.36761 4294966649
92.072418 2344.5457 -647.81488 4294966649
95.45636 2344.2974 -647.7019 4294966649
