# .PCD v0.7 - Point Cloud Data file format
VERSION 0.7
FIELDS x y z rgba
SIZE 4 4 4 4
TYPE F F F U
COUNT 1 1 1 1
WIDTH 1303
HEIGHT 1
VIEWPOINT 0 0 0 1 0 0 0
POINTS 1303
DATA ascii
205.59367 1575.5757 -79.175484 16364
211.58664 1575.0974 -79.07238 16364
139.64424 1580.3369 -79.642807 16364
143.63974 1580.3474 -79.972176 16364
147.47609 1580.094 -79.669701 16364
149.70534 1579.7806 -79.741371 16364
153.74583 1579.4711 -79.715836 16364
157.99011 1579.1476 -79.803116 16364
159.38184 1578.8583 -79.588409 16364
163.27014 1578.5381 -79.402138 16364
167.15443 1578.3328 -79.615067 16364
69.605598 1581.9611 -79.326012 16364
71.170258 1583.6018 -79.666428 16364
99.174675 1582.7792 -79.210876 16364
102.3198 1582.9039 -79.165634 16364
105.63727 1582.7404 -79.729172 16364
106.6712 1582.6261 -79.149567 16364
110.96857 1582.3201 -79.420113 16364
115.44151 1582.0194 -79.158569 16364
121.88734 1581.7098 -79.83773 16364
123.12219 1581.552 -79.491371 16364
124.94371 1581.4607 -79.39135 16364
75.649109 1584.2717 -79.467331 16364
77.552719 1584.2274 -79.434677 16364
79.034119 1584.2399 -79.716614 16364
385.46722 1538.9514 -78.384239 16364
387.61426 1538.8948 -78.332672 16364
389.44385 1538.8617 -78.28759 16364
391.58585 1538.5804 -78.319382 16364
395.30109 1538.5283 -78.365158 16364
407.05688 1538.6476 -78.459251 16364
409.41876 1537.9916 -78.960548 16364
411.31729 1538.2823 -78.68734 16364
413.49194 1538.3438 -78.798492 16364
358.3638 1541.5264 -78.084511 16364
365.29907 1539.8286 -78.58107 16364
369.37274 1539.6174 -78.348312 16364
371.35049 1539.3981 -78.50412 16364
373.59344 1539.277 -78.36113 16364
375.50803 1539.0594 -78.550606 16364
377.43433 1539.0323 -78.417389 16364
379.37308 1539.2031 -78.060791 16364
383.18915 1539.1586 -78.147034 16364
411.35721 1539.8795 -78.039711 16364
416.97412 1539.7747 -78.672935 16364
417.32983 1541.9708 -78.508339 16364
311.45059 1544.1664 -78.144264 16364
319.56366 1543.4811 -78.574867 16364
321.25922 1543.4454 -78.364769 16364
327.66916 1542.7771 -78.568138 16364
329.58984 1542.9409 -78.10128 16364
335.59753 1542.2396 -78.683487 16364
337.75952 1542.7587 -78.750771 16364
340.06821 1542.6359 -78.785431 16364
341.80151 1542.5856 -78.647385 16364
346.27591 1542.2135 -78.501671 16364
349.22122 1542.0922 -78.229927 16364
415.44702 1543.3225 -78.338959 16364
419.54086 1542.057 -78.772522 16364
259.61935 1547.6527 -78.997246 16364
262.01898 1547.4713 -78.888138 16364
267.31628 1547.4829 -78.069443 16364
269.29794 1547.4174 -78.016724 16364
271.35782 1547.0641 -78.063087 16364
291.5152 1545.2821 -78.764954 16364
293.43689 1545.1178 -78.939743 16364
235.83968 1550.4054 -78.948418 16364
238.05217 1550.2737 -78.496994 16364
239.82304 1549.7299 -78.705963 16364
241.63885 1549.553 -78.167618 16364
242.99925 1549.2478 -78.585342 16364
246.58553 1549.1935 -78.24234 16364
247.80714 1548.9747 -78.506172 16364
249.39575 1548.829 -78.910736 16364
251.82286 1548.9283 -78.212494 16364
183.70389 1553.5292 -78.548569 16364
187.32408 1553.2502 -78.553001 16364
191.8849 1552.874 -78.858078 16364
193.37785 1552.8683 -78.607819 16364
195.34015 1552.6621 -78.426643 16364
197.57014 1552.4589 -78.644562 16364
201.23306 1552.2355 -78.505798 16364
203.52936 1552.0874 -78.574989 16364
207.33121 1551.9584 -78.458069 16364
209.18193 1551.8884 -78.336075 16364
211.45438 1551.6841 -78.309502 16364
213.32915 1551.577 -78.278305 16364
214.88531 1551.4139 -78.375595 16364
217.69334 1551.1652 -78.470596 16364
219.36298 1551.0901 -78.384552 16364
223.02779 1552.0446 -78.180336 16364
225.19025 1551.5963 -78.958878 16364
227.87987 1552.2877 -78.007477 16364
230.07047 1551.4806 -78.533188 16364
231.49483 1551.4133 -78.216171 16364
233.42435 1551.0472 -78.434013 16364
421.33487 1551.6251 -78.708977 16364
423.56583 1552.8413 -78.952667 16364
149.63573 1556.8546 -78.534103 16364
151.44609 1556.861 -78.379745 16364
153.58949 1556.7513 -78.258713 16364
155.38298 1556.4084 -78.316368 16364
159.39964 1555.4246 -78.546829 16364
161.54552 1555.3503 -78.103607 16364
163.32014 1555.1659 -78.074104 16364
165.48398 1554.8888 -78.219406 16364
167.49405 1554.8783 -78.207413 16364
419.93729 1554.75 -78.729713 16364
127.52388 1559.0482 -78.778381 16364
129.3311 1558.8286 -78.778862 16364
131.46169 1558.6086 -78.753128 16364
133.48741 1558.6705 -78.411621 16364
135.40369 1558.4236 -78.530411 16364
139.72929 1558.0865 -78.227303 16364
141.2709 1558.1179 -78.126244 16364
147.40555 1557.1929 -78.355919 16364
403.6467 1558.417 -78.206604 16364
405.59897 1558.0267 -78.173592 16364
411.27478 1557.594 -78.786377 16364
413.52219 1557.3135 -78.872658 16364
103.37231 1562.4155 -78.756508 16364
105.40355 1562.1478 -78.619667 16364
107.75327 1561.9354 -78.593544 16364
108.88612 1560.8354 -78.835747 16364
111.42937 1562.0859 -78.196815 16364
113.32703 1561.075 -78.559265 16364
123.43998 1560.0691 -78.460304 16364
353.65146 1562.7349 -78.166435 16364
360.30826 1562.7025 -78.729774 16364
362.05252 1562.2996 -78.259811 16364
364.54126 1562.4727 -78.930229 16364
367.08102 1562.5103 -78.509956 16364
371.15009 1562.153 -78.566544 16364
375.04803 1561.8572 -78.563255 16364
377.08612 1561.629 -78.51696 16364
385.60864 1560.9174 -78.486031 16364
388.08679 1560.8073 -78.636414 16364
393.18243 1560.1963 -78.38678 16364
396.03052 1560.0187 -78.54847 16364
77.048134 1565.7983 -78.974892 16364
79.628899 1565.6569 -78.911362 16364
80.988136 1565.9304 -78.955475 16364
85.292397 1565.4791 -78.981323 16364
89.199982 1565.9176 -78.8573 16364
93.355728 1564.7024 -78.68174 16364
95.536385 1564.7729 -78.58139 16364
97.101395 1563.7275 -78.688194 16364
101.33922 1564.8384 -78.252831 16364
331.55615 1565.8243 -78.923561 16364
333.38708 1565.6707 -78.825752 16364
336.46329 1564.5227 -78.09359 16364
339.73392 1564.0181 -78.239212 16364
341.06982 1563.9841 -78.283409 16364
347.40549 1563.6831 -78.686256 16364
349.93652 1563.45 -78.693237 16364
77.575287 1567.8859 -78.682083 16364
79.558754 1568.0704 -78.609734 16364
81.301216 1568.3562 -78.603935 16364
83.278572 1568.5215 -78.654015 16364
87.657799 1568.1191 -78.846558 16364
89.298218 1568.6313 -78.784851 16364
91.048706 1568.8298 -78.744392 16364
93.579292 1568.4849 -78.578072 16364
99.250465 1567.5183 -78.241241 16364
295.50198 1568.7885 -78.922371 16364
301.65677 1568.054 -78.457802 16364
315.26608 1567.017 -78.774429 16364
321.85385 1566.5901 -78.293282 16364
323.57956 1566.4794 -78.361557 16364
325.60181 1566.2454 -78.566681 16364
327.07834 1566.1537 -78.725975 16364
77.78804 1571.0179 -78.72139 16364
79.897888 1570.6444 -78.605598 16364
81.155304 1570.7922 -78.532166 16364
82.795509 1570.6399 -78.603676 16364
87.486237 1570.4703 -78.792809 16364
91.808495 1570.7917 -78.716393 16364
93.330544 1571.0679 -78.61467 16364
101.74496 1569.0006 -78.134605 16364
230.50629 1571.9808 -78.201675 16364
233.01845 1571.8342 -78.445137 16364
237.08286 1571.7988 -78.911804 16364
241.52238 1570.6672 -78.02845 16364
246.22191 1570.2257 -78.15744 16364
254.5529 1570.582 -78.496803 16364
256.84894 1570.2325 -78.179306 16364
261.18356 1571.4193 -78.986069 16364
265.07947 1570.8582 -78.766472 16364
277.65549 1569.9432 -78.324142 16364
283.76691 1569.7136 -78.87944 16364
76.844467 1574.7845 -78.608803 16364
77.386688 1572.5248 -78.69928 16364
79.660553 1574.0286 -78.318779 16364
81.972839 1572.84 -78.317459 16364
83.460968 1573.8895 -78.337624 16364
87.794769 1572.6069 -78.657303 16364
89.839897 1572.7916 -78.722771 16364
91.226151 1574.8247 -78.390434 16364
93.560272 1572.9333 -78.476944 16364
95.263 1574.9879 -78.029488 16364
97.264931 1572.926 -78.165199 16364
212.54869 1574.7561 -78.083351 16364
217.44693 1574.5947 -78.898643 16364
221.1469 1574.3452 -78.099113 16364
223.39456 1574.0786 -78.94323 16364
228.81783 1572.6663 -78.759384 16364
73.781364 1577.1151 -78.931145 16364
75.400253 1577.4524 -78.551498 16364
77.40567 1577.2716 -78.148804 16364
87.129036 1575.6851 -78.197044 16364
170.0939 1577.8018 -78.792885 16364
171.14153 1577.5227 -78.289345 16364
181.81613 1577.0337 -78.001434 16364
183.44681 1577.1526 -78.87648 16364
187.53555 1576.8508 -78.256195 16364
189.32983 1576.7286 -78.332741 16364
191.42972 1576.4344 -78.250534 16364
193.32004 1576.2668 -78.120934 16364
200.76494 1575.9369 -78.261536 16364
204.01691 1575.4872 -78.852592 16364
207.24049 1575.2692 -78.762604 16364
75.684044 1579.9844 -78.252251 16364
77.862701 1580.6552 -78.010666 16364
141.67023 1579.9712 -78.81398 16364
145.41747 1579.5787 -78.521751 16364
149.73567 1579.4504 -78.495918 16364
150.91583 1579.1218 -78.344673 16364
155.79582 1578.92 -78.630981 16364
159.23866 1578.4656 -78.293655 16364
161.95189 1578.3428 -78.331955 16364
165.26212 1578.0623 -78.208496 16364
73.630302 1581.1654 -78.648445 16364
74.239578 1583.1677 -78.905754 16364
75.595169 1582.2472 -78.409332 16364
77.397842 1581.8896 -78.100128 16364
79.390129 1581.771 -78.022224 16364
81.240578 1581.7562 -78.139 16364
83.312088 1582.9517 -78.698509 16364
97.36689 1582.1423 -78.037003 16364
111.70609 1582.2412 -78.87394 16364
112.79088 1581.9413 -78.367813 16364
116.04559 1581.7539 -78.696419 16364
117.81314 1581.5264 -78.587013 16364
125.79305 1581.1642 -78.761787 16364
127.19982 1581.031 -78.272141 16364
361.34116 1541.119 -77.409195 16364
364.92477 1540.9534 -77.228516 16364
367.6322 1540.4933 -77.371841 16364
369.55042 1540.459 -77.272667 16364
371.32214 1540.5846 -77.048294 16364
375.86935 1539.8452 -77.213531 16364
377.43689 1540.089 -77.13237 16364
385.20468 1540.3531 -77.065086 16364
387.5896 1540.3317 -77.28878 16364
389.3887 1540.4114 -77.260834 16364
391.29041 1540.1951 -77.328934 16364
393.37134 1540.097 -77.372726 16364
395.48267 1540.0118 -77.424576 16364
397.19092 1539.845 -77.545509 16364
401.34552 1539.8961 -77.448135 16364
403.49066 1540.8638 -77.325081 16364
405.46167 1541.8363 -77.211761 16364
407.38354 1539.6533 -77.960342 16364
409.27216 1541.8843 -77.514801 16364
413.29614 1541.8928 -77.969017 16364
303.3273 1544.6658 -77.862122 16364
305.62122 1544.5282 -77.807686 16364
307.50671 1544.4285 -77.886108 16364
309.28531 1544.3033 -77.997665 16364
313.36398 1544.373 -77.647911 16364
331.16324 1543.0823 -77.895805 16364
333.58685 1543.1519 -77.586403 16364
335.66898 1543.9753 -77.384071 16364
337.61035 1544.2322 -77.279037 16364
339.07965 1543.6077 -77.709038 16364
340.93329 1543.7456 -77.551949 16364
342.70694 1543.1691 -77.901321 16364
344.38684 1543.3317 -77.626175 16364
345.9213 1543.4312 -77.290298 16364
347.40015 1543.1066 -77.32312 16364
352.68719 1542.1541 -77.871834 16364
355.68213 1542.6023 -77.338211 16364
359.71677 1542.6202 -77.052177 16364
403.49677 1544.3715 -77.197899 16364
405.61026 1544.3536 -77.338539 16364
409.42004 1544.506 -77.671494 16364
411.42038 1544.7253 -77.89817 16364
261.52386 1547.9458 -77.498329 16364
263.10074 1547.7626 -77.745834 16364
265.70984 1547.573 -77.912514 16364
273.55582 1546.8962 -77.876724 16364
275.12262 1546.9033 -77.884727 16364
277.41898 1546.5319 -77.901222 16364
279.37463 1546.4269 -77.870972 16364
281.37589 1546.4071 -77.996727 16364
285.73096 1546.1952 -77.696823 16364
289.25815 1545.681 -77.520393 16364
291.7471 1545.3319 -77.752304 16364
293.42447 1545.4387 -77.677223 16364
295.39081 1545.2977 -77.674095 16364
299.61548 1545.0214 -77.803642 16364
403.2453 1546.6946 -77.241379 16364
405.34161 1546.7413 -77.380264 16364
407.41687 1546.8069 -77.525734 16364
240.91365 1550.2009 -77.352356 16364
243.27878 1549.8394 -77.251869 16364
245.06279 1549.7203 -77.448418 16364
248.30937 1549.469 -77.538116 16364
250.31084 1549.808 -77.15905 16364
253.75604 1548.9491 -77.789314 16364
255.37717 1548.4078 -77.794395 16364
258.08304 1548.0483 -77.989479 16364
259.58896 1548.0094 -77.703514 16364
401.39694 1548.8657 -77.09539 16364
403.38455 1548.8853 -77.210327 16364
407.50916 1548.925 -77.460083 16364
409.26221 1549.0084 -77.598694 16364
201.34412 1553.2136 -77.209564 16364
205.42311 1552.4652 -77.69931 16364
221.35316 1552.6093 -77.26062 16364
224.16367 1552.5555 -77.680557 16364
225.36981 1553.217 -77.221382 16364
232.36464 1552.0754 -77.288971 16364
235.27637 1551.6598 -77.318962 16364
405.4256 1551.5609 -77.084953 16364
407.55533 1551.3755 -77.260727 16364
409.48148 1553.8208 -77.206749 16364
411.48383 1551.5342 -77.657799 16364
157.38608 1556.7416 -77.670258 16364
159.33904 1556.5681 -77.496597 16364
171.43616 1554.9681 -77.890953 16364
181.30473 1554.649 -77.321831 16364
185.48776 1554.533 -77.004196 16364
193.25124 1554.0393 -77.124939 16364
405.74527 1556.051 -77.208504 16364
407.40735 1554.0703 -77.005943 16364
409.47171 1556.8789 -77.954613 16364
411.44077 1556.0836 -77.878952 16364
137.23978 1559.9109 -77.297615 16364
141.42874 1559.6124 -77.123596 16364
143.47699 1558.4513 -77.742432 16364
145.17853 1559.0862 -77.355003 16364
151.45491 1558.3309 -77.472855 16364
153.26752 1558.1249 -77.406982 16364
155.46042 1558.1244 -77.230537 16364
393.68491 1559.1255 -77.204079 16364
397.75241 1558.9205 -77.334984 16364
399.28091 1558.4487 -77.47007 16364
401.45795 1558.1442 -77.631065 16364
125.32895 1562.0149 -77.34726 16364
127.60478 1560.3025 -77.962296 16364
129.35042 1561.032 -77.568237 16364
130.97478 1560.0781 -77.798004 16364
131.41273 1561.7385 -77.045959 16364
133.53879 1560.0172 -77.496933 16364
340.2298 1562.9526 -77.05381 16364
347.05627 1562.6848 -77.124893 16364
348.52261 1562.8545 -77.436737 16364
351.80832 1562.6796 -77.656303 16364
355.56519 1561.9384 -77.515854 16364
357.30185 1561.8541 -77.422935 16364
358.75076 1562.3146 -77.994301 16364
360.62277 1561.5077 -77.155739 16364
362.9509 1561.0988 -77.123329 16364
365.49542 1560.8506 -77.12149 16364
380.84976 1560.676 -77.456139 16364
383.61316 1560.5942 -77.604401 16364
385.48077 1560.0687 -77.252106 16364
107.59991 1563.9958 -77.986633 16364
109.18712 1563.6223 -77.917511 16364
127.44468 1563.8733 -77.011841 16364
327.68124 1565.8131 -77.093071 16364
329.53101 1565.8304 -77.541573 16364
331.80936 1565.5568 -77.684189 16364
334.34869 1564.9335 -77.837418 16364
337.92987 1563.4015 -77.143372 16364
342.48059 1563.2671 -77.487404 16364
345.05164 1563.041 -77.542305 16364
105.41422 1567.4456 -77.912682 16364
107.29362 1566.3354 -77.811813 16364
109.7124 1566.5593 -77.732513 16364
111.50482 1568.7733 -77.714676 16364
115.32617 1567.6505 -77.596222 16364
121.28555 1567.8374 -77.357529 16364
127.19738 1567.8127 -77.17189 16364
129.61462 1567.6851 -77.146393 16364
131.3275 1566.7264 -77.088478 16364
135.47398 1566.6229 -77.01326 16364
293.60193 1568.4814 -77.102272 16364
297.28415 1568.3141 -77.448677 16364
302.06815 1567.9012 -77.590363 16364
305.31622 1567.5503 -77.664833 16364
307.51932 1567.4086 -77.856117 16364
309.63382 1567.1313 -77.519096 16364
314.34006 1566.9351 -77.875557 16364
321.77856 1566.525 -77.762169 16364
102.94923 1571.173 -77.960213 16364
107.30659 1570.9985 -77.770004 16364
109.3949 1570.8568 -77.701271 16364
111.47669 1570.9777 -77.604836 16364
113.73078 1570.2146 -77.559196 16364
123.47845 1571.0555 -77.072586 16364
125.39259 1570.6815 -77.059937 16364
127.41628 1570.9443 -77.006577 16364
231.2318 1570.8608 -77.139175 16364
233.66824 1570.3815 -77.024452 16364
234.83571 1571.1118 -77.777641 16364
236.11662 1571.1234 -77.921059 16364
237.48796 1570.5566 -77.535378 16364
239.27829 1570.13 -77.321114 16364
243.93665 1570.0573 -77.664421 16364
249.14557 1569.8148 -77.762604 16364
251.65125 1569.8525 -77.830368 16364
253.39798 1569.9508 -77.678017 16364
255.00009 1569.4182 -77.023758 16364
260.78229 1570.2054 -77.001755 16364
269.32382 1570.5453 -77.587959 16364
277.47168 1569.9465 -77.640442 16364
281.44714 1569.5144 -77.474648 16364
283.0856 1569.3495 -77.399857 16364
285.37912 1569.3721 -77.442383 16364
289.41205 1569.0824 -77.566566 16364
97.326363 1574.7465 -77.877403 16364
99.624832 1572.9537 -77.965759 16364
101.34867 1572.8046 -77.874207 16364
102.10873 1574.9292 -77.464134 16364
103.62691 1572.993 -77.719727 16364
105.64291 1573.1101 -77.651489 16364
113.19276 1573.1213 -77.247993 16364
115.69247 1572.9421 -77.165276 16364
209.33765 1574.8867 -77.561623 16364
213.23952 1574.5275 -77.092125 16364
215.34442 1574.5331 -77.414871 16364
227.01227 1572.2794 -77.496086 16364
81.003265 1577.5345 -77.79071 16364
84.869499 1577.3666 -77.934013 16364
93.578995 1577.7395 -77.753059 16364
95.185867 1577.7141 -77.569 16364
97.301292 1577.7786 -77.447868 16364
99.649933 1576.3696 -77.362633 16364
103.62708 1575.5442 -77.306717 16364
105.29789 1575.5447 -77.247559 16364
109.23325 1575.4863 -77.063179 16364
179.27325 1577.1122 -77.912079 16364
185.72072 1576.9055 -77.837624 16364
191.51656 1576.4769 -77.70752 16364
193.57776 1576.1826 -77.613831 16364
194.89835 1575.9816 -77.374268 16364
197.50827 1575.868 -77.044495 16364
199.28772 1575.735 -77.030502 16364
203.05936 1575.2566 -77.022926 16364
205.60306 1575.2349 -77.739029 16364
207.47357 1575.0665 -77.597313 16364
79.199295 1579.0803 -77.820328 16364
81.341278 1579.8976 -77.837502 16364
97.768555 1579.7458 -77.361328 16364
99.585907 1579.7439 -77.230202 16364
101.04426 1578.1447 -77.110123 16364
111.47438 1580.9771 -77.373413 16364
117.57922 1580.6066 -77.344086 16364
119.20399 1580.8535 -77.666809 16364
123.59167 1580.5924 -77.766426 16364
125.08057 1580.1602 -77.30542 16364
129.25584 1580.7229 -77.660362 16364
139.95676 1578.6102 -77.049637 16364
149.94322 1578.3617 -77.027214 16364
97.538239 1581.1643 -77.705627 16364
103.28612 1582.0776 -77.66317 16364
105.58891 1581.811 -77.676277 16364
107.71139 1581.608 -77.4058 16364
108.94031 1581.7053 -77.716682 16364
109.76363 1581.0988 -77.394821 16364
113.3987 1581.6179 -77.62149 16364
115.62011 1581.3016 -77.677071 16364
367.11191 1541.7849 -76.558929 16364
369.448 1541.8514 -76.424789 16364
371.53397 1541.8551 -76.357391 16364
373.42395 1541.7007 -76.357025 16364
375.1254 1541.7054 -76.311867 16364
377.47299 1541.6045 -76.376549 16364
379.39496 1541.0583 -76.693848 16364
381.5932 1541.5428 -76.566757 16364
387.10159 1541.8485 -76.695267 16364
389.66086 1541.6453 -76.784935 16364
391.5 1541.8158 -76.661591 16364
393.41492 1541.7563 -76.841576 16364
395.49283 1541.7286 -76.912621 16364
399.36847 1541.8396 -76.963493 16364
315.55862 1544.9204 -76.766663 16364
317.41306 1544.6475 -76.91909 16364
319.30716 1544.7267 -76.707024 16364
321.5325 1544.4055 -76.873016 16364
323.39603 1544.5428 -76.674568 16364
325.45169 1544.2841 -76.844231 16364
327.54053 1544.635 -76.396332 16364
329.36423 1544.6606 -76.514702 16364
331.74237 1544.4216 -76.631332 16364
333.56189 1544.9523 -76.755768 16364
335.2413 1544.9441 -76.75576 16364
339.14395 1544.9315 -76.825195 16364
342.71396 1544.488 -76.967857 16364
346.48227 1543.965 -76.800835 16364
347.48834 1544.6731 -76.309219 16364
348.85825 1543.3157 -76.956192 16364
349.46786 1544.4923 -76.152168 16364
350.54547 1543.1842 -76.885147 16364
351.98462 1543.5342 -76.499008 16364
353.11636 1543.5775 -76.468163 16364
354.21771 1543.2828 -76.687805 16364
355.59732 1544.0623 -76.351608 16364
358.0871 1544.1825 -76.494934 16364
361.19946 1543.762 -76.51297 16364
363.39291 1542.2998 -76.550186 16364
369.64432 1543.5398 -76.034241 16364
375.42932 1543.5991 -76.008041 16364
379.53903 1543.5886 -76.122398 16364
383.27222 1543.7161 -76.319099 16364
385.50882 1543.9834 -76.275116 16364
387.40179 1543.8517 -76.327316 16364
389.72675 1544.0244 -76.402023 16364
393.2901 1544.0841 -76.559959 16364
395.1983 1544.3459 -76.68824 16364
397.53845 1544.2975 -76.827179 16364
399.37302 1544.2856 -76.937866 16364
277.38153 1547.4407 -76.49221 16364
279.47128 1547.3236 -76.507996 16364
281.48172 1547.2521 -76.490845 16364
283.33459 1547.2524 -76.30822 16364
285.53979 1547.0648 -76.318039 16364
292.50394 1546.2792 -76.199707 16364
293.46204 1546.1232 -76.170387 16364
295.57901 1546.0758 -76.113083 16364
297.47202 1545.7272 -76.601097 16364
299.47382 1545.8384 -76.38961 16364
301.47391 1545.458 -76.659981 16364
303.46185 1545.6417 -76.135223 16364
305.43884 1545.7305 -76.024643 16364
307.08133 1545.6349 -76.137245 16364
309.41495 1545.0659 -76.732597 16364
311.16058 1545.1694 -76.652122 16364
331.07739 1546.3328 -76.040398 16364
336.50311 1546.1765 -76.314926 16364
339.58456 1546.7971 -76.01532 16364
340.95935 1545.2734 -76.618866 16364
342.10754 1546.626 -76.01738 16364
344.94034 1545.2012 -76.396065 16364
364.06531 1545.7985 -76.038383 16364
375.5423 1546.3055 -76.056244 16364
242.345 1550.8783 -76.23452 16364
244.51878 1550.8925 -76.056923 16364
247.10556 1549.9093 -76.966095 16364
248.83398 1550.6674 -76.285561 16364
252.86517 1550.2229 -76.648315 16364
255.46446 1549.4384 -76.936073 16364
259.71912 1548.9259 -76.364609 16364
265.34573 1548.7777 -76.166588 16364
267.33267 1548.5316 -76.36293 16364
269.52704 1548.4021 -76.433258 16364
271.34357 1548.5129 -76.210091 16364
273.48651 1548.1887 -76.231735 16364
369.28696 1548.7144 -76.059357 16364
371.67014 1548.6152 -76.108559 16364
199.5215 1553.8392 -76.727089 16364
204.01024 1553.6279 -76.655174 16364
207.32028 1553.0886 -76.903275 16364
211.27393 1552.8201 -76.66304 16364
213.61322 1552.6215 -76.655899 16364
217.69005 1552.2637 -76.691399 16364
219.4393 1552.2529 -76.624329 16364
223.05556 1553.6543 -76.760315 16364
228.71576 1553.9186 -76.463226 16364
230.5385 1552.8994 -76.923439 16364
232.45309 1553.4662 -76.181816 16364
234.07735 1552.9539 -76.425987 16364
235.86378 1553.3066 -76.06015 16364
237.28926 1552.2301 -76.69426 16364
239.93112 1551.7332 -76.454102 16364
250.81079 1551.1981 -76.041855 16364
383.46021 1553.4193 -76.181274 16364
385.30627 1552.144 -76.364235 16364
389.2803 1553.1959 -76.355537 16364
391.56024 1553.5723 -76.321678 16364
397.27451 1553.6436 -76.458626 16364
399.73157 1552.5297 -76.699631 16364
401.83728 1553.4208 -76.722168 16364
403.77557 1553.7749 -76.803299 16364
167.34808 1556.3448 -76.867851 16364
185.31061 1556.0157 -76.173416 16364
187.24831 1555.2356 -76.51696 16364
189.42374 1555.1115 -76.543976 16364
191.40669 1555.0907 -76.543381 16364
195.57916 1554.0714 -76.920418 16364
201.40314 1554.5488 -76.269951 16364
205.4131 1554.4441 -76.134811 16364
207.44279 1554.4352 -76.015656 16364
220.189 1554.0989 -76.169014 16364
227.02084 1554.4071 -76.372337 16364
389.43625 1556.7577 -76.224319 16364
393.63547 1556.7509 -76.165703 16364
395.53354 1556.0756 -76.397469 16364
397.53375 1556.8102 -76.665428 16364
399.50354 1556.7192 -76.834076 16364
401.82693 1556.1501 -76.963257 16364
149.10524 1559.7917 -76.977974 16364
151.56935 1559.9304 -76.895409 16364
155.49695 1559.8707 -76.765961 16364
159.23413 1558.7434 -76.751167 16364
160.91075 1559.8427 -76.455643 16364
161.20778 1557.3223 -76.910896 16364
163.49356 1558.4484 -76.480988 16364
363.8335 1558.8351 -76.191277 16364
367.1821 1558.5222 -76.017845 16364
371.49451 1559.8451 -76.045174 16364
375.5325 1559.6237 -76.217522 16364
377.47916 1559.3213 -76.298248 16364
379.37329 1559.3956 -76.400581 16364
381.56519 1559.53 -76.593933 16364
382.98969 1558.304 -76.18663 16364
383.35764 1559.2836 -76.591614 16364
385.34995 1559.197 -76.727234 16364
387.58173 1559.3221 -76.927238 16364
391.41891 1557.991 -76.581116 16364
135.14201 1561.7582 -76.925957 16364
139.28679 1561.7758 -76.882813 16364
141.29897 1561.885 -76.858589 16364
143.21931 1561.8132 -76.79261 16364
145.72063 1561.799 -76.727997 16364
147.23531 1562.1058 -76.605698 16364
149.65547 1561.9967 -76.590668 16364
151.25313 1562.0454 -76.586105 16364
153.65424 1562.245 -76.592422 16364
155.19398 1562.2814 -76.572571 16364
157.14209 1562.3794 -76.527885 16364
159.34427 1562.2101 -76.485985 16364
161.36095 1562.4941 -76.477432 16364
163.52078 1562.6927 -76.431664 16364
336.39902 1562.9762 -76.341728 16364
337.03409 1562.1207 -76.145058 16364
338.5278 1561.5048 -76.116112 16364
341.44839 1562.2975 -76.584633 16364
342.52408 1561.2948 -76.104546 16364
343.67145 1562.3535 -76.706673 16364
344.33923 1561.0464 -76.054047 16364
346.16373 1561.254 -76.129547 16364
348.04724 1561.5313 -76.294029 16364
350.0553 1561.9922 -76.766464 16364
351.86435 1561.4614 -76.540581 16364
352.99661 1561.6885 -76.905586 16364
354.5293 1560.876 -76.546127 16364
356.67044 1560.3064 -76.325378 16364
358.56702 1561.0903 -76.76387 16364
359.73288 1560.3698 -76.289665 16364
361.36621 1560.5232 -76.436966 16364
362.25919 1560.0459 -76.322083 16364
367.22348 1561.2242 -76.501381 16364
369.35132 1561.1102 -76.547066 16364
371.29263 1560.9918 -76.731476 16364
373.75955 1560.683 -76.66687 16364
375.22623 1560.8038 -76.952354 16364
129.42308 1563.9617 -76.979889 16364
131.49263 1563.9796 -76.986336 16364
133.19257 1564.1892 -76.988892 16364
135.59537 1564.2744 -76.972214 16364
139.31262 1564.3079 -76.881561 16364
141.25897 1564.4034 -76.837502 16364
143.65283 1564.4207 -76.790138 16364
145.36557 1564.8556 -76.756592 16364
147.56989 1564.5637 -76.698494 16364
149.4848 1564.8741 -76.677582 16364
151.12193 1564.8051 -76.666962 16364
153.57121 1564.8156 -76.638298 16364
155.53738 1564.6674 -76.603104 16364
157.52162 1564.844 -76.569382 16364
159.3595 1564.8063 -76.535843 16364
161.29094 1564.7188 -76.499985 16364
165.74107 1564.7257 -76.384193 16364
324.92401 1565.7212 -76.34552 16364
325.20233 1565.4266 -76.048386 16364
329.54855 1564.9392 -76.329674 16364
333.59067 1564.0823 -76.588799 16364
335.12045 1563.5983 -76.50975 16364
336.25177 1563.7588 -76.839539 16364
133.48849 1568.9419 -76.947762 16364
137.30875 1568.8533 -76.831947 16364
139.53053 1567.8184 -76.81321 16364
141.80225 1568.694 -76.655067 16364
143.2674 1566.9401 -76.755974 16364
147.53596 1567.8547 -76.510872 16364
149.47635 1568.9868 -76.34684 16364
151.69312 1566.7739 -76.572479 16364
155.21059 1566.8761 -76.511871 16364
157.43584 1568.7505 -76.237221 16364
159.27718 1566.999 -76.41938 16364
161.41281 1567.9509 -76.217133 16364
163.64044 1566.6692 -76.343575 16364
167.64571 1566.8196 -76.23938 16364
235.14767 1568.4756 -76.249413 16364
237.84622 1568.0104 -76.07766 16364
240.31551 1567.9945 -76.119278 16364
247.51324 1568.9261 -76.793892 16364
249.2195 1568.354 -76.328079 16364
251.31622 1568.3263 -76.460472 16364
253.34499 1568.8486 -76.717232 16364
255.084 1568.0692 -76.099434 16364
256.96115 1568.5305 -76.215942 16364
287.35666 1568.673 -76.552231 16364
294.26413 1568.2135 -76.552086 16364
295.61935 1568.0538 -76.517365 16364
297.43219 1567.9088 -76.541641 16364
301.59128 1567.5638 -76.701569 16364
309.44424 1566.3665 -76.003006 16364
317.6875 1566.1277 -76.017952 16364
319.72263 1566.0626 -76.089569 16364
129.29723 1570.9399 -76.900566 16364
131.69331 1570.869 -76.780434 16364
133.31665 1570.9912 -76.673477 16364
137.76315 1571.3883 -76.395164 16364
139.08318 1571.449 -76.328285 16364
141.38834 1571.3038 -76.255371 16364
143.68906 1571.319 -76.121742 16364
145.29848 1569.1453 -76.427338 16364
153.29224 1569.0398 -76.277359 16364
226.69705 1570.998 -76.201035 16364
227.59048 1570.4376 -76.039024 16364
228.43689 1571.3934 -76.969086 16364
229.69115 1570.4501 -76.553627 16364
232.2379 1570.3008 -76.819588 16364
242.6694 1569.0426 -76.692558 16364
259.11407 1569.2527 -76.220085 16364
263.69153 1570.5637 -76.337967 16364
265.35745 1570.491 -76.346519 16364
269.31589 1570.2313 -76.241547 16364
271.79428 1569.9515 -76.379982 16364
275.42267 1569.6857 -76.535156 16364
279.65225 1569.264 -76.477585 16364
119.60458 1573.4082 -76.869942 16364
123.33614 1573.3264 -76.729965 16364
125.20119 1573.4498 -76.634399 16364
127.75342 1573.0729 -76.61158 16364
128.92848 1573.3624 -76.504791 16364
131.75172 1573.6313 -76.219429 16364
133.59909 1573.7192 -76.101624 16364
215.75247 1574.2876 -76.471161 16364
217.6181 1574.1466 -76.481628 16364
111.61467 1575.5844 -76.91713 16364
113.60749 1575.5791 -76.806763 16364
115.27746 1576.0239 -76.64212 16364
117.37327 1575.9143 -76.586578 16364
119.73058 1575.8674 -76.491798 16364
121.49287 1576.0852 -76.400482 16364
123.88279 1575.6583 -76.370361 16364
125.29584 1576.1058 -76.328812 16364
127.61538 1577.2915 -76.260078 16364
129.66324 1576.8408 -76.097633 16364
131.45877 1576.4956 -76.035339 16364
141.63589 1577.5898 -76.294174 16364
143.42883 1577.2554 -76.209541 16364
147.80928 1577.9261 -76.494751 16364
149.28163 1577.1406 -76.147072 16364
151.48698 1577.8217 -76.6334 16364
155.32271 1577.1666 -76.373138 16364
157.47537 1577.374 -76.387764 16364
161.51418 1577.0342 -76.360641 16364
165.05635 1576.9539 -76.498528 16364
167.51834 1576.8591 -76.623116 16364
169.34152 1575.9752 -76.076309 16364
171.32613 1576.4659 -76.756592 16364
173.35175 1575.9307 -76.391701 16364
175.00378 1575.8468 -76.319557 16364
177.41209 1575.5999 -76.093155 16364
183.43867 1576.2365 -76.104248 16364
185.25536 1576.2573 -76.082024 16364
189.53865 1576.0378 -76.085495 16364
191.55516 1575.9891 -76.309593 16364
103.70663 1579.7103 -76.999222 16364
107.89262 1579.3966 -76.988121 16364
109.38538 1579.4031 -76.816391 16364
111.58335 1578.8855 -76.804482 16364
115.72974 1578.6215 -76.651421 16364
117.89822 1578.6987 -76.759476 16364
119.36115 1578.7458 -76.763199 16364
121.3495 1578.1874 -76.577515 16364
123.35417 1578.8768 -76.789963 16364
125.70766 1578.7327 -76.63755 16364
127.51537 1579.6639 -76.873932 16364
129.38498 1579.1021 -76.688095 16364
351.05414 1544.6743 -75.935089 16364
352.6174 1544.8832 -75.80442 16364
354.19485 1544.6652 -75.969315 16364
367.11343 1543.8394 -75.956665 16364
371.26831 1543.6227 -75.954926 16364
373.27359 1543.6907 -75.968964 16364
289.41837 1547.8241 -75.388672 16364
291.48535 1547.6864 -75.319839 16364
295.00974 1547.6178 -75.265656 16364
297.4072 1547.6895 -75.370918 16364
299.41061 1546.6249 -75.613823 16364
301.46085 1547.0925 -75.44355 16364
303.56912 1547.5282 -75.282249 16364
305.26801 1547.5701 -75.280464 16364
307.35706 1547.5984 -75.28392 16364
309.48859 1546.9988 -75.539688 16364
311.49167 1546.4266 -75.810097 16364
313.14468 1546.5369 -75.785576 16364
315.14679 1547.7762 -75.199608 16364
316.01474 1546.147 -75.919472 16364
317.51263 1546.8778 -75.642014 16364
319.26321 1545.9955 -75.889694 16364
321.39163 1546.7734 -75.548279 16364
323.53131 1546.7014 -75.674225 16364
325.29303 1546.8605 -75.674698 16364
327.51474 1547.587 -75.374725 16364
329.14105 1546.9364 -75.548935 16364
337.88968 1547.8739 -75.706268 16364
340.70007 1547.9451 -75.618393 16364
343.58743 1547.5394 -75.623619 16364
344.992 1547.2546 -75.575043 16364
346.36661 1546.3705 -75.720947 16364
347.48901 1546.6638 -75.498184 16364
348.61243 1546.0344 -75.597527 16364
350.0766 1545.9742 -75.50103 16364
351.60306 1546.8068 -75.239876 16364
353.73334 1546.7246 -75.356651 16364
355.91492 1545.9919 -75.731255 16364
356.6449 1547.7468 -75.463127 16364
357.92511 1546.7971 -75.725357 16364
360.47626 1546.6372 -75.923576 16364
367.56143 1545.9543 -75.831436 16364
369.02679 1546.521 -75.915039 16364
371.59097 1546.1154 -75.942986 16364
373.37274 1546.3052 -75.996796 16364
255.21477 1550.9003 -75.936806 16364
257.56995 1550.2745 -75.665924 16364
259.39117 1550.2283 -75.534866 16364
261.60547 1549.9799 -75.376633 16364
263.32236 1550.0074 -75.309258 16364
264.06165 1549.0021 -75.999802 16364
267.12659 1550.0573 -75.483185 16364
269.26373 1549.9375 -75.54213 16364
271.21173 1549.864 -75.482384 16364
273.17145 1549.8536 -75.320137 16364
275.40189 1549.1643 -75.496933 16364
277.19955 1549.803 -75.144188 16364
279.37436 1549.0972 -75.402237 16364
281.40668 1548.9661 -75.466385 16364
283.43417 1549.172 -75.391525 16364
285.29163 1549.126 -75.343246 16364
287.3317 1548.8018 -75.300705 16364
289.25391 1549.5354 -75.070183 16364
291.22849 1548.9963 -75.144997 16364
293.45581 1548.9822 -75.101631 16364
295.41406 1549.1947 -75.074799 16364
297.55566 1549.5009 -75.041954 16364
299.52554 1549.865 -75.003532 16364
307.44724 1549.8701 -75.017746 16364
309.31644 1549.5189 -75.051376 16364
313.52713 1549.9629 -75.077744 16364
315.22897 1549.8763 -75.124992 16364
317.24728 1549.7555 -75.121696 16364
319.39816 1549.7876 -75.176941 16364
329.23776 1550.2783 -75.555977 16364
330.92288 1548.5969 -75.656525 16364
331.49664 1550.6017 -75.59491 16364
333.47418 1549.3649 -75.696259 16364
335.52005 1548.8998 -75.625092 16364
336.83151 1548.0031 -75.707092 16364
337.08307 1549.6509 -75.387436 16364
338.41107 1550.5675 -75.174721 16364
339.27179 1549.0592 -75.397362 16364
341.7179 1549.4977 -75.25013 16364
344.18604 1549.4021 -75.090866 16364
346.01617 1548.2998 -75.167343 16364
353.83038 1548.5894 -75.027245 16364
355.2482 1548.1532 -75.265343 16364
356.88434 1549.9045 -75.280693 16364
357.5448 1548.162 -75.485115 16364
358.78674 1549.5055 -75.507309 16364
360.32605 1549.3314 -75.641876 16364
362.43314 1549.4474 -75.772072 16364
365.96646 1548.7262 -75.925056 16364
215.43053 1553.8978 -75.66021 16364
241.84575 1553.3916 -75.088593 16364
242.89864 1552.465 -75.085732 16364
243.84341 1552.1604 -75.207214 16364
246.85197 1551.249 -75.883827 16364
248.82523 1552.0591 -75.469849 16364
249.79619 1551.7931 -75.659927 16364
251.02068 1553.5374 -75.13224 16364
252.59286 1552.0076 -75.605743 16364
253.55847 1552.0449 -75.600685 16364
254.95554 1552.4447 -75.391937 16364
255.01569 1553.8898 -75.095253 16364
256.89392 1551.9056 -75.418533 16364
257.60883 1553.965 -75.060234 16364
259.13773 1552.781 -75.112846 16364
269.10922 1551.6951 -75.06134 16364
293.41901 1552.2588 -75.014061 16364
297.09384 1552.2695 -75.041855 16364
299.48318 1552.1935 -75.020714 16364
301.30972 1552.4287 -75.042572 16364
303.37305 1552.1957 -75.042519 16364
305.44357 1552.3284 -75.084702 16364
309.49722 1552.6311 -75.239769 16364
328.90244 1553.3689 -75.535118 16364
332.77853 1552.9077 -75.491936 16364
334.58801 1552.1637 -75.411011 16364
335.88235 1551.6133 -75.31517 16364
336.30981 1553.8307 -75.243614 16364
337.68561 1551.9744 -75.135773 16364
339.72125 1551.7461 -75.030869 16364
355.55328 1552.1877 -75.012718 16364
356.98297 1552.4834 -75.194801 16364
358.04813 1551.8295 -75.336716 16364
359.69781 1552.3098 -75.487213 16364
361.06931 1551.2347 -75.620117 16364
362.19418 1553.1396 -75.66156 16364
365.07602 1552.1178 -75.797142 16364
193.36484 1555.8945 -75.942429 16364
197.29639 1555.8947 -75.694008 16364
199.3454 1555.8007 -75.843407 16364
201.34253 1555.9232 -75.72863 16364
203.43146 1555.9769 -75.625832 16364
205.25821 1555.8722 -75.618591 16364
209.27426 1555.1038 -75.643257 16364
211.66904 1554.0967 -75.772484 16364
213.20007 1554.8083 -75.483162 16364
215.45305 1555.5184 -75.16658 16364
217.62402 1555.5603 -75.533714 16364
220.04651 1556.5101 -75.375984 16364
222.50873 1556.2666 -75.549713 16364
224.91829 1555.2579 -75.997597 16364
226.84007 1556.924 -75.27623 16364
228.26816 1555.4519 -75.64341 16364
229.81424 1555.2606 -75.548378 16364
231.64383 1555.3553 -75.343674 16364
233.53401 1555.7104 -75.153397 16364
235.39337 1555.9506 -75.106407 16364
237.15849 1555.7867 -75.14637 16364
238.94328 1555.2651 -75.152527 16364
287.20804 1554.7601 -75.088821 16364
289.29251 1556.6664 -75.109314 16364
291.3526 1555.7185 -75.143555 16364
299.5126 1554.7937 -75.156471 16364
301.46439 1554.8571 -75.157913 16364
305.66406 1556.8018 -75.172203 16364
307.15338 1554.7732 -75.250511 16364
329.36966 1556.9598 -75.460846 16364
331.26218 1555.1058 -75.487427 16364
333.27768 1555.4321 -75.439606 16364
334.48761 1554.124 -75.393669 16364
335.21341 1555.778 -75.351501 16364
337.17178 1556.1262 -75.249649 16364
338.72229 1555.5627 -75.114571 16364
339.9686 1556.1412 -75.034058 16364
341.49496 1556.9738 -75.052177 16364
353.87097 1556.6125 -75.10717 16364
355.64194 1556.344 -75.20797 16364
356.3208 1554.2933 -75.119133 16364
357.11261 1556.0331 -75.297737 16364
358.10336 1554.2152 -75.325592 16364
360.24384 1555.0966 -75.537712 16364
362.2377 1556.4597 -75.743973 16364
364.72205 1555.7435 -75.783966 16364
367.51364 1555.5824 -75.579124 16364
369.30756 1555.7001 -75.557686 16364
371.75601 1555.8104 -75.507172 16364
375.63535 1555.9213 -75.532501 16364
377.35623 1555.8658 -75.607719 16364
379.55023 1556.0314 -75.682091 16364
383.53754 1555.767 -75.793297 16364
385.66257 1556.2976 -75.815468 16364
387.61688 1556.7057 -75.931633 16364
175.26817 1558.1248 -75.981895 16364
181.00352 1558.1661 -75.664467 16364
185.46448 1557.6595 -75.701004 16364
187.37985 1557.745 -75.511353 16364
189.61742 1557.9127 -75.510529 16364
191.45865 1557.6046 -75.534698 16364
193.35364 1557.8999 -75.507149 16364
195.40874 1557.8794 -75.448502 16364
199.37704 1557.8445 -75.522568 16364
201.44571 1557.7426 -75.415047 16364
205.53935 1557.9711 -75.32177 16364
207.19496 1557.9712 -75.148956 16364
209.45406 1558.0222 -75.057686 16364
211.37943 1557.9824 -75.033104 16364
213.51476 1558.0311 -75.049324 16364
216.12601 1558.3951 -75.112358 16364
219.00052 1558.6951 -75.038208 16364
221.34514 1558.4027 -75.011581 16364
224.78728 1557.4553 -75.21431 16364
331.67758 1558.5068 -75.403259 16364
334.00467 1557.8129 -75.404747 16364
335.87662 1558.1521 -75.409782 16364
337.74481 1558.4939 -75.414238 16364
339.56476 1559.011 -75.447891 16364
340.30853 1559.6564 -75.535004 16364
341.39474 1559.3633 -75.46701 16364
343.11023 1558.7662 -75.344658 16364
345.10794 1558.699 -75.273895 16364
347.2196 1559.3251 -75.345657 16364
349.24191 1559.9833 -75.603462 16364
350.60342 1558.3091 -75.160492 16364
353.005 1559.5841 -75.796364 16364
355.15515 1558.5887 -75.611038 16364
356.90543 1558.006 -75.55703 16364
358.60321 1558.2391 -75.743851 16364
360.33319 1558.0981 -75.764755 16364
361.69046 1558.6859 -75.927643 16364
369.69135 1558.9237 -75.372841 16364
373.55524 1558.1233 -75.644592 16364
381.52609 1557.8815 -75.83902 16364
189.24623 1560.314 -75.608421 16364
191.10344 1560.4735 -75.602142 16364
325.6745 1562.8026 -75.215706 16364
327.44791 1562.7504 -75.278076 16364
329.63486 1562.8436 -75.328011 16364
331.54352 1562.6667 -75.315041 16364
333.36032 1562.3364 -75.711594 16364
334.48706 1560.2643 -75.528679 16364
335.53693 1561.9652 -75.859299 16364
336.73392 1560.5081 -75.687737 16364
338.08432 1560.1241 -75.675346 16364
340.5368 1561.0945 -75.986664 16364
351 1560.4617 -75.892883 16364
232.46342 1565.3618 -75.010521 16364
247.8674 1565.3688 -75.161957 16364
252.24097 1564.4468 -75.012039 16364
253.884 1565.1619 -75.203682 16364
303.56912 1565.2454 -75.031532 16364
307.50687 1565.2017 -75.184807 16364
311.37781 1565.8922 -75.503448 16364
315.36038 1564.8053 -75.16526 16364
317.76184 1564.6858 -75.204498 16364
319.58887 1564.2919 -75.150452 16364
321.52612 1564.6382 -75.439713 16364
323.37311 1564.5239 -75.532288 16364
327.66397 1564.8562 -75.939079 16364
331.63751 1563.8047 -75.503983 16364
165.45107 1568.9971 -75.975388 16364
167.68155 1568.986 -75.910767 16364
191.4928 1567.0233 -75.350784 16364
195.25136 1567.0536 -75.260765 16364
197.41531 1567.0604 -75.198189 16364
228.62029 1568.7314 -75.472771 16364
230.62143 1567.5862 -75.438904 16364
232.55017 1568.5387 -75.929214 16364
242.16908 1566.6477 -75.596176 16364
245.105 1566.8887 -75.909203 16364
247.74353 1567.6497 -75.914688 16364
249.43546 1566.7528 -75.547318 16364
250.39223 1567.4639 -75.874641 16364
251.61751 1566.2721 -75.481537 16364
253.6433 1567.144 -75.808228 16364
256.40646 1566.1375 -75.331787 16364
259.17017 1567.5587 -75.246506 16364
273.27466 1568.8738 -75.156776 16364
275.57474 1568.7439 -75.248497 16364
277.38501 1568.8931 -75.581406 16364
279.53403 1568.4257 -75.229881 16364
281.39377 1568.4149 -75.257111 16364
283.18552 1568.6036 -75.628525 16364
287.47308 1567.5361 -75.003044 16364
291.64557 1567.2626 -75.174858 16364
295.43747 1567.0068 -75.246704 16364
297.40305 1566.9792 -75.356613 16364
299.50723 1567.0068 -75.624115 16364
301.68506 1566.5264 -75.405632 16364
303.03912 1566.7048 -75.762329 16364
305.58075 1566.6847 -75.971786 16364
313.01712 1566.0845 -75.733208 16364
315.01636 1566.162 -75.917091 16364
145.3654 1571.845 -75.925064 16364
149.3842 1571.7731 -75.839981 16364
153.49931 1571.5616 -75.823601 16364
155.3143 1571.7119 -75.759552 16364
157.85806 1571.6882 -75.704094 16364
159.75687 1571.4897 -75.699074 16364
161.24953 1571.9749 -75.586624 16364
165.62245 1571.9117 -75.444778 16364
169.3615 1569.4457 -75.767563 16364
177.60922 1569.8029 -75.375 16364
181.48709 1569.7362 -75.275543 16364
185.23648 1569.6525 -75.199059 16364
187.6133 1569.7067 -75.083572 16364
226.59962 1569.0323 -75.257751 16364
228.2888 1570.0575 -75.986984 16364
261.60132 1569.3333 -75.06488 16364
263.55753 1569.4331 -75.007912 16364
265.3877 1569.3085 -75.056564 16364
269.37323 1569.152 -75.110519 16364
271.44266 1569.0975 -75.036537 16364
137.67654 1573.6493 -75.9534 16364
141.31917 1573.9342 -75.653114 16364
143.53737 1574.9092 -75.399429 16364
145.48357 1574.1079 -75.445175 16364
151.43044 1573.8293 -75.42881 16364
155.34294 1574.6465 -75.342041 16364
163.44572 1572.0874 -75.496147 16364
167.51668 1574.1605 -75.324196 16364
169.72031 1572.0858 -75.195869 16364
171.13046 1574.1854 -75.359879 16364
173.51637 1572.345 -75.013145 16364
175.29036 1574.302 -75.322533 16364
179.56512 1573.564 -75.213974 16364
181.45352 1573.3257 -75.240952 16364
183.74869 1573.4871 -75.187912 16364
185.50427 1573.3574 -75.102516 16364
187.32362 1574.3268 -75.087387 16364
193.55632 1574.4197 -75.536163 16364
195.2464 1574.8936 -75.916748 16364
197.79572 1573.6133 -75.332581 16364
199.53609 1573.384 -75.131371 16364
203.45621 1574.5007 -75.72641 16364
205.62163 1573.9532 -75.639664 16364
207.34969 1574.2646 -75.819206 16364
209.39508 1573.2026 -75.069351 16364
211.60098 1573.8558 -75.507767 16364
215.45001 1573.5642 -75.42392 16364
217.72758 1573.4337 -75.477486 16364
135.57851 1576.0625 -75.716019 16364
143.36073 1576.2642 -75.85434 16364
145.83716 1576.2247 -75.715324 16364
149.3584 1576.1541 -75.791389 16364
151.93146 1576.0822 -75.80336 16364
153.79686 1576.0554 -75.660652 16364
155.48999 1576.073 -75.681824 16364
157.53741 1575.8326 -75.599289 16364
159.7059 1575.8593 -75.580803 16364
161.94423 1575.7804 -75.539024 16364
163.61084 1575.8237 -75.543526 16364
167.55722 1575.8446 -75.962204 16364
181.46777 1575.2985 -75.774147 16364
185.69958 1575.6636 -75.572327 16364
187.39441 1576.0922 -75.951683 16364
191.41083 1575.5582 -75.792084 16364
301.55414 1549.4994 -74.979126 16364
303.38248 1549.7979 -74.981575 16364
305.37466 1549.6621 -74.976868 16364
311.35748 1549.7596 -74.994614 16364
345.83646 1550.5983 -74.755287 16364
347.4621 1549.4055 -74.809471 16364
348.7645 1550.5658 -74.567741 16364
349.50769 1548.2833 -74.94487 16364
351.51001 1549.3204 -74.76741 16364
352.67108 1548.238 -74.970726 16364
353.04541 1549.9686 -74.788155 16364
354.69928 1550.1144 -74.984825 16364
245.69107 1553.4272 -74.839607 16364
248.06122 1553.5778 -74.888634 16364
260.8638 1553.8848 -74.936188 16364
261.24487 1551.7164 -74.995308 16364
263.58585 1551.6229 -74.960892 16364
265.41016 1551.8267 -74.959656 16364
275.18906 1551.8076 -74.85154 16364
277.56219 1551.6542 -74.831551 16364
279.14841 1551.9626 -74.794167 16364
281.33646 1551.8484 -74.846497 16364
283.47217 1551.9105 -74.908112 16364
285.26666 1551.9382 -74.944435 16364
287.27411 1551.8613 -74.894135 16364
289.43005 1551.8951 -74.890488 16364
291.19464 1551.8987 -74.933998 16364
341.64682 1552.493 -74.89167 16364
342.95471 1551.6218 -74.889351 16364
344.36105 1551.8878 -74.750809 16364
345.80704 1553.3083 -74.579185 16364
347.43137 1551.7815 -74.502365 16364
349.1857 1552.7765 -74.432465 16364
350.33896 1551.0007 -74.542618 16364
351.02942 1553.573 -74.507195 16364
352.08163 1551.6691 -74.602997 16364
353.80618 1552.0613 -74.779167 16364
240.55046 1554.9949 -74.925087 16364
243.6969 1554.9974 -74.50972 16364
247.21043 1555.7927 -74.372353 16364
249.11467 1556.293 -74.474297 16364
251.08446 1556.9863 -74.572723 16364
252.3958 1555.863 -74.786484 16364
253.76448 1555.7236 -74.884262 16364
255.55154 1555.4661 -74.93602 16364
257.24554 1556.1853 -74.921059 16364
259.38138 1556.6144 -74.912033 16364
263.47571 1554.12 -74.740814 16364
269.49686 1555.4888 -74.889175 16364
273.65408 1555.4498 -74.874588 16364
275.24628 1555.6145 -74.871384 16364
279.48984 1554.6305 -74.893799 16364
281.40176 1555.7202 -74.93779 16364
283.62924 1555.7126 -74.97747 16364
340.83682 1554.4769 -74.901009 16364
343.46179 1554.9604 -74.816368 16364
346.28027 1556.386 -74.754318 16364
347.80917 1554.5059 -74.500046 16364
349.83417 1555.5022 -74.59771 16364
351.88681 1556.3439 -74.880013 16364
352.88306 1554.1233 -74.720451 16364
354.66553 1554.3059 -74.925362 16364
223.53894 1559.0138 -74.899521 16364
227.99878 1559.0812 -74.637077 16364
228.90198 1557.2828 -74.896912 16364
229.68277 1559.9629 -74.443069 16364
230.7478 1557.8094 -74.668633 16364
232.72656 1558.6141 -74.521355 16364
234.77982 1559.464 -74.54776 16364
236.78046 1559.8329 -74.538673 16364
238.66028 1559.6008 -74.556686 16364
240.4361 1558.8903 -74.475296 16364
242.10661 1557.4032 -74.454536 16364
245.7849 1557.5657 -74.319908 16364
247.80347 1558.9183 -74.264076 16364
249.84172 1559.2804 -74.36393 16364
252.64407 1557.6809 -74.632751 16364
257.53796 1558.0852 -74.881966 16364
258.65372 1558.4639 -74.889565 16364
260.48364 1559.286 -74.861023 16364
262.70682 1557.4338 -74.847527 16364
277.19467 1559.0283 -74.777191 16364
279.30698 1558.944 -74.794754 16364
283.71161 1558.959 -74.845467 16364
287.50122 1558.9169 -74.889771 16364
291.82996 1559.0852 -74.897675 16364
293.36633 1558.9905 -74.920174 16364
295.54025 1559.3156 -74.828743 16364
297.29465 1558.7855 -74.939583 16364
299.43893 1559.0458 -74.873878 16364
303.45071 1558.9939 -74.866165 16364
309.05597 1559.71 -74.885345 16364
348.49066 1557.3976 -74.843048 16364
217.76486 1561.4897 -74.930588 16364
219.89445 1561.0476 -74.812675 16364
220.87018 1560.067 -74.810814 16364
221.8241 1562.0876 -74.628922 16364
222.34149 1560.2637 -74.739334 16364
223.9791 1561.8301 -74.560211 16364
225.7939 1562.9139 -74.453651 16364
226.13393 1560.1235 -74.655273 16364
227.21935 1562.6974 -74.426254 16364
228.37621 1561.5038 -74.423584 16364
231.67111 1561.3224 -74.442184 16364
246.5222 1562.1558 -74.63884 16364
248.77585 1562.1346 -74.542755 16364
259.98639 1562.1464 -74.78727 16364
273.45065 1560.9773 -74.615143 16364
275.46552 1560.9438 -74.596817 16364
279.29904 1561.5006 -74.482765 16364
281.52606 1561.1909 -74.542976 16364
283.2825 1561.4155 -74.530731 16364
287.32199 1561.4026 -74.548592 16364
289.55783 1561.6951 -74.495667 16364
291.54431 1561.6416 -74.524925 16364
295.5195 1561.7429 -74.493889 16364
297.77512 1562.1102 -74.380539 16364
307.8497 1562.7303 -74.434532 16364
311.54297 1562.7014 -74.780388 16364
315.67853 1562.5057 -74.909912 16364
214.78021 1565.0808 -74.923676 16364
216.6693 1563.8868 -74.911797 16364
218.74571 1564.4641 -74.769043 16364
220.27539 1564.0592 -74.663658 16364
222.10532 1564.6383 -74.52298 16364
223.14099 1563.4178 -74.49575 16364
224.53102 1564.9117 -74.465515 16364
226.96703 1564.9996 -74.510033 16364
228.75826 1564.2085 -74.526993 16364
230.31378 1563.156 -74.48394 16364
233.89139 1563.033 -74.74321 16364
250.25569 1564.3988 -74.92186 16364
255.42825 1563.8613 -74.993271 16364
257.4791 1563.281 -74.902809 16364
259.31808 1564.9642 -74.821831 16364
261.39209 1563.3632 -74.587372 16364
269.39178 1564.0291 -74.214905 16364
271.56851 1564.0343 -74.155548 16364
273.63422 1564.0745 -74.109734 16364
275.46954 1563.579 -74.141144 16364
281.85623 1564.26 -74.197853 16364
283.74942 1564.6816 -74.054344 16364
285.35394 1564.1841 -74.26162 16364
287.39865 1564.7845 -74.322708 16364
289.78287 1564.7328 -74.143555 16364
291.36163 1564.8248 -74.18718 16364
293.76035 1564.6617 -74.472939 16364
295.37976 1564.9067 -74.528862 16364
297.60056 1564.7614 -74.582031 16364
307.36911 1564.2874 -74.811073 16364
313.44107 1563.5219 -74.986748 16364
317.73764 1563.4204 -74.958221 16364
207.51707 1567.5773 -74.772537 16364
209.36794 1567.3654 -74.76622 16364
213.49991 1568.0042 -74.763344 16364
217.73073 1567.4354 -74.748833 16364
219.79549 1567.8141 -74.641541 16364
220.35095 1567.7478 -74.576332 16364
221.37956 1566.552 -74.517967 16364
222.2298 1568.3881 -74.639084 16364
223.27307 1566.9247 -74.527328 16364
224.57321 1568.1589 -74.775627 16364
226.03999 1566.7252 -74.667381 16364
227.40079 1567.1935 -74.859116 16364
228.85953 1566.7062 -74.931046 16364
261.41077 1566.636 -74.375671 16364
263.41455 1567.4734 -74.463135 16364
