# .PCD v0.7 - Point Cloud Data file format
VERSION 0.7
FIELDS x y z rgba
SIZE 4 4 4 4
TYPE F F F U
COUNT 1 1 1 1
WIDTH 1114
HEIGHT 1
VIEWPOINT 0 0 0 1 0 0 0
POINTS 1114
DATA ascii
64.91761 -440.88159 -527.70636 4294967295
-20.205658 -435.7341 -527.39575 4294967295
-10.512928 -436.7139 -527.81909 4294967295
5.63135 -437.82245 -527.90533 4294967295
9.5546894 -437.91141 -527.88116 4294967295
317.3916 -435.32367 -527.03992 4294967295
-58.153194 -434.10751 -527.8905 4294967295
-56.361073 -434.23972 -527.92279 4294967295
-53.262791 -433.59811 -527.99207 4294967295
-52.259258 -433.63321 -527.21887 4294967295
-50.232689 -433.57312 -527.63849 4294967295
-46.683178 -433.42834 -527.93848 4294967295
-44.449131 -433.60623 -527.90363 4294967295
-38.519978 -434.09723 -527.95239 4294967295
-28.419788 -434.75995 -527.98236 4294967295
283.19684 -432.77902 -527.20453 4294967295
289.29828 -433.32614 -527.35822 4294967295
292.83838 -433.6629 -527.65009 4294967295
295.70917 -433.88147 -527.73529 4294967295
297.96011 -433.95847 -527.34485 4294967295
300.23215 -434.21915 -527.30505 4294967295
303.40616 -434.49826 -527.85443 4294967295
305.62039 -433.86447 -527.79706 4294967295
309.66196 -434.15466 -527.93414 4294967295
-116.36193 -429.8606 -527.30933 4294967295
-112.68439 -430.30518 -527.92151 4294967295
-90.61853 -430.56693 -527.01013 4294967295
-126.88234 -428.39145 -527.93445 4294967295
131.34917 -423.06506 -527.74268 4294967295
133.82718 -423.22391 -527.89996 4294967295
135.31387 -423.31998 -527.73346 4294967295
141.48195 -423.79477 -527.68787 4294967295
143.33163 -423.95129 -527.65594 4294967295
145.47897 -424.10092 -527.90869 4294967295
149.44444 -424.37421 -527.65479 4294967295
151.5072 -424.49588 -527.8808 4294967295
153.30698 -424.60648 -527.90332 4294967295
163.09753 -425.23325 -527.97095 4294967295
86.965126 -420.13428 -527.85638 4294967295
89.553925 -420.2876 -527.6673 4294967295
95.389191 -420.79657 -527.69897 4294967295
101.2378 -421.0546 -527.99567 4294967295
105.49632 -421.23108 -527.87653 4294967295
107.37756 -421.36957 -527.87524 4294967295
109.61868 -421.44339 -527.92242 4294967295
39.59853 -417.01874 -527.71552 4294967295
41.462082 -417.1716 -527.94061 4294967295
43.239799 -417.33038 -527.94745 4294967295
45.56263 -417.44864 -527.62799 4294967295
49.242355 -417.68665 -527.737 4294967295
51.581406 -417.84094 -527.99634 4294967295
53.808941 -418.00281 -527.91809 4294967295
55.431213 -418.10974 -527.67834 4294967295
67.265228 -418.95261 -527.61694 4294967295
69.201378 -418.92184 -527.91681 4294967295
71.530273 -419.15384 -527.74347 4294967295
75.959778 -419.3797 -527.57233 4294967295
79.330551 -419.50266 -527.79742 4294967295
81.433548 -419.69235 -527.82947 4294967295
83.608025 -419.82791 -527.87213 4294967295
-4.3051505 -414.32608 -527.91394 4294967295
-2.4758158 -414.47604 -527.92596 4294967295
3.3204925 -414.89014 -527.89819 4294967295
7.6371117 -415.08728 -527.88275 4294967295
-46.230206 -411.35577 -527.81293 4294967295
-16.34511 -413.35498 -527.91577 4294967295
-10.435349 -413.7807 -527.9624 4294967295
-106.16148 -406.16742 -527.13043 4294967295
-99.146935 -406.92264 -527.24945 4294967295
264.3793 -457.07507 -526.68103 4294967295
265.14114 -456.07666 -526.2168 4294967295
281.37766 -456.10968 -526.71661 4294967295
286.32242 -456.25473 -526.50708 4294967295
293.34155 -456.70026 -526.30145 4294967295
313.51239 -457.17441 -526.43323 4294967295
315.29993 -456.12039 -526.75311 4294967295
317.61432 -456.1456 -526.02582 4294967295
261.70422 -455.84177 -526.59094 4294967295
266.89926 -455.86621 -526.08624 4294967295
277.22034 -455.71695 -526.60876 4294967295
279.59464 -455.84055 -526.54462 4294967295
319.38705 -454.43988 -526.12634 4294967295
199.28235 -449.79147 -526.98285 4294967295
90.5354 -445.56754 -526.19989 4294967295
103.42384 -444.1817 -526.94818 4294967295
105.67506 -445.09866 -526.16614 4294967295
125.53358 -445.47269 -526.02448 4294967295
127.59576 -445.42291 -526.13159 4294967295
69.279114 -441.45248 -526.32373 4294967295
73.589905 -441.92157 -526.2265 4294967295
81.419441 -442.76425 -526.08643 4294967295
87.640739 -443.49194 -526.17566 4294967295
-5.2990098 -438.59488 -526.45972 4294967295
25.331369 -439.38461 -526.21423 4294967295
27.669804 -439.66034 -526.10077 4294967295
29.599249 -439.61523 -526.38464 4294967295
35.247574 -439.84671 -526.20593 4294967295
37.290142 -439.90125 -526.31647 4294967295
39.033962 -439.98804 -526.33905 4294967295
43.511932 -440.50735 -526.10535 4294967295
45.220623 -440.57019 -526.14722 4294967295
326.06427 -439.42938 -526.18439 4294967295
-28.304388 -435.30502 -526.1756 4294967295
-16.737144 -436.51788 -526.36273 4294967295
-14.632705 -436.86288 -526.08618 4294967295
-8.5994005 -437.43182 -526.09235 4294967295
-5.9918113 -437.66174 -526.42023 4294967295
1.2724409 -437.86737 -526.65314 4294967295
-64.493347 -432.40033 -526.46649 4294967295
-62.468445 -432.71545 -526.48895 4294967295
-60.900894 -432.98154 -526.96637 4294967295
-53.981388 -433.79947 -526.76636 4294967295
-48.267147 -433.70004 -526.51489 4294967295
-44.353535 -434.01456 -526.41107 4294967295
-42.905087 -434.00726 -526.94055 4294967295
277.34738 -432.40765 -526.84283 4294967295
281.21933 -432.59906 -526.76422 4294967295
285.04263 -432.90225 -526.61469 4294967295
287.18744 -432.92133 -526.02051 4294967295
311.72537 -433.85284 -526.1073 4294967295
-125.69991 -429.06918 -526.7561 4294967295
-110.45039 -430.28842 -526.59192 4294967295
-99.859421 -430.09329 -526.78723 4294967295
-96.017548 -430.24155 -526.4787 4294967295
-93.480644 -430.40268 -526.36707 4294967295
235.27637 -429.90375 -526.01923 4294967295
251.41518 -430.91101 -526.51709 4294967295
257.35034 -431.36353 -526.35486 4294967295
-128.8123 -428.7186 -526.06458 4294967295
213.27803 -428.5676 -526.00299 4294967295
113.318 -420.92441 -526.45154 4294967295
117.43042 -421.40942 -526.34863 4294967295
-26.962408 -412.69467 -526.05225 4294967295
-110.71106 -405.66437 -526.90381 4294967295
-107.6199 -406.04968 -526.76013 4294967295
-103.7385 -406.4201 -526.73114 4294967295
-102.16413 -406.61398 -526.94299 4294967295
-96.477142 -407.26407 -526.79242 4294967295
-94.542801 -407.49512 -526.72729 4294967295
-92.723068 -407.69577 -526.72638 4294967295
263.46594 -456.04263 -525.26599 4294967295
299.95242 -457.22791 -525.1181 4294967295
301.85678 -457.90512 -525.78497 4294967295
303.91241 -458.03427 -525.85571 4294967295
305.75775 -457.8927 -525.24817 4294967295
307.63956 -457.90933 -525.72577 4294967295
309.77377 -457.91608 -525.61279 4294967295
311.1832 -457.9176 -525.45941 4294967295
313.67386 -457.99176 -525.10663 4294967295
315.28815 -457.49002 -525.66754 4294967295
317.29172 -457.55008 -525.07947 4294967295
319.44528 -456.31839 -525.3429 4294967295
253.31679 -453.99265 -525.91357 4294967295
261.67209 -455.99237 -525.0683 4294967295
269.05389 -455.46573 -525.78088 4294967295
273.63907 -455.23688 -525.95374 4294967295
321.51147 -454.50641 -525.32013 4294967295
197.60768 -450.01611 -525.6662 4294967295
199.47937 -450.18759 -525.63574 4294967295
201.38164 -450.29044 -525.8255 4294967295
207.11203 -450.46414 -525.82513 4294967295
209.05217 -450.68561 -525.70654 4294967295
211.04591 -450.936 -525.85547 4294967295
215.61591 -451.68808 -525.81012 4294967295
217.85303 -452.03986 -525.19562 4294967295
229.32385 -452.43842 -525.50415 4294967295
231.37247 -452.64886 -525.81989 4294967295
233.73936 -452.83133 -525.64484 4294967295
234.99323 -452.88605 -525.81799 4294967295
93.804878 -447.88477 -525.18231 4294967295
101.71284 -448.0462 -525.04736 4294967295
103.7105 -447.18915 -525.09741 4294967295
149.45839 -447.16412 -525.71265 4294967295
151.33467 -447.52365 -525.78827 4294967295
153.29202 -447.70255 -525.89581 4294967295
155.67322 -448.04886 -525.65094 4294967295
157.24013 -448.13168 -525.76056 4294967295
159.7361 -448.24301 -525.6781 4294967295
165.62875 -448.07678 -525.72571 4294967295
167.39493 -448.29346 -525.65582 4294967295
169.35205 -448.34424 -525.83142 4294967295
179.23792 -449.00134 -525.75348 4294967295
181.75299 -449.13828 -525.586 4294967295
187.51674 -449.46857 -525.4364 4294967295
191.60172 -449.70068 -525.50879 4294967295
87.388603 -444.90656 -525.21625 4294967295
90.020042 -445.11697 -525.51697 4294967295
91.520058 -446.11545 -525.65009 4294967295
92.130928 -444.61224 -525.43744 4294967295
97.429108 -444.64575 -525.2926 4294967295
99.695023 -445.13477 -525.49097 4294967295
101.61742 -445.07434 -525.72205 4294967295
103.29598 -445.46948 -525.80621 4294967295
105.12441 -446.56674 -525.3938 4294967295
107.50041 -445.83862 -525.70691 4294967295
131.50569 -445.85138 -525.88629 4294967295
135.39642 -446.12421 -525.75909 4294967295
137.44312 -446.24265 -525.72479 4294967295
139.56 -446.47818 -525.68121 4294967295
141.44426 -446.66159 -525.66699 4294967295
145.40855 -446.8717 -525.85126 4294967295
59.554287 -441.07535 -525.83563 4294967295
75.6306 -442.34872 -525.69379 4294967295
77.665237 -442.99933 -525.22577 4294967295
-6.9415498 -438.11667 -525.45465 4294967295
-3.3312235 -439.04749 -525.34753 4294967295
-2.1648669 -438.53806 -525.94598 4294967295
-0.88311756 -438.431 -525.18274 4294967295
3.7935658 -438.13168 -525.91846 4294967295
5.8096504 -438.24231 -525.96204 4294967295
7.819006 -438.41699 -525.65002 4294967295
9.1323452 -438.43942 -525.80438 4294967295
13.319117 -438.62234 -525.79346 4294967295
15.322176 -438.64896 -525.8504 4294967295
17.148813 -438.74887 -525.95123 4294967295
19.368622 -438.9061 -525.80164 4294967295
21.418848 -439.07764 -525.927 4294967295
41.28463 -440.3501 -525.98297 4294967295
-24.50535 -435.82544 -525.99084 4294967295
-18.875214 -436.47278 -525.99677 4294967295
-12.671054 -437.19778 -525.72009 4294967295
-10.260633 -437.43735 -525.76569 4294967295
-9.0484209 -437.62332 -525.73578 4294967295
-58.297394 -433.94424 -525.2561 4294967295
-54.718033 -434.10449 -525.1687 4294967295
-53.174572 -433.91632 -525.35077 4294967295
-38.640118 -434.83817 -525.8103 4294967295
291.89297 -433.01135 -525.19977 4294967295
294.49838 -433.15555 -525.12134 4294967295
297.6557 -433.47003 -525.32532 4294967295
302.83752 -433.80685 -525.17651 4294967295
305.66785 -433.42615 -525.84631 4294967295
307.76996 -433.71603 -525.99377 4294967295
-123.25795 -429.34808 -525.70758 4294967295
-87.621452 -430.4408 -525.5127 4294967295
-79.754692 -431.34106 -525.89075 4294967295
-74.681412 -431.76633 -525.94025 4294967295
180.11949 -426.06778 -525.99976 4294967295
181.60837 -426.18689 -525.78546 4294967295
187.6241 -426.65521 -525.96704 4294967295
189.60699 -426.72955 -525.67133 4294967295
193.19327 -427.09885 -525.63293 4294967295
197.34673 -427.40387 -525.92627 4294967295
199.46779 -427.41272 -525.61749 4294967295
203.36128 -427.86407 -525.6402 4294967295
139.74864 -423.22217 -525.3504 4294967295
141.44344 -423.28073 -525.54987 4294967295
143.53989 -423.43735 -525.51807 4294967295
147.23781 -423.84042 -525.58459 4294967295
149.38185 -423.8598 -525.68823 4294967295
151.7076 -424.15247 -525.66193 4294967295
161.18617 -424.89944 -525.67322 4294967295
165.48557 -424.95886 -525.69855 4294967295
167.34015 -425.09064 -525.66016 4294967295
169.31366 -425.21997 -525.78571 4294967295
172.98677 -425.61102 -525.86896 4294967295
175.38913 -425.79169 -525.84039 4294967295
177.36626 -425.99503 -525.9895 4294967295
97.223465 -420.47937 -525.8111 4294967295
99.248657 -420.61697 -525.94727 4294967295
101.31889 -420.64203 -525.79938 4294967295
103.48904 -420.871 -525.8772 4294967295
109.62527 -420.92789 -525.88641 4294967295
118.92037 -421.45734 -525.93781 4294967295
121.36078 -421.72873 -525.66028 4294967295
129.72209 -422.16928 -525.1579 4294967295
131.3647 -422.60767 -525.29175 4294967295
133.87321 -422.92316 -525.6521 4294967295
135.05624 -422.82956 -525.6441 4294967295
47.363613 -417.065 -525.56 4294967295
48.867409 -417.20041 -525.81171 4294967295
51.673725 -417.28717 -525.43585 4294967295
53.735504 -417.59149 -525.61499 4294967295
55.429977 -417.55826 -525.66107 4294967295
63.349545 -418.24149 -525.93579 4294967295
65.675835 -418.21292 -525.83075 4294967295
69.553238 -418.52472 -525.7298 4294967295
73.403725 -418.7222 -525.57062 4294967295
75.520859 -418.87778 -525.72345 4294967295
79.384888 -419.13522 -525.67157 4294967295
81.42514 -419.26337 -525.63068 4294967295
83.455551 -419.38809 -525.71265 4294967295
85.281212 -419.5025 -525.77411 4294967295
87.272797 -419.53122 -525.63464 4294967295
89.284828 -419.70724 -525.78131 4294967295
91.268082 -419.90015 -525.94153 4294967295
-4.6193509 -414.14456 -525.41718 4294967295
-0.78478676 -414.311 -525.71582 4294967295
1.6833807 -414.34579 -525.64636 4294967295
3.3187265 -414.49951 -525.83331 4294967295
5.6466322 -414.54828 -525.55646 4294967295
9.5016117 -414.85892 -525.75531 4294967295
13.434944 -414.99796 -525.59412 4294967295
15.476242 -415.14413 -525.62402 4294967295
21.414181 -415.63556 -525.64844 4294967295
33.285774 -416.39331 -525.74677 4294967295
35.536831 -416.52542 -525.72302 4294967295
37.313076 -416.50275 -525.6814 4294967295
39.369255 -416.66327 -525.81738 4294967295
43.158482 -416.81308 -525.552 4294967295
45.625816 -416.9873 -525.57025 4294967295
-52.477173 -411.034 -525.44696 4294967295
-50.976196 -411.15253 -525.84625 4294967295
-48.398598 -411.17987 -525.59576 4294967295
-44.668186 -411.55972 -525.51886 4294967295
-42.650436 -411.71378 -525.79144 4294967295
-36.496696 -412.14868 -525.59393 4294967295
-32.729813 -412.39459 -525.75067 4294967295
-24.719263 -412.81577 -525.38416 4294967295
-18.389305 -413.05466 -525.0899 4294967295
-6.8504448 -413.95944 -525.35541 4294967295
-76.645309 -409.19919 -525.91986 4294967295
-74.548752 -409.31558 -525.85651 4294967295
-70.848175 -409.60391 -525.8761 4294967295
-68.691483 -409.71936 -525.57129 4294967295
-66.813896 -410.00986 -525.57001 4294967295
-64.80175 -410.1485 -525.59851 4294967295
-62.422352 -410.33865 -525.44208 4294967295
-60.789467 -410.50757 -525.70886 4294967295
-58.754372 -410.70248 -525.42004 4294967295
-56.64864 -410.82986 -525.51868 4294967295
-54.469612 -410.90942 -525.6048 4294967295
-102.77042 -406.61081 -525.03485 4294967295
264.12454 -456.49814 -524.14661 4294967295
289.36829 -456.38638 -524.83643 4294967295
292.1088 -456.56421 -524.49463 4294967295
294.01395 -456.70825 -524.4115 4294967295
295.59671 -456.79169 -524.56415 4294967295
297.80173 -456.95621 -524.88623 4294967295
319.21518 -457.4664 -524.60858 4294967295
321.59607 -456.2991 -524.62744 4294967295
241.71017 -453.31198 -524.02783 4294967295
266.85587 -455.76416 -524.09821 4294967295
323.71295 -454.59961 -524.53668 4294967295
193.39079 -450.18124 -524.62372 4294967295
195.32259 -450.28317 -524.62146 4294967295
199.47824 -450.60202 -524.58911 4294967295
203.31049 -450.44836 -524.76044 4294967295
207.31682 -450.92828 -524.36084 4294967295
221.26387 -452.17572 -524.71655 4294967295
105.9267 -447.84451 -524.9314 4294967295
135.12868 -447.10245 -524.46008 4294967295
139.5056 -447.4342 -524.3949 4294967295
153.28059 -449.07056 -524.05957 4294967295
163.64513 -448.74652 -524.40417 4294967295
171.313 -449.47763 -524.00745 4294967295
175.29434 -449.1601 -524.71771 4294967295
179.40161 -449.50592 -524.61237 4294967295
181.65874 -449.55368 -524.53516 4294967295
183.4444 -449.56973 -524.64691 4294967295
185.2054 -449.70047 -524.50391 4294967295
187.26128 -449.80585 -524.39301 4294967295
189.33661 -449.9325 -524.59058 4294967295
191.23589 -449.90765 -524.82751 4294967295
129.29088 -446.67944 -524.29956 4294967295
131.48241 -446.80609 -524.30792 4294967295
133.42618 -446.98148 -524.49359 4294967295
-5.261292 -441.77081 -524.13373 4294967295
41.346489 -441.38065 -524.49811 4294967295
45.454716 -441.51697 -524.64783 4294967295
67.763092 -442.44852 -524.42487 4294967295
69.635437 -442.58179 -524.44507 4294967295
71.376419 -442.99042 -524.43542 4294967295
73.470924 -442.71606 -524.78802 4294967295
75.764572 -443.30621 -524.66333 4294967295
-12.513824 -438.53052 -524.20197 4294967295
-10.78996 -438.63232 -524.30627 4294967295
-7.0397511 -440.27148 -524.1781 4294967295
-1.8277125 -440.46265 -524.16364 4294967295
1.1471999 -438.6051 -524.97009 4294967295
3.735491 -439.42484 -524.09186 4294967295
5.5829687 -439.12567 -524.62244 4294967295
7.4631543 -439.30066 -524.50781 4294967295
9.5642004 -439.35959 -524.58282 4294967295
11.384855 -439.16418 -524.92584 4294967295
17.346075 -439.46616 -524.83197 4294967295
19.499767 -440.30505 -524.20898 4294967295
21.552139 -440.47198 -524.21228 4294967295
23.543821 -440.02136 -524.79773 4294967295
25.487303 -440.63586 -524.44727 4294967295
37.249969 -440.79169 -524.8158 4294967295
39.525646 -440.84274 -524.93121 4294967295
329.91803 -439.09207 -524.68512 4294967295
-42.505848 -435.29233 -524.54498 4294967295
-40.784149 -435.50989 -524.4519 4294967295
-34.476807 -435.72113 -524.60602 4294967295
-30.535608 -435.96014 -524.61743 4294967295
-26.221802 -436.33197 -524.67847 4294967295
-24.601463 -436.48688 -524.68713 4294967295
-22.471138 -436.7941 -524.51044 4294967295
-18.868391 -437.34055 -524.63391 4294967295
-16.451433 -437.47638 -524.76825 4294967295
-76.463547 -432.35068 -524.20038 4294967295
-71.185539 -432.96799 -524.11853 4294967295
-68.549355 -432.91016 -524.45654 4294967295
-66.303673 -433.19614 -524.3316 4294967295
-64.507927 -433.26797 -524.52216 4294967295
-60.551006 -434.07242 -524.32568 4294967295
-59.184177 -434.11316 -524.5047 4294967295
-56.797039 -434.07397 -524.98529 4294967295
-50.342693 -434.42462 -524.68079 4294967295
-48.671654 -434.57928 -524.48663 4294967295
-46.320732 -434.71732 -524.64301 4294967295
275.54187 -432.15341 -524.52118 4294967295
279.39615 -432.4704 -524.5025 4294967295
281.46167 -432.62042 -524.26306 4294967295
283.57751 -432.77252 -524.37793 4294967295
285.51184 -432.88416 -524.40857 4294967295
300.3284 -433.64636 -524.60529 4294967295
-100.29171 -429.82925 -524.19513 4294967295
-80.108017 -431.90472 -524.0813 4294967295
241.58424 -430.01849 -524.03497 4294967295
245.42168 -430.18097 -524.58716 4294967295
247.98012 -430.29745 -524.62012 4294967295
249.67932 -430.47659 -524.66705 4294967295
251.42603 -430.59448 -524.37152 4294967295
253.63896 -430.85175 -524.19092 4294967295
259.39551 -431.16995 -524.03687 4294967295
189.48022 -426.18738 -524.12445 4294967295
191.24707 -426.28226 -524.02832 4294967295
211.31178 -427.77353 -524.01306 4294967295
215.7386 -427.95218 -524.0365 4294967295
146.27997 -423.02234 -524.29156 4294967295
149.3441 -423.21054 -524.22797 4294967295
155.60243 -423.71185 -524.47644 4294967295
161.1167 -424.07941 -524.18158 4294967295
163.33461 -424.40494 -524.17432 4294967295
165.69939 -424.37769 -524.14008 4294967295
167.1503 -424.44943 -524.1037 4294967295
169.24599 -424.58118 -524.1601 4294967295
171.20905 -424.79523 -524.45862 4294967295
173.40674 -425.00659 -524.2981 4294967295
177.29272 -425.4252 -524.59613 4294967295
180.63599 -425.49374 -524.3335 4294967295
183.47107 -425.71851 -524.23358 4294967295
185.58682 -425.97552 -524.38226 4294967295
187.5752 -425.99307 -524.0921 4294967295
107.00362 -420.40283 -524.74078 4294967295
109.47796 -420.31619 -524.68103 4294967295
111.31348 -420.14624 -524.60571 4294967295
117.69016 -420.47678 -524.79077 4294967295
119.20263 -420.40408 -524.20477 4294967295
121.58795 -420.82309 -524.02429 4294967295
123.04351 -421.33508 -524.42969 4294967295
126.77732 -421.56998 -524.35938 4294967295
134.93268 -422.19638 -524.22455 4294967295
137.13615 -422.3736 -524.25238 4294967295
139.31082 -422.51239 -524.1795 4294967295
141.81883 -422.76297 -524.32013 4294967295
143.71251 -422.86243 -524.25348 4294967295
57.146675 -417.09225 -524.30713 4294967295
58.870407 -417.22205 -524.75366 4294967295
65.646202 -417.62936 -524.63165 4294967295
69.428741 -417.88776 -524.49005 4294967295
71.858009 -418.04782 -524.43024 4294967295
75.666222 -418.3204 -524.42401 4294967295
77.039894 -418.46637 -524.54382 4294967295
80.058136 -418.58536 -524.32367 4294967295
81.168526 -418.81854 -524.67609 4294967295
83.63163 -418.88684 -524.59253 4294967295
87.18325 -418.96921 -524.56506 4294967295
89.393921 -418.95114 -524.37189 4294967295
91.442795 -418.95648 -524.1626 4294967295
95.180672 -419.58328 -524.61047 4294967295
101.00578 -419.52512 -524.05743 4294967295
113.57016 -419.92755 -524.7489 4294967295
11.203079 -414.38892 -524.14496 4294967295
19.698162 -414.96829 -524.25183 4294967295
35.282543 -415.78845 -524.52124 4294967295
37.544003 -415.97049 -524.54773 4294967295
39.3465 -416.03314 -524.28705 4294967295
41.541435 -416.19028 -524.42932 4294967295
45.297634 -416.40375 -524.2525 4294967295
48.622101 -416.56158 -524.21417 4294967295
51.347233 -416.70523 -524.29572 4294967295
53.386063 -416.82657 -524.27875 4294967295
-46.560173 -411.19287 -524.83936 4294967295
-22.619999 -412.70883 -524.90735 4294967295
-20.778055 -412.84692 -524.81934 4294967295
-16.607965 -412.9906 -524.1806 4294967295
-8.6556759 -413.75677 -524.99847 4294967295
1.6631116 -413.79947 -524.1308 4294967295
3.4885554 -413.8703 -524.10602 4294967295
5.1972589 -413.98752 -524.1134 4294967295
-111.88018 -405.55429 -524.2959 4294967295
-108.56743 -405.94153 -524.93103 4294967295
-106.53735 -406.22443 -524.7179 4294967295
-100.60985 -406.84552 -524.73584 4294967295
-96.631157 -407.37769 -524.36041 4294967295
-94.342453 -407.65201 -524.42706 4294967295
-92.510574 -407.87854 -524.11786 4294967295
263.11505 -456.5318 -523.8877 4294967295
287.48361 -456.1727 -523.84698 4294967295
303.81073 -457.75833 -523.14886 4294967295
307.66476 -458.17468 -523.29694 4294967295
309.64417 -458.12811 -523.75385 4294967295
311.74609 -458.4086 -523.91315 4294967295
313.87823 -458.2912 -523.74261 4294967295
315.30505 -458.31274 -523.72491 4294967295
317.40134 -458.46091 -523.12274 4294967295
319.36072 -458.45956 -523.06 4294967295
321.41962 -457.80667 -523.56653 4294967295
323.62552 -456.17975 -523.94781 4294967295
325.30728 -456.26831 -523.35315 4294967295
229.51431 -453.10489 -523.60986 4294967295
231.45013 -453.24179 -523.55231 4294967295
233.36267 -453.33832 -523.53778 4294967295
237.26086 -453.24237 -523.9115 4294967295
269.11859 -455.76221 -523.28571 4294967295
271.07446 -455.20926 -523.29913 4294967295
273.84076 -455.3515 -523.17792 4294967295
275.41592 -455.40536 -523.59021 4294967295
277.39719 -455.53647 -523.73224 4294967295
281.27319 -455.64337 -523.8017 4294967295
325.76532 -454.57971 -523.82861 4294967295
133.57123 -450.01477 -523.15417 4294967295
137.23796 -450.01434 -523.09802 4294967295
139.38525 -450.07053 -523.09119 4294967295
141.5652 -450.02173 -523.14581 4294967295
143.53264 -450.15994 -523.16357 4294967295
145.46677 -450.16876 -523.19891 4294967295
147.48572 -450.11835 -523.03265 4294967295
151.4581 -450.32849 -523.20154 4294967295
153.60338 -450.5593 -523.23456 4294967295
157.34265 -450.7337 -523.01324 4294967295
173.72021 -450.37634 -523.17273 4294967295
177.69196 -450.71356 -523.14935 4294967295
179.5358 -450.72922 -523.10852 4294967295
181.54662 -450.55246 -523.21014 4294967295
183.20531 -450.68671 -523.08917 4294967295
185.33566 -450.74252 -523.08716 4294967295
187.47119 -450.93759 -523.07294 4294967295
191.4613 -451.19498 -523.0968 4294967295
193.33708 -451.25436 -523.14862 4294967295
197.3116 -451.53174 -523.12933 4294967295
199.14507 -451.49329 -523.28955 4294967295
227.43831 -452.66034 -523.72723 4294967295
131.37959 -448.29028 -523.6015 4294967295
133.2845 -448.4592 -523.57593 4294967295
135.65686 -449.23843 -523.31024 4294967295
137.3864 -448.69016 -523.48212 4294967295
139.64503 -448.82532 -523.50372 4294967295
143.57291 -448.13287 -523.97748 4294967295
149.51778 -448.54498 -523.94305 4294967295
155.1882 -449.52295 -523.85657 4294967295
158.0462 -449.55203 -523.93628 4294967295
165.54637 -449.12549 -523.8454 4294967295
167.33578 -449.21878 -523.96625 4294967295
19.367599 -445.36227 -523.18164 4294967295
69.4832 -444.9989 -523.44653 4294967295
71.406342 -445.12088 -523.51276 4294967295
73.557419 -445.73889 -523.63245 4294967295
75.49173 -445.53064 -523.9668 4294967295
-8.6638842 -441.98514 -523.47845 4294967295
-1.0148205 -442.1662 -523.81573 4294967295
1.6991649 -443.26944 -523.06262 4294967295
3.2962496 -441.83832 -523.15039 4294967295
7.4534564 -441.9964 -523.16638 4294967295
9.4125404 -442.11868 -523.21112 4294967295
11.626809 -441.93805 -523.24841 4294967295
15.464993 -442.92706 -523.16583 4294967295
17.368828 -441.93567 -523.33533 4294967295
19.58046 -441.90988 -523.435 4294967295
21.458027 -442.90082 -523.35645 4294967295
23.429005 -442.72314 -523.46045 4294967295
25.7328 -442.87292 -523.53528 4294967295
27.516708 -443.7641 -523.15723 4294967295
35.526966 -441.94913 -523.80194 4294967295
37.49202 -443.11307 -523.51074 4294967295
39.257507 -442.28159 -523.80493 4294967295
43.565289 -442.7211 -523.8136 4294967295
-26.244791 -438.59402 -523.03943 4294967295
-24.691471 -438.86047 -523.02246 4294967295
-22.284267 -438.78769 -523.22369 4294967295
-20.490358 -438.74353 -523.43988 4294967295
-16.977385 -439.2518 -523.40527 4294967295
-14.221539 -438.54501 -523.98199 4294967295
-12.439935 -440.72852 -523.12244 4294967295
-10.59633 -440.67532 -523.24603 4294967295
1.2688167 -440.50397 -523.87396 4294967295
5.3458858 -440.60437 -523.51514 4294967295
7.6845393 -440.62683 -523.59131 4294967295
9.4658422 -440.5813 -523.74524 4294967295
11.403749 -440.49008 -523.78503 4294967295
13.47045 -440.66656 -523.76532 4294967295
15.389769 -440.41739 -523.76263 4294967295
17.28377 -440.62949 -523.86096 4294967295
331.74976 -438.63852 -523.91797 4294967295
-52.483818 -435.79944 -523.04846 4294967295
-50.364716 -435.87277 -523.03491 4294967295
-48.744686 -435.84836 -523.14001 4294967295
-45.78231 -436.08749 -523.26935 4294967295
-30.409435 -437.38217 -523.37531 4294967295
-28.016634 -437.69666 -523.37482 4294967295
-26.305641 -437.75244 -523.42053 4294967295
-24.496061 -437.7168 -523.62262 4294967295
325.8121 -435.02875 -523.79071 4294967295
330.72977 -435.94174 -523.43292 4294967295
-78.450645 -432.24481 -523.96149 4294967295
-74.775841 -433.0636 -523.52625 4294967295
-60.370167 -434.15338 -523.89392 4294967295
-55.302292 -434.58936 -523.98627 4294967295
289.47736 -432.44397 -523.44434 4294967295
309.64517 -433.55603 -523.71301 4294967295
327.80969 -434.98682 -523.06464 4294967295
-95.806725 -430.15475 -523.8031 4294967295
-84.100945 -431.34167 -523.71356 4294967295
239.36487 -429.85306 -523.69977 4294967295
249.40919 -429.75964 -523.16803 4294967295
255.76746 -430.59476 -523.06366 4294967295
197.20683 -426.75046 -523.94824 4294967295
233.08031 -427.8689 -523.20605 4294967295
125.29532 -420.92532 -523.57385 4294967295
126.79967 -420.55615 -523.1228 4294967295
129.84502 -420.89862 -523.25378 4294967295
133.76801 -421.40787 -523.39948 4294967295
144.21329 -422.19034 -523.22607 4294967295
152.00548 -422.44397 -523.22925 4294967295
75.266006 -417.25296 -523.08295 4294967295
79.352982 -417.53314 -523.07263 4294967295
80.671898 -418.1481 -523.56958 4294967295
85.29763 -417.54587 -523.04272 4294967295
87.358658 -417.6745 -523.10535 4294967295
93.437546 -418.88092 -523.84424 4294967295
97.54686 -418.72638 -523.41016 4294967295
99.239853 -418.98825 -523.55811 4294967295
103.79279 -419.4194 -523.59393 4294967295
107.54118 -419.20157 -523.21826 4294967295
110.93587 -419.22546 -523.66449 4294967295
115.19546 -418.0773 -523.31348 4294967295
117.53995 -418.59595 -523.32153 4294967295
9.552042 -414.22644 -523.93695 4294967295
32.91396 -414.67786 -523.19891 4294967295
37.804615 -414.91107 -523.09705 4294967295
43.203445 -415.33298 -523.06812 4294967295
61.617405 -415.86334 -523.01532 4294967295
63.377693 -415.97357 -523.01721 4294967295
65.51458 -416.15298 -523.0257 4294967295
67.474083 -416.73691 -523.3324 4294967295
69.402695 -416.76862 -523.15576 4294967295
71.565056 -416.98599 -523.17932 4294967295
73.506561 -416.96304 -523.00287 4294967295
-44.597206 -411.03125 -523.5329 4294967295
-38.732285 -411.42853 -523.66498 4294967295
-36.462711 -411.5249 -523.54987 4294967295
-34.402145 -411.69409 -523.68298 4294967295
-30.570217 -411.82922 -523.60706 4294967295
-28.579411 -411.97107 -523.66882 4294967295
-26.364204 -412.10355 -523.69189 4294967295
-24.541161 -412.34283 -523.92273 4294967295
-22.800838 -412.40631 -523.7298 4294967295
-20.584684 -412.53726 -523.48279 4294967295
-18.294363 -412.73956 -523.51721 4294967295
-12.748673 -413.14514 -523.9964 4294967295
-10.724711 -412.83624 -523.11755 4294967295
-8.5613346 -412.97678 -523.26886 4294967295
-6.4954848 -413.33243 -523.63971 4294967295
-2.5384121 -413.58676 -523.9386 4294967295
-0.28421935 -413.63483 -523.90796 4294967295
-90.562859 -408.09055 -523.95752 4294967295
-87.264565 -408.13306 -523.66736 4294967295
-74.770729 -408.93506 -523.65503 4294967295
-72.285599 -409.0343 -523.36572 4294967295
-70.243919 -409.18378 -523.44977 4294967295
-68.402405 -409.3399 -523.65479 4294967295
-65.120163 -409.58243 -523.73608 4294967295
-62.198017 -409.73352 -523.44733 4294967295
-60.820641 -409.95636 -523.7514 4294967295
-58.457928 -410.07614 -523.60858 4294967295
-56.935997 -410.21411 -523.6853 4294967295
-54.754822 -410.35995 -523.79688 4294967295
-52.439297 -410.46548 -523.51141 4294967295
-48.82058 -410.83884 -523.68665 4294967295
-46.555721 -410.99789 -523.43561 4294967295
-97.806587 -407.25217 -523.76129 4294967295
264.45795 -457.29843 -522.15137 4294967295
267.37674 -456.14032 -522.32202 4294967295
279.51483 -456.09143 -522.10315 4294967295
287.3201 -456.30637 -522.06244 4294967295
290.96991 -456.40134 -522.04907 4294967295
297.57263 -456.70319 -522.06329 4294967295
299.52164 -456.96002 -522.54926 4294967295
301.4765 -457.19876 -522.60687 4294967295
319.58603 -458.83249 -522.0434 4294967295
323.35846 -457.81281 -522.95544 4294967295
325.4404 -457.55334 -522.5249 4294967295
327.50998 -456.39972 -522.52448 4294967295
155.48009 -454.09299 -522.59314 4294967295
163.55534 -453.75204 -522.22821 4294967295
165.54951 -454.00922 -522.15808 4294967295
169.29224 -453.85638 -522.05353 4294967295
171.56516 -453.99622 -522.06171 4294967295
173.66798 -454.02789 -522.05499 4294967295
177.45131 -454.05768 -522.03687 4294967295
181.3999 -453.85089 -522.18054 4294967295
182.94418 -454.0231 -522.15387 4294967295
185.73198 -453.34872 -522.24255 4294967295
187.36946 -453.28836 -522.01288 4294967295
191.34966 -453.83649 -522.04486 4294967295
193.68767 -453.93555 -522.01514 4294967295
199.60501 -453.51599 -522.21521 4294967295
203.17345 -453.72421 -522.12195 4294967295
227.22339 -453.58051 -522.42773 4294967295
231.34619 -454.42133 -522.00226 4294967295
233.77216 -454.13846 -522.06927 4294967295
257.55466 -455.33649 -522.71869 4294967295
275.64331 -455.88965 -522.1803 4294967295
329.59357 -454.30072 -522.41315 4294967295
135.30751 -452.15707 -522.9455 4294967295
151.54372 -451.93204 -522.8017 4294967295
153.41689 -451.96384 -522.77362 4294967295
155.54965 -452.22729 -522.74969 4294967295
159.42438 -452.05466 -522.49139 4294967295
165.22658 -451.70981 -522.34064 4294967295
167.72346 -451.91351 -522.45258 4294967295
169.52608 -451.85315 -522.47205 4294967295
175.43599 -452.07498 -522.45142 4294967295
177.41072 -452.01532 -522.42517 4294967295
183.56879 -451.80188 -522.56055 4294967295
191.28217 -452.29404 -522.50153 4294967295
193.63231 -452.42374 -522.47253 4294967295
195.38983 -452.46304 -522.47321 4294967295
201.62386 -452.11618 -522.89532 4294967295
205.58147 -452.12543 -522.89825 4294967295
5.3480906 -444.10495 -522.83948 4294967295
9.3011694 -444.20511 -522.95416 4294967295
-28.746897 -442.40598 -522.27618 4294967295
-26.501036 -442.52344 -522.33551 4294967295
-24.411476 -442.59384 -522.29932 4294967295
-14.512439 -442.35745 -522.58246 4294967295
-10.537964 -442.30322 -522.82709 4294967295
11.482156 -443.94852 -522.96094 4294967295
13.674175 -443.97791 -522.89386 4294967295
333.6796 -442.75211 -522.37268 4294967295
-53.08062 -439.1752 -522.19031 4294967295
-48.696682 -438.16269 -522.08862 4294967295
-46.480766 -438.33731 -522.17822 4294967295
-44.57272 -438.25034 -522.12079 4294967295
-34.449348 -438.63171 -522.48572 4294967295
-30.610479 -439.53842 -522.57373 4294967295
-28.595852 -439.56732 -522.61896 4294967295
-26.621315 -440.53217 -522.47064 4294967295
-24.327623 -440.32922 -522.61768 4294967295
-22.467813 -440.34488 -522.69135 4294967295
-20.581055 -440.36884 -522.8053 4294967295
-18.715265 -440.42334 -522.75189 4294967295
-14.50794 -440.27808 -522.97321 4294967295
333.95844 -439.42133 -522.99268 4294967295
-70.556267 -435.00589 -522.30847 4294967295
-64.694366 -435.3031 -522.48132 4294967295
-62.633331 -436.04343 -522.37024 4294967295
-60.336758 -436.51709 -522.2348 4294967295
-58.506615 -437.33484 -522.23938 4294967295
-56.355492 -437.23178 -522.27521 4294967295
-54.755024 -437.32004 -522.47839 4294967295
-53.015705 -436.49875 -522.67157 4294967295
-50.547863 -437.4924 -522.33856 4294967295
-48.605614 -436.72842 -522.6123 4294967295
-46.462418 -436.93314 -522.67468 4294967295
-42.600956 -437.1076 -522.89893 4294967295
333.37088 -436.39471 -522.51819 4294967295
335.08936 -437.8165 -522.44067 4294967295
-82.331871 -433.08719 -522.12921 4294967295
-80.663597 -433.18176 -522.35559 4294967295
-74.409599 -434.72305 -522.15784 4294967295
-70.047668 -434.20407 -522.86597 4294967295
-68.639786 -434.79129 -522.5033 4294967295
281.33945 -432.08008 -522.513 4294967295
283.63959 -432.27792 -522.39899 4294967295
293.28683 -432.57867 -522.66205 4294967295
295.297 -432.54962 -522.2771 4294967295
298.97421 -433.31827 -522.69843 4294967295
301.50208 -433.69385 -522.27423 4294967295
305.43097 -433.68781 -522.86694 4294967295
329.94226 -434.93951 -522.11621 4294967295
-96.583054 -430.39993 -522.19989 4294967295
-86.5709 -431.6582 -522.77686 4294967295
237.74513 -429.04648 -522.46967 4294967295
243.3416 -429.17484 -522.59845 4294967295
246.93599 -429.14813 -522.57654 4294967295
253.76689 -429.98352 -522.5415 4294967295
259.04602 -430.38602 -522.46649 4294967295
267.41815 -430.81912 -522.13538 4294967295
279.37051 -431.96802 -522.7583 4294967295
199.63174 -426.33267 -522.83887 4294967295
206.08125 -426.61514 -522.54437 4294967295
235.19812 -428.17801 -522.396 4294967295
239.31996 -428.98126 -522.14447 4294967295
245.18965 -428.87671 -522.2677 4294967295
161.2863 -423.09833 -522.8653 4294967295
163.18521 -423.05347 -522.61578 4294967295
165.92868 -423.33221 -522.65179 4294967295
169.39983 -423.53708 -522.67365 4294967295
171.0204 -423.49686 -522.49213 4294967295
173.51135 -423.77853 -522.73834 4294967295
175.97859 -424.03458 -522.83185 4294967295
177.78433 -423.5733 -522.30682 4294967295
179.66171 -424.40228 -522.82733 4294967295
181.26845 -424.01157 -522.31268 4294967295
183.52425 -424.82614 -522.85193 4294967295
185.67937 -424.92902 -522.76733 4294967295
187.59177 -424.96637 -522.6073 4294967295
189.60797 -425.21225 -522.67328 4294967295
193.38025 -425.17648 -522.24689 4294967295
197.39034 -425.68201 -522.2973 4294967295
135.32916 -420.52896 -522.63 4294967295
137.34833 -421.28741 -522.9751 4294967295
139.50288 -420.5585 -522.51495 4294967295
141.26563 -420.83997 -522.54529 4294967295
143.49577 -420.11081 -522.15552 4294967295
145.3246 -421.02856 -522.48334 4294967295
147.31616 -421.99493 -522.81598 4294967295
149.38144 -421.909 -522.80176 4294967295
151.14758 -421.16928 -522.40558 4294967295
153.21312 -420.09937 -522.03308 4294967295
155.29137 -421.87646 -522.59546 4294967295
157.14597 -421.14426 -522.19104 4294967295
159.42239 -422.39435 -522.53717 4294967295
77.331245 -417.28387 -522.97772 4294967295
89.554405 -417.35547 -522.93854 4294967295
91.567627 -417.51077 -522.93744 4294967295
93.123596 -417.43445 -522.79419 4294967295
95.752136 -417.44223 -522.70605 4294967295
101.75015 -417.50015 -522.63202 4294967295
103.61414 -417.65048 -522.58252 4294967295
105.60683 -418.08652 -522.5921 4294967295
111.27422 -417.47308 -522.84283 4294967295
112.70217 -417.61923 -522.98486 4294967295
119.24308 -417.92822 -522.67316 4294967295
121.66837 -418.58301 -522.52893 4294967295
123.54167 -419.46454 -522.61523 4294967295
125.22535 -418.31125 -522.16486 4294967295
127.58399 -419.38983 -522.53992 4294967295
129.83905 -419.27402 -522.46594 4294967295
131.4953 -419.6662 -522.5199 4294967295
133.33067 -418.9975 -522.27856 4294967295
135.17705 -418.12466 -522.04095 4294967295
35.438843 -414.28098 -522.74445 4294967295
41.416866 -415.05539 -522.94458 4294967295
45.353687 -414.67661 -522.54828 4294967295
47.427025 -414.76135 -522.5528 4294967295
50.952534 -414.02774 -522.18439 4294967295
51.498344 -415.60568 -522.90497 4294967295
53.463882 -414.8765 -522.55298 4294967295
55.426197 -415.68015 -522.97821 4294967295
57.256397 -415.69345 -522.84631 4294967295
59.353706 -415.63544 -522.84827 4294967295
61.38892 -414.04105 -522.10132 4294967295
63.608906 -414.28381 -522.17706 4294967295
65.2873 -414.07901 -522.2323 4294967295
67.43911 -415.40189 -522.59229 4294967295
69.296204 -414.16183 -522.16449 4294967295
71.101059 -415.58029 -522.4942 4294967295
73.481911 -415.18835 -522.26721 4294967295
75.313484 -416.03415 -522.32825 4294967295
78.822227 -416.22043 -522.41425 4294967295
81.225578 -414.76367 -522.07074 4294967295
83.066223 -416.19617 -522.41809 4294967295
85.615891 -415.25909 -522.19373 4294967295
87.106354 -415.23004 -522.29608 4294967295
89.393021 -415.08514 -522.2735 4294967295
91.405838 -415.25168 -522.32886 4294967295
93.504974 -415.2132 -522.2038 4294967295
95.217361 -415.13928 -522.23645 4294967295
97.628082 -415.16663 -522.24738 4294967295
99.179207 -416.12402 -522.12335 4294967295
101.14442 -416.0936 -522.09955 4294967295
103.28974 -416.27682 -522.25299 4294967295
107.3796 -416.39447 -522.1936 4294967295
109.31721 -416.18103 -522.31927 4294967295
115.77798 -416.0983 -522.78302 4294967295
119.09131 -416.18484 -522.42322 4294967295
121.22409 -416.29175 -522.20599 4294967295
123.05695 -416.34711 -522.08807 4294967295
125.47217 -416.3172 -522.09418 4294967295
127.25327 -416.12143 -522.14795 4294967295
-28.81118 -411.04132 -522.17377 4294967295
-26.293985 -411.08237 -522.09161 4294967295
-24.442257 -411.30026 -522.14795 4294967295
-16.577028 -412.37073 -522.16162 4294967295
-6.3011651 -412.55518 -522.46716 4294967295
-4.5261598 -412.68283 -522.63391 4294967295
-2.4833679 -412.59039 -522.54272 4294967295
-0.50686228 -412.75916 -522.70581 4294967295
3.4506555 -412.86368 -522.67676 4294967295
5.4484372 -412.88132 -522.60596 4294967295
7.5478916 -413.08533 -522.62982 4294967295
9.3428316 -413.23242 -522.62976 4294967295
11.460737 -413.33154 -522.58588 4294967295
13.05671 -413.30374 -522.53119 4294967295
15.755651 -413.61197 -522.73126 4294967295
17.346014 -413.38153 -522.39117 4294967295
19.67271 -413.75754 -522.70953 4294967295
21.290764 -413.89819 -522.91162 4294967295
31.432707 -413.98282 -522.69568 4294967295
33.725689 -413.29272 -522.28363 4294967295
37.082668 -413.35562 -522.23901 4294967295
41.501553 -413.66418 -522.25311 4294967295
43.527161 -413.96231 -522.2569 4294967295
49.397709 -413.98648 -522.1731 4294967295
67.150299 -412.05365 -522.12347 4294967295
-72.558441 -408.5177 -522.36725 4294967295
-66.647003 -408.92599 -522.5318 4294967295
-65.356102 -409.1235 -522.6825 4294967295
-56.401253 -409.69919 -522.59088 4294967295
-50.687996 -410.27985 -522.55383 4294967295
-48.62228 -410.45032 -522.47174 4294967295
-46.750263 -410.52484 -522.32184 4294967295
-42.563725 -410.65604 -522.51788 4294967295
-40.705101 -410.62976 -522.0329 4294967295
-36.468658 -410.65231 -522.02698 4294967295
-34.494411 -410.83295 -522.15802 4294967295
-32.729801 -410.87576 -522.14948 4294967295
-30.538177 -410.91483 -522.13916 4294967295
-106.75611 -406.3439 -522.49097 4294967295
-104.16504 -406.64005 -522.41571 4294967295
-102.44575 -406.79669 -522.46802 4294967295
-100.85165 -406.95023 -522.26825 4294967295
-94.30146 -407.45078 -522.19836 4294967295
-86.123672 -407.76456 -522.29651 4294967295
225.44696 -458.01068 -521.02936 4294967295
227.71083 -458.02673 -521.02356 4294967295
231.56366 -456.00372 -521.14392 4294967295
253.15944 -456.0177 -521.54266 4294967295
255.63036 -456.38531 -521.16589 4294967295
261.12796 -457.94534 -521.20068 4294967295
267.54437 -456.79953 -521.40283 4294967295
295.21841 -456.53253 -521.92285 4294967295
309.20856 -458.02991 -521.03778 4294967295
311.33054 -458.18866 -521.18298 4294967295
313.62445 -458.33063 -521.26703 4294967295
315.60526 -458.48175 -521.93744 4294967295
321.52271 -458.76785 -521.43903 4294967295
325.30075 -458.48642 -521.5329 4294967295
329.54431 -456.26364 -521.78546 4294967295
195.26283 -453.87637 -521.98322 4294967295
197.38361 -454.1937 -521.95032 4294967295
201.40837 -454.0589 -521.89844 4294967295
223.02203 -455.85419 -521.26398 4294967295
225.32196 -454.57486 -521.70404 4294967295
227.45882 -455.94809 -521.26636 4294967295
229.54185 -455.25848 -521.45972 4294967295
233.69142 -454.84055 -521.57458 4294967295
235.33102 -454.44931 -521.39282 4294967295
237.79948 -454.05994 -521.5849 4294967295
273.60913 -455.70065 -521.99744 4294967295
-48.699432 -442.60358 -521.92651 4294967295
-46.094532 -442.69373 -521.97803 4294967295
-54.542988 -439.25494 -521.91656 4294967295
-50.116634 -439.9834 -521.72845 4294967295
-48.414593 -440.35165 -521.82318 4294967295
-46.586643 -440.07938 -521.88806 4294967295
-44.266735 -440.35577 -521.83405 4294967295
336.18521 -439.37125 -521.9173 4294967295
337.71014 -439.54825 -521.14246 4294967295
-80.475754 -436.05707 -521.23553 4294967295
-78.605827 -435.8194 -521.44659 4294967295
336.06241 -437.36487 -521.85828 4294967295
-84.613785 -433.48239 -521.44745 4294967295
-82.416611 -434.2865 -521.28125 4294967295
-76.865623 -434.83435 -521.92786 4294967295
331.8143 -434.78253 -521.24847 4294967295
-100.55492 -429.97263 -521.16425 4294967295
251.53899 -429.09995 -521.90076 4294967295
255.34428 -429.36932 -521.48126 4294967295
257.22565 -429.16177 -521.09869 4294967295
277.42242 -431.15067 -521.70966 4294967295
279.64218 -430.95551 -521.22479 4294967295
247.41206 -427.65628 -521.12555 4294967295
178.99376 -423.13974 -521.94818 4294967295
183.33336 -423.40952 -521.83594 4294967295
185.33406 -423.88208 -521.93719 4294967295
187.14117 -423.56329 -521.75836 4294967295
189.5499 -423.44485 -521.63214 4294967295
191.65414 -423.65707 -521.58099 4294967295
195.25871 -423.85251 -521.21539 4294967295
197.84801 -424.22528 -521.45789 4294967295
199.22212 -424.13992 -521.35541 4294967295
201.14604 -424.2442 -521.11371 4294967295
202.68958 -424.97107 -521.54321 4294967295
203.33218 -424.2402 -521.24371 4294967295
149.53004 -420.0755 -521.90363 4294967295
155.35884 -420.1485 -521.8324 4294967295
165.23199 -421.48572 -521.716 4294967295
167.75874 -421.29236 -521.72778 4294967295
169.39746 -421.19946 -521.69824 4294967295
171.23709 -420.409 -521.35724 4294967295
173.14987 -420.80377 -521.41913 4294967295
175.53107 -420.95026 -521.37305 4294967295
177.63344 -421.88303 -521.40588 4294967295
178.97116 -420.17361 -521.117 4294967295
181.52718 -421.19476 -521.34296 4294967295
185.32469 -421.38135 -521.29285 4294967295
187.11378 -421.21155 -521.24414 4294967295
189.2437 -421.31583 -521.28308 4294967295
191.24849 -421.26233 -521.16235 4294967295
197.41867 -422.10452 -521.08557 4294967295
199.4778 -422.30872 -521.06207 4294967295
129.27966 -418.02603 -521.974 4294967295
157.10866 -418.1218 -521.61078 4294967295
159.31578 -419.98859 -521.56152 4294967295
171.50282 -417.79446 -521.70337 4294967295
177.07867 -417.65967 -521.63135 4294967295
77.373398 -414.97726 -521.95563 4294967295
79.559959 -414.73355 -521.99603 4294967295
-22.596062 -411.30893 -521.81055 4294967295
-20.635809 -411.61865 -521.82135 4294967295
-18.335844 -411.87988 -521.81781 4294967295
-10.724871 -411.44714 -521.76294 4294967295
-8.8355808 -411.2175 -521.71143 4294967295
-6.5145822 -411.49414 -521.77875 4294967295
-2.7961287 -411.40744 -521.77863 4294967295
-0.81211483 -411.36954 -521.77087 4294967295
1.5163172 -411.52847 -521.84863 4294967295
3.4745522 -411.51477 -521.81348 4294967295
5.456768 -411.5213 -521.7998 4294967295
7.7593079 -411.54965 -521.78955 4294967295
11.547513 -411.91464 -521.78265 4294967295
13.485977 -412.1098 -521.83716 4294967295
17.706354 -412.09161 -521.89825 4294967295
19.068066 -411.75424 -521.81732 4294967295
23.395161 -411.97498 -521.73962 4294967295
25.412298 -412.09555 -521.75226 4294967295
29.440468 -412.1413 -521.71478 4294967295
33.525223 -412.11008 -521.72302 4294967295
37.492702 -412.22244 -521.90967 4294967295
39.404541 -412.25583 -521.87537 4294967295
43.636639 -412.30734 -521.91443 4294967295
45.354317 -412.4924 -521.79181 4294967295
47.461365 -412.323 -521.94659 4294967295
51.301552 -412.25378 -521.9527 4294967295
55.193512 -412.54004 -521.83624 4294967295
-62.644344 -408.78601 -521.92889 4294967295
-60.479641 -408.81015 -521.80267 4294967295
-58.292618 -409.02148 -521.88971 4294967295
-56.418945 -408.60928 -521.38959 4294967295
-54.691326 -409.26984 -521.90179 4294967295
-52.479141 -409.30231 -521.74677 4294967295
-48.548012 -409.4285 -521.30194 4294967295
-44.549889 -409.56168 -521.37616 4294967295
-42.428654 -409.68011 -521.3786 4294967295
-40.48127 -409.47955 -521.24927 4294967295
-38.643166 -409.35217 -521.18616 4294967295
-36.576187 -409.52142 -521.23218 4294967295
-34.767498 -409.4584 -521.21002 4294967295
-32.669987 -409.552 -521.24115 4294967295
-30.650108 -409.47794 -521.25226 4294967295
-28.148836 -409.6824 -521.35181 4294967295
-24.620457 -409.20566 -521.21576 4294967295
-22.874786 -409.0491 -521.14166 4294967295
-20.739231 -409.69128 -521.17621 4294967295
-18.72434 -409.57446 -521.13556 4294967295
-16.302277 -409.66647 -521.25323 4294967295
-14.770152 -410.35095 -521.23108 4294967295
-12.484903 -409.21875 -521.31415 4294967295
-10.627151 -409.15179 -521.34784 4294967295
-8.5396767 -409.11389 -521.29736 4294967295
-6.7441568 -409.11938 -521.28442 4294967295
-4.3788261 -410.45566 -521.47443 4294967295
-2.6689413 -408.32932 -521.14331 4294967295
1.346892 -408.16434 -521.32794 4294967295
3.2268374 -409.91171 -521.39655 4294967295
5.3707819 -409.28766 -521.40948 4294967295
7.2787857 -409.29388 -521.36328 4294967295
9.3590813 -409.24115 -521.41144 4294967295
13.309982 -410.53839 -521.26617 4294967295
15.258462 -410.52347 -521.29468 4294967295
17.355663 -410.32413 -521.55042 4294967295
21.382023 -410.11609 -521.41754 4294967295
25.14863 -410.22284 -521.49158 4294967295
27.509418 -410.32471 -521.52704 4294967295
29.191927 -410.05801 -521.54749 4294967295
35.154293 -410.11658 -521.66504 4294967295
37.423225 -409.87878 -521.73615 4294967295
39.383251 -410.13309 -521.73169 4294967295
41.181831 -409.94897 -521.83771 4294967295
43.266956 -409.92639 -521.93451 4294967295
-98.399315 -407.08286 -521.79645 4294967295
-96.294472 -407.21429 -521.77228 4294967295
-91.909561 -407.42828 -521.65704 4294967295
-76.304962 -407.33243 -521.11945 4294967295
-70.241737 -407.61911 -521.07123 4294967295
-68.286232 -407.6763 -521.09265 4294967295
-66.568207 -407.70734 -521.11511 4294967295
-64.358292 -407.74655 -521.13055 4294967295
-4.6493516 -407.01477 -521.37335 4294967295
11.528265 -407.80313 -521.54633 4294967295
15.295887 -407.9454 -521.63226 4294967295
264.61029 -460.14792 -520.92712 4294967295
229.69768 -457.86063 -520.83759 4294967295
231.31604 -458.06912 -520.88403 4294967295
233.45349 -457.74408 -520.6828 4294967295
235.4561 -457.13754 -520.65582 4294967295
253.29324 -456.86172 -520.81396 4294967295
267.32492 -458.47336 -520.36646 4294967295
269.3598 -457.40717 -520.49799 4294967295
271.0802 -456.82901 -520.24689 4294967295
273.90744 -456.81482 -520.53931 4294967295
275.49713 -456.88571 -520.60394 4294967295
276.99091 -456.9151 -520.64545 4294967295
279.46786 -457.12222 -520.45386 4294967295
289.4902 -456.85977 -520.48975 4294967295
301.30688 -457.08301 -520.35089 4294967295
303.64404 -457.40543 -520.32306 4294967295
305.73166 -457.70386 -520.73041 4294967295
323.83157 -458.99878 -520.01239 4294967295
329.19238 -457.94025 -520.88513 4294967295
331.62585 -456.98859 -520.54224 4294967295
333.38852 -456.20892 -520.18658 4294967295
333.60922 -454.10229 -520.74701 4294967295
339.78 -439.2919 -520.04559 4294967295
-82.485718 -436.2977 -520.87628 4294967295
334.2464 -435.33871 -520.72083 4294967295
303.1658 -433.7421 -520.15649 4294967295
