# .PCD v0.7 - Point Cloud Data file format
VERSION 0.7
FIELDS x y z rgba
SIZE 4 4 4 4
TYPE F F F U
COUNT 1 1 1 1
WIDTH 1147
HEIGHT 1
VIEWPOINT 0 0 0 1 0 0 0
POINTS 1147
DATA ascii
320.82425 367.12177 -29.573645 4294967295
331.51138 366.56363 -29.986134 4294967295
333.88205 366.60434 -29.767473 4294967295
335.59537 366.4863 -29.706406 4294967295
337.77426 366.14856 -29.628588 4294967295
339.75827 366.13129 -29.693579 4294967295
158.49812 377.54733 -29.422094 4294967295
165.83807 376.85153 -29.136625 4294967295
169.47319 376.72644 -29.020081 4294967295
170.2812 376.7041 -29.659002 4294967295
32.571644 386.07532 -29.389429 4294967295
34.581635 386.20203 -29.1614 4294967295
39.410038 386.36438 -29.620489 4294967295
1.8429203 389.28183 -29.264704 4294967295
6.3772435 388.86407 -29.861774 4294967295
10.640778 388.0452 -29.984953 4294967295
13.381183 387.20218 -29.405901 4294967295
-3.766022 390.01236 -29.169313 4294967295
323.74435 341.67136 -28.024025 4294967295
337.86862 340.66382 -28.094687 4294967295
343.29446 340.19553 -28.889935 4294967295
355.54395 339.86475 -28.133015 4294967295
357.40082 340.37006 -28.099115 4294967295
359.40192 340.52765 -28.130827 4294967295
360.79099 341.75275 -28.001358 4294967295
361.41611 340.32739 -28.683287 4294967295
363.40161 341.82178 -28.257488 4294967295
365.49896 341.61783 -28.980728 4294967295
363.67587 343.68661 -28.137159 4294967295
365.86945 343.65369 -28.683289 4294967295
277.62769 345.62924 -28.763554 4294967295
363.46875 346.14261 -28.433077 4294967295
365.35583 346.40866 -28.940056 4294967295
215.29788 350.73593 -28.809717 4294967295
216.85306 350.58337 -28.741688 4294967295
219.23711 350.39691 -28.889009 4294967295
229.65984 349.58966 -28.592989 4294967295
233.20889 349.28918 -28.670364 4294967295
184.93098 353.11063 -28.192404 4294967295
188.07533 352.95407 -28.751465 4294967295
211.10193 351.12448 -28.985167 4294967295
359.20956 352.95172 -28.038296 4294967295
155.37085 355.22696 -28.361494 4294967295
161.49873 354.71173 -28.620302 4294967295
163.3756 354.57162 -28.782732 4294967295
165.41856 354.48486 -28.655903 4294967295
167.46191 354.42648 -28.869484 4294967295
169.16747 354.31793 -28.591553 4294967295
361.28082 355.06784 -28.449394 4294967295
363.34784 355.12494 -28.93228 4294967295
97.469009 359.68829 -28.845642 4294967295
99.434715 359.52747 -28.643452 4294967295
101.45271 359.28326 -28.402071 4294967295
104.77113 359.13669 -28.40213 4294967295
107.7571 358.83136 -28.827511 4294967295
109.30354 358.73495 -28.786613 4294967295
113.21898 358.3381 -28.599104 4294967295
361.28293 357.92722 -28.167204 4294967295
363.46115 358.03915 -28.64002 4294967295
51.131294 362.97125 -28.401522 4294967295
54.796101 362.68674 -28.133005 4294967295
87.576546 360.44547 -28.588404 4294967295
361.53247 362.01559 -28.591364 4294967295
363.73212 360.85934 -28.996431 4294967295
41.295509 363.76129 -28.944403 4294967295
43.30822 363.53201 -28.470919 4294967295
347.65591 364.95099 -28.531853 4294967295
351.76077 364.25635 -28.32765 4294967295
353.38013 364.07364 -28.372913 4294967295
359.93176 363.08139 -28.949692 4294967295
295.03726 368.69348 -28.33375 4294967295
297.63602 368.59613 -28.168427 4294967295
299.52454 368.53326 -28.140041 4294967295
303.26334 368.41516 -28.041176 4294967295
233.44586 372.71936 -28.815207 4294967295
235.35777 372.59229 -28.812426 4294967295
236.91687 372.48785 -28.779928 4294967295
154.9398 377.85941 -28.905153 4294967295
160.89842 377.31732 -28.799166 4294967295
161.91873 377.20715 -28.710825 4294967295
162.75755 377.06329 -28.000656 4294967295
163.81061 377.02515 -28.757776 4294967295
168.20042 376.74673 -28.839277 4294967295
177.05157 376.63138 -28.291227 4294967295
179.47855 376.50674 -28.55164 4294967295
23.181406 385.77576 -28.98756 4294967295
25.573988 385.64896 -28.87409 4294967295
27.292858 385.54114 -28.567966 4294967295
28.851126 385.69751 -28.792336 4294967295
37.424896 386.4006 -28.741673 4294967295
-1.0286466 389.53693 -28.56958 4294967295
4.4477296 388.91187 -28.425007 4294967295
8.3091898 388.32803 -28.804022 4294967295
327.47464 341.26428 -27.87924 4294967295
329.49887 341.14447 -27.684906 4294967295
334.76443 341.12039 -27.710567 4294967295
339.64841 340.80286 -27.547188 4294967295
351.4884 340.28842 -27.587395 4294967295
355.66962 340.48657 -27.773344 4294967295
359.47253 343.6156 -27.196049 4294967295
361.45282 343.48651 -27.628008 4294967295
357.48523 346.38138 -27.000982 4294967295
359.62125 346.30801 -27.536173 4294967295
361.24548 346.20291 -27.913122 4294967295
355.70197 350.75308 -27.177376 4294967295
355.3024 352.86938 -27.217093 4294967295
357.43652 351.01108 -27.585308 4294967295
355.64691 354.96606 -27.22077 4294967295
357.67685 354.97226 -27.632088 4294967295
358.9935 355.10629 -27.913828 4294967295
92.028908 359.95038 -27.473286 4294967295
355.85593 357.33124 -27.085669 4294967295
357.36078 357.51605 -27.375315 4294967295
359.68912 357.65964 -27.837141 4294967295
351.22513 362.96405 -27.024492 4294967295
353.66208 362.98608 -27.44261 4294967295
356.99246 362.60596 -27.939577 4294967295
357.45883 360.39993 -27.199507 4294967295
359.67633 360.18384 -27.875275 4294967295
38.756897 363.82669 -27.219164 4294967295
337.2977 365.92587 -27.695101 4294967295
355.69348 363.05695 -27.902363 4294967295
317.41345 367.62421 -27.750889 4294967295
319.54398 367.48392 -27.523653 4294967295
321.91226 367.12039 -27.185579 4294967295
325.78101 366.75104 -27.072472 4294967295
329.22098 366.57385 -27.606831 4294967295
331.45804 366.38907 -27.80106 4294967295
333.72101 366.26898 -27.895672 4294967295
247.34633 371.9238 -27.883999 4294967295
157.02907 377.64224 -27.669022 4294967295
158.36969 377.55844 -27.657219 4294967295
159.48209 377.4184 -27.775009 4294967295
161.40085 377.10001 -27.33482 4294967295
169.46931 376.55884 -27.148933 4294967295
171.13564 376.62454 -27.868689 4294967295
172.63829 376.67133 -27.959103 4294967295
174.36377 376.66693 -27.805075 4294967295
152.67911 378.1156 -27.52816 4294967295
11.584485 386.76407 -27.330484 4294967295
13.545853 386.02457 -27.081593 4294967295
15.494072 386.00403 -27.996416 4294967295
26.269306 384.67307 -27.10779 4294967295
28.15287 384.90631 -27.243786 4294967295
30.654251 385.27325 -27.49073 4294967295
36.052166 386.16568 -27.710718 4294967295
37.807732 386.29858 -27.72081 4294967295
41.592403 386.47586 -27.970026 4294967295
44.569698 386.85968 -27.002823 4294967295
-2.2602968 389.35764 -27.061899 4294967295
3.1215751 388.82541 -27.095526 4294967295
6.1750574 388.38019 -27.426861 4294967295
9.6539917 387.45673 -27.434507 4294967295
325.79529 341.63876 -26.077389 4294967295
329.90024 341.62946 -26.215719 4294967295
333.99103 341.44785 -26.474882 4294967295
335.53452 341.48358 -26.232965 4294967295
341.48129 341.15698 -26.402834 4294967295
347.88547 341.16132 -26.503027 4294967295
349.16562 341.15179 -26.524956 4294967295
351.74509 341.56958 -26.441141 4294967295
355.08591 341.91205 -26.717222 4294967295
353.75278 343.43973 -26.125742 4294967295
355.31497 342.89157 -26.343216 4294967295
357.64584 342.86984 -26.849726 4294967295
269.15097 346.16327 -26.606174 4294967295
273.47552 345.85193 -26.688431 4294967295
278.034 345.46774 -26.782534 4294967295
283.57654 345.08041 -26.265812 4294967295
353.46933 345.81775 -26.027502 4294967295
355.40781 345.64575 -26.333612 4294967295
215.31256 350.72412 -26.652901 4294967295
219.19142 350.30344 -26.669744 4294967295
227.73235 349.70447 -26.759523 4294967295
229.64842 349.5575 -26.830437 4294967295
231.0976 349.40799 -26.211796 4294967295
233.26529 349.20047 -26.033384 4294967295
351.58368 348.62906 -26.029917 4294967295
352.19696 350.2959 -26.351429 4294967295
353.43967 348.63876 -26.377192 4294967295
355.46838 348.72772 -26.877438 4294967295
181.36429 353.35449 -26.69105 4294967295
185.48311 353.02951 -26.401037 4294967295
191.1097 352.61487 -26.851248 4294967295
203.08434 351.64581 -26.397491 4294967295
349.51044 352.82718 -26.11759 4294967295
351.7796 353.25989 -26.529573 4294967295
131.88942 356.91678 -26.55806 4294967295
153.47928 355.62949 -26.16338 4294967295
156.91499 355.43185 -26.265516 4294967295
160.01469 355.18082 -26.370283 4294967295
162.00256 354.89954 -26.729082 4294967295
165.34489 354.30374 -26.399799 4294967295
167.60544 354.20065 -26.168045 4294967295
169.3455 354.12564 -26.150528 4294967295
353.49402 354.9881 -26.822762 4294967295
93.607086 359.80185 -26.289282 4294967295
95.583847 359.5701 -26.271769 4294967295
97.355064 359.38309 -26.006815 4294967295
101.60567 359.19949 -26.206749 4294967295
105.46344 358.97678 -26.527481 4294967295
109.42999 358.61307 -26.159185 4294967295
127.40791 357.18802 -26.227022 4294967295
353.51202 357.77676 -26.590315 4294967295
71.740211 361.36539 -26.493126 4294967295
83.027657 360.7113 -26.102623 4294967295
86.088783 360.44757 -26.300953 4294967295
352.04691 361.88535 -26.690952 4294967295
355.4353 360.05377 -26.800005 4294967295
333.26569 365.90698 -26.638124 4294967295
339.71719 364.8707 -26.210512 4294967295
323.92957 366.88995 -26.817036 4294967295
327.25046 366.60666 -26.937389 4294967295
329.40881 366.16342 -26.003572 4294967295
273.31387 370.34378 -26.050251 4294967295
207.01178 374.72751 -26.393078 4294967295
233.6479 373.18509 -26.028511 4294967295
244.09097 372.29672 -26.262445 4294967295
155.17764 377.43256 -26.002419 4294967295
157.86977 377.29401 -26.376711 4294967295
159.10628 377.34686 -26.949036 4294967295
164.36183 376.76627 -26.858198 4294967295
166.2681 376.56042 -26.355637 4294967295
167.77237 376.56976 -26.956676 4294967295
179.99229 376.77823 -26.755856 4294967295
197.52153 375.74762 -26.230686 4294967295
17.808628 384.13406 -26.025066 4294967295
21.296402 384.54053 -26.786715 4294967295
23.967773 384.37073 -26.700937 4294967295
27.198927 384.10577 -26.15431 4294967295
33.638992 385.60925 -26.793886 4294967295
37.113033 385.88641 -26.290281 4294967295
39.179314 386.0947 -26.614847 4294967295
41.360359 386.36661 -26.129442 4294967295
-0.16325523 389.15869 -26.547565 4294967295
1.7975081 388.90048 -26.582933 4294967295
4.4417257 388.46719 -26.534786 4294967295
7.7817883 387.49829 -26.379845 4294967295
327.69907 341.87241 -25.661251 4294967295
335.61847 341.96732 -25.151587 4294967295
336.75528 341.64117 -25.772545 4294967295
345.09137 341.48508 -25.947184 4294967295
311.67935 342.96387 -25.067175 4294967295
315.62961 342.39966 -25.550749 4294967295
320.05359 342.28955 -25.841846 4294967295
321.23474 342.33777 -25.402523 4294967295
343.75006 342.24167 -25.221628 4294967295
347.56403 343.8447 -25.124296 4294967295
349.42612 342.45566 -25.778986 4294967295
351.39478 343.59012 -25.674503 4294967295
275.10126 345.66794 -25.760643 4294967295
349.65363 345.68414 -25.323057 4294967295
351.26608 346.11908 -25.676258 4294967295
225.18425 349.74585 -25.49354 4294967295
349.61325 348.80139 -25.691021 4294967295
171.43768 353.97556 -25.823656 4294967295
179.68575 353.43243 -25.927523 4294967295
183.07887 353.2103 -25.991148 4294967295
187.43581 352.8638 -25.897188 4294967295
188.94089 352.77029 -25.936457 4294967295
133.13751 356.90207 -25.958683 4294967295
150.59546 355.75632 -25.852072 4294967295
163.4389 354.81192 -25.992273 4294967295
107.55687 358.75757 -25.797995 4294967295
112.51036 358.28421 -25.242989 4294967295
121.44627 357.39688 -25.898661 4294967295
124.90657 357.21381 -25.608006 4294967295
49.170235 362.87033 -25.503876 4294967295
51.397175 362.84708 -25.681812 4294967295
53.200531 362.61627 -25.835272 4294967295
55.158936 362.55789 -25.882631 4294967295
57.203262 362.28839 -25.352831 4294967295
81.25705 360.81589 -25.836643 4294967295
88.943825 360.13052 -25.4401 4294967295
29.341619 364.60867 -25.436615 4294967295
36.120605 364.18076 -25.497377 4294967295
41.344479 363.74341 -25.382261 4294967295
45.463009 363.19952 -25.714027 4294967295
335.10559 364.81766 -25.265268 4294967295
337.22321 364.99582 -25.855015 4294967295
339.3562 363.56186 -25.05131 4294967295
295.19125 368.84851 -25.104315 4294967295
299.90353 368.56879 -25.242155 4294967295
300.89465 368.51315 -25.181309 4294967295
303.09061 368.39435 -25.701916 4294967295
305.62436 368.293 -25.646242 4294967295
311.33286 367.72839 -25.569824 4294967295
314.0733 367.62595 -25.489105 4294967295
317.47922 367.45313 -25.65324 4294967295
320.80627 366.86841 -25.12582 4294967295
325.68723 366.4942 -25.690485 4294967295
261.2124 371.25323 -25.660694 4294967295
265.6918 370.85156 -25.724318 4294967295
269.34244 370.66641 -25.734913 4294967295
271.46823 370.54346 -25.893141 4294967295
276.66229 370.3877 -25.527927 4294967295
283.6796 369.83066 -25.125374 4294967295
287.75204 369.62891 -25.750898 4294967295
290.85892 369.39844 -25.750126 4294967295
230.73053 373.38776 -25.597382 4294967295
236.01727 373.03824 -25.946594 4294967295
239.61096 372.65085 -25.561634 4294967295
245.56175 372.30365 -25.183144 4294967295
152.57906 377.85226 -25.418665 4294967295
159.80269 376.56573 -25.309696 4294967295
162.43497 376.61035 -25.744577 4294967295
165.4057 376.26688 -25.094542 4294967295
167.57449 375.97992 -25.013853 4294967295
171.08232 376.05078 -25.273937 4294967295
173.01924 376.41092 -25.941135 4294967295
174.46736 376.59491 -25.789967 4294967295
176.07253 376.68353 -25.520153 4294967295
177.44173 377.18753 -25.747587 4294967295
181.14565 376.80014 -25.98369 4294967295
183.75557 376.65332 -25.972645 4294967295
187.94095 376.34137 -25.861734 4294967295
193.29715 376.08179 -25.846233 4294967295
199.48161 375.56805 -25.954779 4294967295
201.53883 375.35596 -25.89852 4294967295
204.74455 375.07874 -25.247478 4294967295
150.30678 378.13065 -25.875473 4294967295
20.38032 383.2988 -25.203045 4294967295
22.205893 383.44177 -25.447073 4294967295
25.795483 382.91544 -25.015331 4294967295
28.895395 383.70926 -25.419901 4294967295
9.65415 386.10089 -25.496531 4294967295
12.293483 385.21579 -25.575777 4294967295
14.639424 384.68887 -25.799173 4294967295
31.875643 384.35535 -25.282751 4294967295
33.652435 384.94089 -25.113817 4294967295
34.368992 385.3924 -25.492514 4294967295
35.497074 385.56772 -25.755062 4294967295
47.94833 386.32764 -25.669271 4294967295
-4.107975 389.20126 -25.982048 4294967295
-2.2790425 388.75513 -25.10235 4294967295
1.1210649 388.76959 -25.271271 4294967295
2.8860521 388.11496 -25.116035 4294967295
5.3967218 387.49713 -25.249645 4294967295
323.50055 342.62827 -24.353619 4294967295
327.60205 342.33823 -24.675203 4294967295
331.44736 342.68579 -24.147898 4294967295
332.97299 342.68597 -24.199734 4294967295
337.55356 342.87997 -24.287046 4294967295
341.67548 342.07635 -24.891579 4294967295
343.25281 343.7384 -24.539888 4294967295
345.29285 343.6041 -24.861439 4294967295
267.54205 346.15814 -24.063395 4294967295
343.40384 345.73419 -24.218801 4294967295
345.86548 345.82782 -24.773697 4294967295
347.04059 346.02994 -24.933428 4294967295
230.39326 349.43811 -24.276152 4294967295
345.69843 348.57336 -24.989691 4294967295
209.66269 351.04663 -24.05677 4294967295
336.8721 353.08405 -24.226419 4294967295
149.01656 356.23584 -24.220524 4294967295
154.83125 356.07431 -24.122007 4294967295
161.80879 355.52548 -24.024807 4294967295
164.68904 355.05493 -24.145735 4294967295
167.23126 354.70724 -24.353333 4294967295
339.55386 354.75546 -24.612053 4294967295
107.73344 358.83173 -24.039856 4294967295
27.240236 364.96182 -24.393509 4294967295
31.293064 364.36896 -24.7236 4294967295
325.44589 365.97427 -24.172031 4294967295
327.28329 365.50204 -24.092976 4294967295
329.31961 365.30606 -24.562912 4294967295
331.01877 365.27124 -24.939564 4294967295
333.49744 364.83533 -24.972008 4294967295
335.61639 363.57175 -24.422379 4294967295
337.55682 363.66516 -24.879238 4294967295
307.24548 367.5979 -24.505039 4294967295
321.28351 366.55234 -24.291096 4294967295
323.19852 366.09653 -24.102953 4294967295
240.08154 372.47699 -24.009853 4294967295
241.44508 372.47766 -24.99066 4294967295
151.47597 377.78351 -24.30657 4294967295
157.29106 376.60941 -24.878666 4294967295
164.00542 375.9884 -24.301624 4294967295
166.59099 375.84973 -24.457455 4294967295
169.13187 375.85635 -24.904905 4294967295
174.80153 376.01151 -24.006487 4294967295
182.19933 376.71173 -24.493109 4294967295
195.52817 375.87091 -24.082542 4294967295
199.02968 375.39709 -24.022326 4294967295
145.86571 378.41885 -24.101162 4294967295
13.120336 383.1637 -24.214369 4294967295
15.326303 383.21863 -24.647163 4294967295
16.445555 382.31848 -24.216749 4294967295
17.790041 382.01019 -24.132421 4294967295
19.239796 382.37924 -24.432869 4294967295
21.493759 381.94925 -24.174576 4294967295
23.49966 382.83063 -24.920595 4294967295
7.2818565 386.42224 -24.77422 4294967295
10.649541 384.10013 -24.192709 4294967295
34.84903 384.97092 -24.76919 4294967295
37.190327 384.51233 -24.238686 4294967295
39.849648 385.75687 -24.916805 4294967295
41.557266 386.2525 -24.327484 4294967295
45.437504 386.07248 -24.409542 4294967295
47.746155 385.87762 -24.354328 4294967295
-0.47146544 389.24182 -24.176033 4294967295
1.3975178 388.24908 -24.308281 4294967295
284.96494 344.94348 -23.518221 4294967295
287.46829 344.67749 -23.653423 4294967295
293.00708 344.28448 -23.284298 4294967295
295.39026 344.06537 -23.89616 4294967295
296.81769 344.23987 -23.358389 4294967295
305.50928 343.6539 -23.821442 4294967295
309.36844 343.39813 -23.497541 4294967295
311.84515 343.20224 -23.439898 4294967295
313.59125 343.0462 -23.541191 4294967295
317.33826 342.96066 -23.636101 4294967295
319.8757 342.89865 -23.924047 4294967295
325.83801 343.28726 -23.311163 4294967295
329.49786 342.86545 -23.856892 4294967295
330.91983 344.03955 -23.120865 4294967295
335.4043 343.82303 -23.668232 4294967295
336.84299 343.55963 -23.6691 4294967295
339.25424 343.57938 -23.919563 4294967295
252.05814 347.67038 -23.171545 4294967295
253.28809 347.55984 -23.209454 4294967295
265.20322 346.39047 -23.794184 4294967295
269.29755 345.96817 -23.658461 4294967295
271.45944 345.76492 -23.861319 4294967295
273.4429 345.67761 -23.423559 4294967295
275.37872 345.53995 -23.681105 4294967295
277.43481 345.54959 -23.362066 4294967295
279.53009 345.38086 -23.590923 4294967295
281.60538 345.35745 -23.041342 4294967295
335.23267 347.70975 -23.289272 4294967295
341.18658 345.03494 -23.850744 4294967295
215.38641 350.69818 -23.191698 4294967295
217.08606 350.47318 -23.685257 4294967295
219.37968 350.14276 -23.566811 4294967295
221.21739 350.1546 -23.46756 4294967295
223.53969 349.77383 -23.48601 4294967295
231.25681 349.52097 -23.040028 4294967295
239.5649 348.71866 -23.094074 4294967295
333.05511 350.59592 -23.385698 4294967295
175.25029 353.97827 -23.147158 4294967295
179.50934 353.55283 -23.466173 4294967295
181.31485 353.45435 -23.247917 4294967295
183.13297 353.34787 -23.082962 4294967295
185.12051 353.19366 -23.093962 4294967295
195.85873 352.10089 -23.602829 4294967295
197.41925 352.06418 -23.636332 4294967295
201.6485 351.71213 -23.495478 4294967295
203.25768 351.42383 -23.507442 4294967295
205.83003 351.504 -23.037367 4294967295
151.77383 356.40039 -23.822855 4294967295
158.10994 356.10986 -23.541937 4294967295
169.65927 354.77267 -23.310059 4294967295
171.29893 354.2254 -23.518557 4294967295
334.92307 355.09177 -23.988562 4294967295
95.698524 359.74011 -23.881893 4294967295
99.134789 359.60095 -23.457689 4294967295
101.3317 359.40036 -23.562803 4294967295
103.30249 359.26877 -23.679157 4294967295
115.83036 358.14871 -23.111589 4294967295
117.46989 357.84766 -23.582664 4294967295
119.20847 357.77521 -23.084854 4294967295
122.20387 357.46857 -23.512754 4294967295
130.1859 357.29266 -23.201475 4294967295
331.34723 359.83749 -23.169615 4294967295
55.426807 362.89804 -23.558762 4294967295
57.697201 362.73065 -23.620161 4294967295
61.762619 362.44016 -23.742332 4294967295
67.506676 361.8414 -23.749302 4294967295
71.563972 361.39557 -23.708979 4294967295
73.158806 361.33902 -23.14304 4294967295
75.170937 361.2056 -23.008425 4294967295
83.398125 360.94128 -23.00046 4294967295
86.242348 360.60202 -23.361574 4294967295
89.30352 360.13205 -23.836918 4294967295
91.524208 360.16849 -23.161234 4294967295
327.5 362.81888 -23.048573 4294967295
333.51416 362.22815 -23.537197 4294967295
27.685282 365.10986 -23.525375 4294967295
30.397575 365.09137 -23.114246 4294967295
39.244572 364.17963 -23.568687 4294967295
41.652363 364.10336 -23.8813 4294967295
43.532856 364.01761 -23.681299 4294967295
47.596619 363.54684 -23.900297 4294967295
49.569126 363.35666 -23.798639 4294967295
51.406719 363.25293 -23.516045 4294967295
53.276398 363.12363 -23.367851 4294967295
321.52866 365.3367 -23.284906 4294967295
325.2724 365.10675 -23.621426 4294967295
329.44409 363.87036 -23.614519 4294967295
331.34457 363.70532 -23.876064 4294967295
293.25397 368.83008 -23.803944 4294967295
297.68646 368.5011 -23.811703 4294967295
299.46994 368.48386 -23.710661 4294967295
302.35736 368.02863 -23.743216 4294967295
311.35489 366.75131 -23.76614 4294967295
313.88736 366.56595 -23.821962 4294967295
316.56943 366.15176 -23.526312 4294967295
319.39792 366.33774 -23.984983 4294967295
244.01904 371.70047 -23.017004 4294967295
249.69415 371.6272 -23.839649 4294967295
251.50804 371.54199 -23.763725 4294967295
266.44431 370.65744 -23.80356 4294967295
269.35608 370.5051 -23.869478 4294967295
273.24432 370.20779 -23.74272 4294967295
278.65085 369.87128 -23.025133 4294967295
291.33331 369.00534 -23.88493 4294967295
203.40906 374.94421 -23.753666 4294967295
205.31657 374.90289 -23.482668 4294967295
206.9818 374.79755 -23.590092 4294967295
210.99156 374.66016 -23.660322 4294967295
229.66809 373.15408 -23.787165 4294967295
233.85986 372.90906 -23.606287 4294967295
236.05585 372.77582 -23.676632 4294967295
237.25301 372.70126 -23.72987 4294967295
150.68182 377.47937 -23.591499 4294967295
152.96765 376.91473 -23.724819 4294967295
155.45213 376.05426 -23.772728 4294967295
157.8511 375.15604 -23.206553 4294967295
159.79906 375.41046 -23.352116 4294967295
161.71591 375.22888 -23.060158 4294967295
165.58751 375.2464 -23.206821 4294967295
173.04247 375.1694 -23.281816 4294967295
176.97354 376.05441 -23.198179 4294967295
178.0042 376.89511 -23.80307 4294967295
183.39546 376.36517 -23.738552 4294967295
185.75917 376.233 -23.9734 4294967295
187.51508 376.08173 -23.68055 4294967295
193.23096 375.98318 -23.809507 4294967295
16.931166 380.52896 -23.285929 4294967295
19.259939 380.427 -23.334017 4294967295
121.47196 380.97308 -23.364843 4294967295
9.5314589 383.14368 -23.421343 4294967295
10.952449 382.15552 -23.338732 4294967295
12.793391 381.19946 -23.216486 4294967295
14.858647 381.36804 -23.494755 4294967295
23.579763 381.45541 -23.888454 4294967295
27.834747 381.71967 -23.704639 4294967295
30.692919 382.33844 -23.714348 4294967295
33.74094 383.68994 -23.944635 4294967295
74.368256 383.94778 -23.133995 4294967295
117.81532 381.23792 -23.688194 4294967295
3.6653204 386.75269 -23.812574 4294967295
5.4457607 385.79434 -23.650288 4294967295
8.0871391 384.51187 -23.715443 4294967295
39.947639 384.87927 -23.686785 4294967295
43.341831 385.11621 -23.008129 4294967295
45.594288 385.18164 -23.145157 4294967295
49.35664 384.88361 -23.233112 4294967295
51.383011 384.52316 -23.374134 4294967295
64.089584 385.06091 -23.10784 4294967295
79.640282 384.11279 -23.761255 4294967295
-2.5755501 387.74304 -23.453386 4294967295
299.76367 344.58783 -22.582209 4294967295
307.47998 343.80743 -22.526035 4294967295
311.08185 343.79269 -22.27343 4294967295
313.43573 343.58307 -22.278046 4294967295
323.67554 344.41959 -22.395025 4294967295
325.84409 344.67572 -22.394325 4294967295
329.43823 344.40262 -22.866947 4294967295
333.8028 344.94849 -22.982121 4294967295
253.42697 347.71628 -22.105616 4294967295
255.41992 347.42078 -22.913021 4294967295
327.57834 345.58905 -22.250517 4294967295
329.38367 347.66547 -22.173275 4294967295
331.12927 345.41205 -22.695293 4294967295
333.27264 347.89624 -22.996759 4294967295
227.71747 349.72623 -22.874229 4294967295
233.05815 349.34219 -22.875267 4294967295
237.03906 349.08365 -22.3948 4294967295
243.30043 348.47873 -22.810957 4294967295
245.47964 348.27081 -22.916771 4294967295
249.8927 348.13324 -22.051619 4294967295
185.85828 353.27524 -22.353485 4294967295
187.57928 353.073 -22.844973 4294967295
188.95 352.96396 -22.886541 4294967295
191.24983 352.78143 -22.866947 4294967295
193.4776 352.5986 -22.866106 4294967295
139.22112 356.60803 -22.665482 4294967295
153.50108 356.92029 -22.60906 4294967295
155.38744 356.80283 -22.517258 4294967295
160.31152 356.28415 -22.472012 4294967295
164.06158 355.97717 -22.092531 4294967295
166.1115 355.49985 -22.406641 4294967295
167.78053 355.36871 -22.212921 4294967295
105.3348 359.38794 -22.40868 4294967295
109.35074 358.93216 -22.191954 4294967295
112.60389 358.57886 -22.884045 4294967295
123.40209 357.49637 -22.947557 4294967295
127.13918 357.44403 -22.622292 4294967295
131.6738 357.40295 -22.336134 4294967295
133.15657 357.32498 -22.298855 4294967295
135.52531 357.09439 -22.208128 4294967295
149.23825 357.34293 -22.388239 4294967295
63.226612 362.87354 -22.508289 4294967295
68.082886 362.35437 -22.390717 4294967295
79.430305 361.21979 -22.920731 4294967295
81.496422 361.16556 -22.553747 4294967295
86.519653 360.69202 -22.78677 4294967295
91.093102 360.46426 -22.203873 4294967295
97.803009 360.00552 -22.365294 4294967295
318.67621 362.11487 -22.147415 4294967295
321.90469 362.66843 -22.30484 4294967295
325.90656 362.5643 -22.865852 4294967295
35.375626 365.04727 -22.639021 4294967295
37.168068 365.49258 -22.032486 4294967295
41.940578 365.37048 -22.015329 4294967295
45.510792 364.68015 -22.277964 4294967295
49.569351 363.79471 -22.826706 4294967295
55.637444 363.3558 -22.455729 4294967295
59.362164 363.11453 -22.404997 4294967295
307.45151 365.52277 -22.10441 4294967295
311.06354 365.24368 -22.420658 4294967295
313.88422 363.9024 -22.014849 4294967295
314.76505 365.09763 -22.731529 4294967295
317.70795 363.92245 -22.436861 4294967295
319.44571 364.43301 -22.50876 4294967295
323.49994 364.0752 -22.886126 4294967295
285.69403 368.66162 -22.060837 4294967295
288.7991 368.74222 -22.640253 4294967295
291.81775 368.56744 -22.811422 4294967295
295.66156 368.19995 -22.620026 4294967295
297.50623 368.17676 -22.558195 4294967295
300.9306 367.27121 -22.2353 4294967295
303.30389 367.29178 -22.572426 4294967295
305.06155 366.48691 -22.268957 4294967295
307.02594 366.7576 -22.942793 4294967295
309.76627 366.18524 -22.853037 4294967295
247.53351 370.92136 -22.319344 4294967295
257.54193 370.55362 -22.211168 4294967295
265.74866 370.27417 -22.539188 4294967295
269.52338 370.01382 -22.463829 4294967295
271.57211 369.9169 -22.565147 4294967295
272.50967 369.67563 -22.21249 4294967295
275.81732 369.73886 -22.922655 4294967295
153.43871 374.51202 -22.191004 4294967295
155.28088 374.16281 -22.289608 4294967295
159.65057 374.25616 -22.118418 4294967295
163.85127 374.52206 -22.128038 4294967295
167.9451 374.0459 -22.300795 4294967295
170.73683 374.68533 -22.974857 4294967295
199.04614 374.91202 -22.356447 4294967295
201.00729 374.84216 -22.62702 4294967295
203.379 374.56903 -22.291059 4294967295
205.64088 374.35535 -22.13105 4294967295
210.27991 374.18921 -22.300911 4294967295
231.25162 372.68259 -22.521643 4294967295
233.52478 372.52707 -22.386126 4294967295
236.35669 372.38745 -22.537964 4294967295
240.43179 372.11371 -22.990229 4294967295
17.921963 377.51053 -22.407881 4294967295
21.429213 377.1102 -22.240068 4294967295
23.838917 376.6618 -22.033596 4294967295
148.65794 376.63028 -22.604076 4294967295
150.84865 375.42542 -22.015156 4294967295
151.22218 376.52069 -22.658098 4294967295
152.43556 375.61224 -22.465931 4294967295
153.92651 375.51315 -22.845453 4294967295
174.54565 375.17023 -22.672983 4294967295
175.85895 375.00656 -22.248827 4294967295
179.32382 376.37292 -22.398838 4294967295
180.647 376.25729 -22.323057 4294967295
184.71133 375.69833 -22.109684 4294967295
187.58998 375.43576 -22.128826 4294967295
191.24329 375.45117 -22.610933 4294967295
193.76218 375.37143 -22.63604 4294967295
194.92622 375.10104 -22.196486 4294967295
197.45021 375.14191 -22.573116 4294967295
11.083281 379.63229 -22.676241 4294967295
13.749297 379.72913 -22.817417 4294967295
15.562501 379.27194 -22.781839 4294967295
20.074892 378.63763 -22.654602 4294967295
21.961046 379.65527 -22.986771 4294967295
23.359123 378.29605 -22.426201 4294967295
24.735672 378.12805 -22.285526 4294967295
25.504829 379.29639 -22.647121 4294967295
26.884232 378.52097 -22.237005 4294967295
27.510042 380.17267 -22.778925 4294967295
28.876135 378.82635 -22.28363 4294967295
29.076941 380.77661 -22.943834 4294967295
30.585087 380.53009 -22.696226 4294967295
31.409094 379.31439 -22.296066 4294967295
33.303246 378.8558 -22.14439 4294967295
35.562469 379.66641 -22.196499 4294967295
119.55653 380.53784 -22.601076 4294967295
121.58111 380.41437 -22.492329 4294967295
137.53563 378.86447 -22.036936 4294967295
5.6126318 383.75571 -22.312527 4294967295
8.3994722 381.65897 -22.753208 4294967295
32.932812 381.06192 -22.734707 4294967295
35.277748 382.36328 -22.973228 4294967295
37.02169 381.79672 -22.591642 4294967295
39.539135 382.16949 -22.464336 4294967295
45.353825 383.91013 -22.312239 4294967295
49.694031 383.5141 -22.376772 4294967295
62.217663 383.92947 -22.073618 4294967295
1.9433477 386.82672 -22.911654 4294967295
41.545582 385.14545 -22.928053 4294967295
43.142712 384.01505 -22.342123 4294967295
47.330044 384.81818 -22.95046 4294967295
289.50238 344.91733 -21.911753 4294967295
291.20087 344.91348 -21.761732 4294967295
295.3652 344.82782 -21.932547 4294967295
309.62387 344.55783 -21.485533 4294967295
313.33173 344.61862 -21.286758 4294967295
317.27197 343.72559 -21.996357 4294967295
319.35556 344.64069 -21.853792 4294967295
257.43683 347.40536 -21.487135 4294967295
261.67401 347.04715 -21.315458 4294967295
267.591 346.37683 -21.693052 4294967295
269.53482 346.45773 -21.594303 4294967295
273.21481 346.25519 -21.473007 4294967295
275.84988 345.99332 -21.699783 4294967295
279.388 345.81161 -21.687252 4294967295
281.70349 345.66437 -21.694351 4294967295
283.63501 345.47348 -21.72682 4294967295
295.6449 345.35663 -21.030586 4294967295
306.88004 345.36313 -21.103992 4294967295
317.64099 346.19067 -21.179401 4294967295
321.24686 345.8317 -21.604284 4294967295
323.29291 346.66827 -21.602966 4294967295
325.25146 346.78369 -21.767479 4294967295
221.33011 350.52271 -21.612467 4294967295
224.05147 350.24097 -21.735928 4294967295
227.55383 349.96719 -21.703131 4294967295
229.09702 349.94833 -21.57803 4294967295
231.01659 349.7919 -21.737595 4294967295
235.52905 349.46835 -21.539827 4294967295
239.26907 349.01422 -21.554453 4294967295
241.81323 348.74188 -21.522575 4294967295
245.09158 348.61472 -21.673597 4294967295
247.57991 348.44913 -21.66328 4294967295
251.92986 348.37933 -21.031982 4294967295
313.64435 349.97522 -21.021473 4294967295
314.8725 350.01041 -21.142986 4294967295
317.79987 350.32385 -21.464636 4294967295
319.3085 350.05664 -21.533468 4294967295
181.28943 353.87469 -21.564789 4294967295
182.9859 353.73029 -21.630636 4294967295
184.45721 353.91541 -21.012049 4294967295
187.4245 353.22763 -21.754995 4294967295
189.34528 353.18936 -21.624596 4294967295
193.61188 352.83899 -21.577824 4294967295
197.26767 352.50284 -21.705059 4294967295
201.45914 352.11139 -21.699663 4294967295
203.25912 351.95419 -21.729088 4294967295
205.96483 351.76373 -21.70714 4294967295
209.28409 351.5195 -21.609348 4294967295
211.85031 351.241 -21.917149 4294967295
215.1152 351.09265 -21.373404 4294967295
137.20383 356.97684 -21.769089 4294967295
161.89139 356.7887 -21.340973 4294967295
167.44458 355.96567 -21.216171 4294967295
168.95973 355.88339 -21.223747 4294967295
170.33914 355.492 -21.476555 4294967295
171.16806 354.8381 -21.966852 4294967295
173.18419 354.74066 -21.709639 4294967295
177.55132 354.15561 -21.665396 4294967295
103.01546 359.83963 -21.83197 4294967295
107.25327 359.45914 -21.520088 4294967295
111.22322 358.97906 -21.45006 4294967295
113.19844 358.86591 -21.583845 4294967295
115.65084 358.62653 -21.46756 4294967295
117.61457 358.38068 -21.533934 4294967295
121.8487 358.24487 -21.015812 4294967295
123.51653 357.59985 -21.776697 4294967295
129.37531 357.64111 -21.647678 4294967295
151.57608 357.76337 -21.842314 4294967295
153.92288 358.29333 -21.125162 4294967295
156.66628 357.51263 -21.429842 4294967295
159.32497 357.39679 -21.158155 4294967295
314.35776 358.16849 -21.897675 4294967295
72.197968 361.98215 -21.855038 4294967295
75.087372 361.70453 -21.625696 4294967295
79.329041 361.51025 -21.815529 4294967295
81.713707 361.34409 -21.826523 4294967295
83.720528 361.12534 -21.504948 4294967295
86.730659 360.86707 -21.571003 4294967295
88.880531 360.76138 -21.695475 4294967295
93.352318 360.54214 -21.752045 4294967295
95.644066 360.86887 -21.017988 4294967295
96.284569 360.26764 -21.953407 4294967295
99.945847 360.40228 -21.323423 4294967295
101.23259 360.00238 -21.806313 4294967295
307.35208 361.91791 -21.140678 4294967295
309.53784 361.81433 -21.138903 4294967295
311.04706 361.79575 -21.506809 4294967295
312.86145 362.55841 -21.743975 4294967295
315.47058 361.87207 -21.880205 4294967295
47.43388 365.04712 -21.657946 4294967295
49.222313 365.21567 -21.307457 4294967295
52.003662 364.61169 -21.314039 4294967295
55.486713 364.45819 -21.053728 4294967295
57.238068 364.25583 -21.071224 4294967295
59.05117 364.11182 -21.062643 4294967295
301.42377 364.66837 -21.036522 4294967295
303.5484 364.92059 -21.37973 4294967295
305.42899 364.06741 -21.257824 4294967295
307.72952 363.93176 -21.440985 4294967295
309.63669 363.90997 -21.651766 4294967295
311.42514 363.69873 -21.619009 4294967295
25.313114 366.68628 -21.773724 4294967295
27.218426 367.47717 -21.62166 4294967295
29.442423 367.13312 -21.364195 4294967295
30.880926 368.103 -21.318962 4294967295
31.752184 366.44083 -21.681715 4294967295
34.016621 366.89386 -21.457438 4294967295
35.007339 367.54056 -21.259592 4294967295
37.568645 367.65329 -21.227831 4294967295
39.490173 366.98111 -21.419981 4294967295
43.406078 366.47314 -21.176571 4294967295
45.669075 366.13556 -21.322515 4294967295
269.57965 368.95502 -21.104107 4294967295
275.30725 368.47003 -21.193661 4294967295
279.21115 368.95755 -21.697197 4294967295
283.48959 368.50342 -21.663877 4294967295
287.89951 367.97885 -21.520092 4294967295
289.07706 367.60312 -21.366367 4294967295
291.61594 367.23288 -21.274315 4294967295
293.36636 367.31552 -21.411438 4294967295
295.57217 367.36346 -21.446333 4294967295
297.67819 367.11658 -21.449141 4294967295
21.909073 370.22339 -21.342129 4294967295
24.879389 371.69748 -21.400631 4294967295
25.087593 369.21878 -21.377575 4294967295
35.54504 369.66864 -21.027319 4294967295
236.74229 371.70837 -21.321499 4294967295
239.55916 371.04868 -21.271767 4294967295
243.46411 370.25873 -21.473869 4294967295
245.50334 369.60812 -21.226225 4294967295
247.58119 369.25452 -21.217432 4294967295
249.54327 369.30472 -21.219082 4294967295
251.5863 370.39941 -21.83016 4294967295
254.28563 370.13034 -21.527775 4294967295
259.436 369.21664 -21.043783 4294967295
261.34143 370.30835 -21.857838 4294967295
263.14844 369.32648 -21.189314 4294967295
267.69598 369.129 -21.134632 4294967295
271.58081 369.00818 -21.31279 4294967295
20.13991 374.91559 -21.869705 4294967295
22.816601 374.62292 -21.77861 4294967295
24.901213 374.96228 -21.767038 4294967295
51.129295 372.77972 -21.084049 4294967295
52.642178 374.03909 -21.114468 4294967295
148.04689 373.78964 -21.014603 4294967295
149.70688 374.72482 -21.580973 4294967295
150.46225 373.63849 -21.331568 4294967295
151.64044 372.81314 -21.288977 4294967295
152.11311 374.27573 -21.829819 4294967295
153.57669 372.85794 -21.535227 4294967295
155.3483 372.57364 -21.443584 4294967295
157.63235 372.45966 -21.184286 4294967295
159.63737 373.07654 -21.131105 4294967295
160.94885 373.43945 -21.228325 4294967295
162.43733 373.71182 -21.275673 4294967295
165.2876 373.12125 -21.072405 4294967295
170.48438 373.13425 -21.472296 4294967295
172.65126 373.00613 -21.383276 4294967295
174.5799 373.97369 -21.70981 4294967295
176.49409 373.31921 -21.040909 4294967295
177.85361 374.79147 -21.702791 4294967295
179.55969 374.89987 -21.511248 4294967295
181.00822 374.27502 -21.033991 4294967295
185.7692 374.88535 -21.164888 4294967295
190.92442 374.58505 -21.171566 4294967295
195.94133 374.45377 -21.183516 4294967295
200.60371 374.13614 -21.309828 4294967295
207.7197 374.18372 -21.985641 4294967295
230.6935 372.06729 -21.248697 4294967295
25.796715 376.95642 -21.994122 4294967295
27.495775 377.12473 -21.973494 4294967295
28.886234 376.56125 -21.910973 4294967295
31.300592 377.1489 -21.967361 4294967295
43.658737 376.99106 -21.772755 4294967295
48.015507 377.11862 -21.595978 4294967295
49.555096 376.6918 -21.51437 4294967295
183.241 375.05466 -21.019554 4294967295
189.50862 375.01508 -21.607388 4294967295
41.40601 379.52927 -21.782122 4294967295
43.614143 379.84518 -21.677713 4294967295
45.794971 379.74774 -21.56732 4294967295
47.513611 379.7652 -21.495163 4294967295
49.586639 379.6507 -21.421532 4294967295
115.51842 380.3797 -21.704168 4294967295
116.95627 379.86932 -21.365263 4294967295
119.20104 379.25214 -21.068769 4294967295
132.09074 378.27078 -21.102211 4294967295
139.05278 378.68716 -21.90449 4294967295
41.985584 382.18344 -21.664719 4294967295
43.612499 382.51041 -21.877716 4294967295
45.619076 381.90894 -21.737846 4294967295
47.739063 382.30115 -21.842813 4294967295
49.785187 382.1181 -21.859583 4294967295
61.959946 383.57336 -21.908928 4294967295
62.085011 381.98581 -21.189648 4294967295
63.395569 381.93869 -21.117174 4294967295
65.397758 381.73553 -21.111935 4294967295
67.440781 381.83829 -21.124512 4294967295
69.31012 383.1387 -21.781639 4294967295
73.361694 382.69678 -21.400946 4294967295
75.342735 383.30698 -21.994427 4294967295
77.250145 382.46536 -21.345913 4294967295
80.071396 382.39822 -21.275471 4294967295
84.959419 382.91003 -21.825426 4294967295
256.00421 347.83286 -20.755938 4294967295
261.22208 347.71671 -20.120028 4294967295
263.66071 347.37601 -20.408333 4294967295
265.2485 346.82993 -20.937443 4294967295
271.34723 346.77072 -20.62896 4294967295
277.45529 346.90387 -20.043121 4294967295
279.57205 346.56729 -20.298651 4294967295
285.70987 345.57202 -20.700596 4294967295
289.15045 345.80441 -20.213711 4294967295
292.93411 345.79926 -20.301905 4294967295
299.57434 346.07193 -20.428429 4294967295
303.45853 346.95102 -20.516472 4294967295
308.94208 346.80133 -20.460306 4294967295
311.56818 346.19107 -20.81229 4294967295
313.09622 346.11179 -20.860271 4294967295
314.80249 346.19702 -20.993778 4294967295
315.49136 345.51791 -20.983376 4294967295
223.36275 350.98059 -20.291151 4294967295
235.47833 349.73279 -20.507582 4294967295
249.45323 349.14813 -20.048103 4294967295
311.36465 349.85077 -20.781017 4294967295
191.31816 353.6803 -20.03631 4294967295
195.89909 353.15976 -20.348801 4294967295
199.52682 352.603 -20.956236 4294967295
201.70889 352.52948 -20.821178 4294967295
203.52673 352.71069 -20.139719 4294967295
207.25262 352.14059 -20.703182 4294967295
211.43965 351.85159 -20.16086 4294967295
219.80524 351.31735 -20.17532 4294967295
221.39066 351.11771 -20.294964 4294967295
165.78352 356.5535 -20.88726 4294967295
169.50009 356.87408 -20.236881 4294967295
170.31549 356.26968 -20.614391 4294967295
171.99042 355.92648 -20.731001 4294967295
173.57233 355.83575 -20.324165 4294967295
175.45712 355.08301 -20.394667 4294967295
177.58443 355.07629 -20.230888 4294967295
179.43018 354.88766 -20.260199 4294967295
181.13858 354.84482 -20.123556 4294967295
183.27811 354.4834 -20.384485 4294967295
107.77843 359.94571 -20.325645 4294967295
113.3597 359.59195 -20.121948 4294967295
119.60442 358.81583 -20.263477 4294967295
123.23582 358.84149 -20.098038 4294967295
125.04652 358.76743 -20.040138 4294967295
127.60172 358.26501 -20.559891 4294967295
129.45081 358.57806 -20.199368 4294967295
131.57741 358.31705 -20.270309 4294967295
133.15332 358.42648 -20.151014 4294967295
135.62677 357.95551 -20.128412 4294967295
140.02101 357.43921 -20.667786 4294967295
149.45097 359.10306 -20.975245 4294967295
151.51285 359.22934 -20.753527 4294967295
154.37782 359.85617 -20.125799 4294967295
155.66914 358.84921 -20.405312 4294967295
157.46039 358.91321 -20.113077 4294967295
161.04799 358.23788 -20.077946 4294967295
163.93666 357.21036 -20.408495 4294967295
167.81189 357.07309 -20.270386 4294967295
83.715736 361.72202 -20.590355 4294967295
87.067383 361.74057 -20.005079 4294967295
89.220901 361.38849 -20.468235 4294967295
91.010925 361.40637 -20.416143 4294967295
96.702003 361.3403 -20.446409 4294967295
99.82872 361.47992 -20.142769 4294967295
101.61631 360.75226 -20.668804 4294967295
103.30041 360.84018 -20.407944 4294967295
105.37165 360.45154 -20.235453 4294967295
146.92694 361.27243 -20.186203 4294967295
150.1223 360.94556 -20.207003 4294967295
152.52237 360.44211 -20.187414 4294967295
241.45093 360.74237 -20.135689 4294967295
49.55801 365.84558 -20.952806 4294967295
53.645485 365.89285 -20.559473 4294967295
56.740345 365.89835 -20.322828 4294967295
59.619389 365.9093 -20.183441 4294967295
61.580437 365.047 -20.480352 4294967295
63.330128 364.15952 -20.774273 4294967295
65.02655 364.4436 -20.564474 4294967295
67.646255 363.96594 -20.607561 4294967295
69.310028 363.98932 -20.402584 4294967295
71.966904 363.1861 -20.463118 4294967295
245.76765 365.68738 -20.305973 4294967295
247.27249 364.30698 -20.363663 4294967295
275.58228 365.6405 -20.023737 4294967295
279.67694 365.8909 -20.225319 4294967295
287.54993 365.94366 -20.443932 4294967295
289.4158 365.83459 -20.472504 4294967295
291.86743 364.38467 -20.049295 4294967295
295.97858 364.47708 -20.488651 4294967295
299.81805 365.05997 -20.974968 4294967295
41.329876 367.48721 -20.98847 4294967295
46.802963 367.37827 -20.854864 4294967295
48.500252 367.16861 -20.483881 4294967295
51.500015 366.83261 -20.573465 4294967295
52.949509 367.25516 -20.367695 4294967295
55.710373 366.9614 -20.219831 4294967295
143.58139 368.9321 -20.030832 4294967295
146.34248 368.6181 -20.080723 4294967295
149.23213 367.5127 -20.075243 4294967295
151.33197 367.84521 -20.105297 4294967295
152.41577 368.74091 -20.269049 4294967295
154.13669 368.8428 -20.195456 4294967295
247.10535 368.08643 -20.742748 4294967295
249.76341 368.21881 -20.733253 4294967295
251.29175 366.9801 -20.375767 4294967295
265.30212 368.44257 -20.69273 4294967295
267.42151 368.02139 -20.345913 4294967295
269.54007 367.91223 -20.495335 4294967295
271.24994 367.86456 -20.564102 4294967295
273.53726 367.85364 -20.715294 4294967295
283.46384 366.20352 -20.218271 4294967295
285.1922 366.64005 -20.677608 4294967295
287.67984 367.16098 -20.99131 4294967295
291.43619 366.15417 -20.678171 4294967295
293.57944 366.17487 -20.757011 4294967295
295.58505 366.15341 -20.822464 4294967295
39.030041 369.85193 -20.997219 4294967295
49.214287 369.79953 -20.597906 4294967295
51.290356 370.0481 -20.545496 4294967295
53.831593 369.29663 -20.30596 4294967295
55.057842 370.22076 -20.457214 4294967295
59.505848 370.26498 -20.255001 4294967295
115.04325 371.07944 -20.00844 4294967295
118.89475 371.11743 -20.060677 4294967295
140.70766 370.98944 -20.090847 4294967295
143.56247 370.83212 -20.076038 4294967295
145.19716 371.20654 -20.125137 4294967295
147.2484 371.39667 -20.384232 4294967295
148.53354 369.76938 -20.297012 4294967295
149.22128 371.58633 -20.647409 4294967295
150.70978 370.64972 -20.634708 4294967295
152.59059 370.77197 -20.773415 4294967295
155.49922 370.0224 -20.393089 4294967295
157.00346 370.16226 -20.191549 4294967295
159.95824 371.73376 -20.272243 4294967295
161.6956 371.83594 -20.063496 4294967295
169.61476 371.99637 -20.735712 4294967295
171.43866 371.19757 -20.371065 4294967295
173.16635 370.94308 -20.329075 4294967295
174.87866 371.66544 -20.532064 4294967295
176.45686 370.67688 -20.152905 4294967295
229.26849 371.14362 -20.42482 4294967295
231.7366 370.88785 -20.359116 4294967295
233.62865 371.45007 -20.829666 4294967295
235.48723 371.33868 -20.888916 4294967295
241.49406 369.86337 -20.761974 4294967295
256.0062 369.35492 -20.865637 4294967295
53.423744 372.55414 -20.998138 4294967295
55.647781 372.30316 -20.800377 4294967295
107.73333 373.02646 -20.009674 4294967295
141.65488 374.25952 -20.005356 4294967295
146.00067 373.19086 -20.406466 4294967295
163.40993 372.3902 -20.320391 4294967295
179.07205 372.59314 -20.580706 4294967295
182.62744 372.5004 -20.233831 4294967295
185.80437 373.77341 -20.331112 4294967295
187.30824 373.96539 -20.56028 4294967295
189.16554 373.26382 -20.211155 4294967295
191.67661 373.35812 -20.24078 4294967295
193.367 374.20718 -20.84734 4294967295
197.39285 373.59506 -20.391632 4294967295
201.16281 373.20718 -20.272596 4294967295
203.67514 373.43069 -20.512314 4294967295
205.58252 373.302 -20.456087 4294967295
207.39247 373.0726 -20.333021 4294967295
209.88623 373.28912 -20.398119 4294967295
211.45459 373.18118 -20.410812 4294967295
63.408867 377.52908 -20.696465 4294967295
65.552368 377.3605 -20.632896 4294967295
68.985733 377.64938 -20.421698 4294967295
71.458 377.4119 -20.19175 4294967295
73.514854 375.21109 -20.048332 4294967295
111.28084 377.74869 -20.295704 4294967295
113.86996 376.81537 -20.197914 4294967295
115.67289 375.62595 -20.009626 4294967295
117.5184 376.86682 -20.131664 4294967295
119.00334 377.73578 -20.43535 4294967295
123.78325 376.84631 -20.299648 4294967295
125.21761 376.94522 -20.359388 4294967295
133.52863 376.55237 -20.445236 4294967295
137.57269 376.01297 -20.372589 4294967295
139.64915 376.71091 -20.61026 4294967295
142.03133 376.15485 -20.220625 4294967295
145.40387 375.2688 -20.925432 4294967295
57.865112 379.96436 -20.99687 4294967295
63.389832 380.18765 -20.75289 4294967295
65.438744 379.88229 -20.687429 4294967295
68.134933 379.58423 -20.486193 4294967295
73.019699 379.96896 -20.441603 4294967295
79.331421 379.92715 -20.143291 4294967295
81.770248 379.89218 -20.10416 4294967295
85.353828 379.63559 -20.006001 4294967295
113.51439 378.96365 -20.629343 4294967295
115.68398 378.04071 -20.424831 4294967295
121.72666 378.10214 -20.546921 4294967295
71.631699 381.57831 -20.858927 4294967295
75.686028 381.42145 -20.591646 4294967295
79.334167 381.46255 -20.741352 4294967295
81.434013 381.65424 -20.813871 4294967295
83.580971 381.24814 -20.634907 4294967295
259.46109 347.80698 -19.938765 4294967295
269.18613 347.38861 -19.751612 4294967295
271.2742 347.71365 -19.298708 4294967295
275.55566 347.064 -19.795856 4294967295
281.45428 346.7829 -19.946533 4294967295
283.01968 346.55798 -19.903646 4294967295
286.89264 347.4129 -19.122019 4294967295
293.8201 346.55298 -19.723755 4294967295
295.43637 346.69946 -19.773653 4294967295
297.9444 347.82025 -19.31629 4294967295
231.31749 350.6813 -19.943195 4294967295
233.31754 350.64734 -19.873861 4294967295
237.15427 350.34009 -19.538858 4294967295
239.34404 350.06961 -19.600227 4294967295
241.59958 349.66702 -19.800266 4294967295
243.25656 349.53882 -19.878134 4294967295
253.52388 348.87112 -19.924072 4294967295
255.20311 349.19131 -19.457481 4294967295
256.97672 349.91965 -19.001976 4294967295
257.81918 348.25699 -19.693102 4294967295
259.56558 348.2522 -19.426918 4294967295
265.24811 348.56192 -19.110065 4294967295
273.26489 348.36176 -19.045113 4294967295
275.41461 348.40161 -19.048203 4294967295
277.19284 348.39383 -19.123699 4294967295
279.45523 348.43158 -19.218798 4294967295
281.6803 348.29245 -19.250074 4294967295
193.50002 353.61523 -19.860619 4294967295
199.7491 353.68149 -19.505791 4294967295
200.73547 353.64819 -19.4765 4294967295
205.53931 353.06671 -19.741199 4294967295
207.23708 353.29141 -19.470434 4294967295
209.453 353.23154 -19.391979 4294967295
211.5605 352.83899 -19.492689 4294967295
213.38684 351.80856 -19.95178 4294967295
215.12187 352.11517 -19.473045 4294967295
217.3775 351.76486 -19.617897 4294967295
221.04144 352.30051 -19.264719 4294967295
223.49199 352.55298 -19.076811 4294967295
225.73424 352.42462 -19.04505 4294967295
227.53572 351.00372 -19.917921 4294967295
229.05612 352.54129 -19.008631 4294967295
231.91942 352.2713 -19.081993 4294967295
