# .PCD v0.7 - Point Cloud Data file format
VERSION 0.7
FIELDS x y z rgba
SIZE 4 4 4 4
TYPE F F F U
COUNT 1 1 1 1
WIDTH 1114
HEIGHT 1
VIEWPOINT 0 0 0 1 0 0 0
POINTS 1114
DATA ascii
-14.754454 -807.48132 -524.72571 4294967295
-12.447966 -807.62091 -524.6264 4294967295
-6.3795228 -808.06873 -524.65961 4294967295
-4.5734777 -808.19598 -524.59076 4294967295
-2.3933303 -808.31329 -524.62854 4294967295
-0.69466221 -808.42657 -524.91534 4294967295
1.6791193 -808.56293 -524.5849 4294967295
15.36824 -809.57318 -524.81433 4294967295
17.444498 -809.73993 -524.67383 4294967295
19.590214 -809.92523 -524.6637 4294967295
-52.568451 -804.7724 -524.70801 4294967295
-44.563263 -805.32556 -524.63177 4294967295
-22.584543 -806.81891 -524.89081 4294967295
-20.748747 -806.99951 -524.81415 4294967295
-104.30828 -801.18414 -524.79657 4294967295
-70.69149 -803.64532 -524.74591 4294967295
-68.298386 -803.86774 -524.58441 4294967295
-66.437782 -803.93933 -524.4104 4294967295
-118.97015 -800.39355 -524.43567 4294967295
298.50076 -857.76843 -523.08752 4294967295
359.60696 -851.45074 -523.5697 4294967295
359.5741 -845.58655 -523.98029 4294967295
361.48773 -837.55615 -523.09619 4294967295
361.37744 -835.36737 -523.27911 4294967295
332.85556 -831.16174 -523.61877 4294967295
346.96732 -831.97003 -523.83502 4294967295
349.50397 -832.13013 -523.72089 4294967295
354.13989 -832.56671 -523.35553 4294967295
356.75403 -832.95166 -523.79785 4294967295
358.96967 -833.22388 -523.65625 4294967295
360.41553 -833.78705 -523.25647 4294967295
-108.91873 -829.63672 -523.91809 4294967295
-106.16624 -829.70087 -523.47266 4294967295
-99.318596 -829.93652 -523.43176 4294967295
-89.278191 -830.8468 -523.03717 4294967295
317.26447 -830.31323 -523.39355 4294967295
323.47833 -830.82666 -523.10791 4294967295
326.94342 -830.99719 -523.23749 4294967295
235.61 -825.14276 -523.64172 4294967295
238.59615 -825.36505 -523.96399 4294967295
242.76672 -825.6424 -523.97882 4294967295
246.5163 -825.8717 -523.92786 4294967295
250.51315 -825.90747 -523.39691 4294967295
254.13261 -826.06909 -523.6582 4294967295
257.21899 -826.27301 -523.73468 4294967295
233.2885 -824.8421 -523.45709 4294967295
234.73097 -825 -523.98499 4294967295
153.90431 -819.30194 -523.52441 4294967295
165.32388 -819.84595 -523.32318 4294967295
167.62929 -819.92609 -523.29944 4294967295
170.67926 -820.16296 -523.09625 4294967295
173.29504 -820.51343 -523.03583 4294967295
142.94263 -818.2995 -523.02386 4294967295
145.65157 -818.51581 -523.95197 4294967295
47.235897 -811.71558 -523.38116 4294967295
291.45255 -858.27997 -522.95471 4294967295
293.59879 -858.30872 -522.93793 4294967295
295.32492 -858.20996 -522.97235 4294967295
360.26959 -850.65344 -522.20593 4294967295
-52.845634 -833.62054 -522.83813 4294967295
-50.68362 -833.85602 -522.88635 4294967295
-46.218094 -833.85205 -522.57941 4294967295
-41.586723 -832.28833 -522.0509 4294967295
331.6134 -831.01605 -522.53448 4294967295
338.56009 -831.18402 -522.01935 4294967295
351.76321 -832.26184 -522.51697 4294967295
-111.9004 -829.37604 -522.25391 4294967295
-102.08638 -829.81885 -522.44318 4294967295
-91.874092 -830.56293 -522.42505 4294967295
295.44485 -829.15375 -522.53094 4294967295
309.47321 -830.46436 -522.38739 4294967295
313.50092 -830.16656 -522.85498 4294967295
322.12756 -830.70062 -522.71533 4294967295
324.61383 -830.88605 -522.65424 4294967295
325.52878 -830.94244 -522.94263 4294967295
329.3988 -830.99884 -522.46271 4294967295
234.71536 -825.08685 -522.4137 4294967295
235.99059 -825.24567 -522.32269 4294967295
237.20801 -825.31976 -522.14404 4294967295
240.12479 -825.39069 -522.3725 4294967295
241.75877 -825.40289 -522.08167 4294967295
244.72815 -825.54797 -522.7196 4294967295
248.55074 -825.55176 -522.16461 4294967295
252.57277 -825.64862 -522.17401 4294967295
255.80582 -825.95166 -522.74084 4294967295
258.80481 -826.29614 -522.74554 4294967295
261.23843 -826.60242 -522.87653 4294967295
266.64163 -827.14862 -522.78204 4294967295
271.41998 -827.5506 -522.68036 4294967295
191.63564 -822.07019 -522.08575 4294967295
193.31172 -822.10883 -522.43884 4294967295
195.39156 -822.24573 -522.5658 4294967295
197.46994 -822.39758 -522.65344 4294967295
199.23488 -822.53534 -522.552 4294967295
201.51886 -822.70148 -522.42096 4294967295
205.42653 -822.99896 -522.25952 4294967295
209.24182 -823.26764 -522.3689 4294967295
213.38896 -823.56519 -522.37067 4294967295
215.57568 -823.71735 -522.34479 4294967295
219.31615 -823.9552 -522.612 4294967295
221.38071 -824.15228 -522.3396 4294967295
223.27238 -824.27698 -522.37701 4294967295
225.59286 -824.42084 -522.36816 4294967295
227.32339 -824.53937 -522.36462 4294967295
229.3999 -824.68585 -522.40521 4294967295
231.13881 -824.73663 -522.20105 4294967295
156.2825 -819.35486 -522.41943 4294967295
161.44621 -819.67816 -522.26941 4294967295
163.40887 -819.78552 -522.90619 4294967295
109.28146 -816.32489 -522.05182 4294967295
111.4814 -816.48016 -522.07745 4294967295
115.50636 -816.73541 -522.10474 4294967295
117.17277 -816.7948 -522.3941 4294967295
119.97059 -816.97406 -522.28607 4294967295
125.19086 -817.34662 -522.37976 4294967295
127.41168 -817.52014 -522.10901 4294967295
129.41281 -817.66229 -522.06934 4294967295
137.27763 -818.24744 -522.20172 4294967295
139.56242 -818.13196 -522.58411 4294967295
146.34297 -818.44604 -522.74872 4294967295
150.36627 -818.67828 -522.46771 4294967295
66.876991 -813.5246 -522.08856 4294967295
89.569733 -814.86945 -522.07202 4294967295
91.444359 -814.98938 -522.10327 4294967295
93.097 -815.05304 -522.49518 4294967295
97.237465 -815.42218 -522.11139 4294967295
99.388107 -815.56555 -522.13422 4294967295
101.57909 -815.73743 -522.07288 4294967295
103.40308 -815.85242 -522.31409 4294967295
19.340187 -810.19873 -522.30841 4294967295
23.361076 -810.51263 -522.31274 4294967295
27.476326 -810.82416 -522.03162 4294967295
33.333607 -811.10461 -522.37738 4294967295
46.175297 -811.57562 -522.04504 4294967295
51.510738 -812.07867 -522.33722 4294967295
53.588963 -812.58197 -522.17365 4294967295
57.403484 -812.79462 -522.1618 4294967295
59.395512 -812.85126 -522.16888 4294967295
61.240196 -812.91803 -522.13715 4294967295
-22.669641 -807.19855 -522.27545 4294967295
-18.618025 -807.52063 -522.2619 4294967295
-16.706354 -807.65955 -522.23059 4294967295
-12.683206 -807.98657 -522.16309 4294967295
-10.742932 -808.1543 -522.01904 4294967295
-2.65731 -808.65216 -522.17279 4294967295
1.4047248 -808.9281 -522.34033 4294967295
7.4815187 -809.40137 -522.18872 4294967295
9.1666298 -809.53748 -522.10712 4294967295
11.468639 -809.70093 -522.11566 4294967295
13.457764 -809.83466 -522.18597 4294967295
15.510743 -809.99286 -522.11444 4294967295
-68.442123 -804.04376 -522.02032 4294967295
-64.503883 -804.30579 -522.02216 4294967295
-56.774632 -804.75995 -522.08069 4294967295
-44.919552 -805.61749 -522.02216 4294967295
297.61731 -857.64368 -521.77606 4294967295
360.67953 -849.1601 -521.19397 4294967295
360.80759 -847.35394 -521.07483 4294967295
362.85931 -836.51923 -521.1629 4294967295
336.18893 -831.04816 -521.96094 4294967295
340.96515 -831.35315 -521.96252 4294967295
343.32404 -831.53418 -521.98053 4294967295
345.55719 -831.71802 -521.92322 4294967295
347.87756 -831.89471 -521.37885 4294967295
350.04959 -832.08044 -521.54999 4294967295
356.51559 -832.66815 -521.26495 4294967295
359.05475 -833.02777 -521.75586 4294967295
360.56369 -833.54474 -521.19702 4294967295
-109.33237 -829.4505 -521.19141 4294967295
-107.12578 -829.58868 -521.46216 4294967295
-104.65809 -829.70886 -521.75293 4294967295
-97.406677 -830.0694 -521.20068 4294967295
-86.733841 -830.97858 -521.2085 4294967295
308.42517 -830.50659 -521.97662 4294967295
323.63208 -830.70441 -521.16998 4294967295
325.85803 -830.84204 -521.34637 4294967295
327.70871 -830.88306 -521.24274 4294967295
333.66745 -830.92981 -521.66467 4294967295
235.14389 -825.10504 -521.01074 4294967295
238.38617 -825.2713 -521.27966 4294967295
243.30832 -825.28503 -521.35529 4294967295
246.60234 -825.28662 -521.24072 4294967295
254.49593 -825.55768 -521.49438 4294967295
256.06982 -825.58008 -521.01398 4294967295
257.28845 -825.9173 -521.81531 4294967295
258.36826 -825.97156 -521.13074 4294967295
263.73276 -826.95374 -521.73346 4294967295
166.38266 -819.72955 -521.74152 4294967295
167.49852 -819.74725 -521.28992 4294967295
105.16071 -816.01428 -521.95966 4294967295
107.6739 -816.21387 -521.92163 4294967295
113.28307 -816.6134 -521.96655 4294967295
131.45737 -817.82007 -521.98419 4294967295
141.9903 -818.14624 -521.29419 4294967295
144.48178 -818.30725 -521.99091 4294967295
147.57304 -818.35168 -521.91705 4294967295
149.06747 -818.39886 -521.72095 4294967295
152.47348 -818.77411 -521.63739 4294967295
65.15773 -813.18097 -521.92615 4294967295
85.530884 -814.59998 -521.94983 4294967295
87.839775 -814.77313 -521.91089 4294967295
95.340942 -815.19891 -521.65582 4294967295
21.446962 -810.4035 -521.92017 4294967295
29.544903 -810.95001 -521.8681 4294967295
31.742872 -811.06482 -521.88007 4294967295
37.369625 -810.95538 -521.52051 4294967295
44.474026 -811.38599 -521.42224 4294967295
49.007286 -811.71277 -521.36804 4294967295
-24.474609 -807.11127 -521.91943 4294967295
-20.349758 -807.48102 -521.63513 4294967295
-14.487956 -807.90356 -521.73724 4294967295
-8.6878519 -808.32373 -521.94702 4294967295
-4.7686553 -808.56659 -521.99567 4294967295
-0.41992849 -808.85199 -521.92413 4294967295
3.8879077 -809.20258 -521.73431 4294967295
-66.647728 -804.15869 -521.73444 4294967295
-54.307838 -805.0174 -521.89978 4294967295
-50.505501 -805.26819 -521.83069 4294967295
-48.731499 -805.35614 -521.98743 4294967295
-46.46489 -805.49274 -521.91315 4294967295
-42.552124 -806.02063 -521.664 4294967295
-108.34542 -801.14594 -521.82788 4294967295
-106.62108 -801.24225 -521.74872 4294967295
-104.67655 -801.38025 -521.81696 4294967295
-102.70955 -801.64685 -521.85828 4294967295
-72.52417 -803.81903 -521.84613 4294967295
-70.594368 -803.93842 -521.80688 4294967295
-136.79213 -798.48535 -521.6106 4294967295
-134.50438 -798.85388 -521.09613 4294967295
-45.04929 -833.63934 -520.94617 4294967295
346.20145 -831.67676 -520.03748 4294967295
351.37637 -832.17444 -520.65717 4294967295
353.58838 -832.35663 -520.61737 4294967295
-100.23077 -829.88477 -520.3913 4294967295
-89.851753 -830.67139 -520.54694 4294967295
297.22644 -829.27521 -520.73328 4294967295
309.62982 -830.20367 -520.6803 4294967295
311.41779 -830.05621 -520.96539 4294967295
313.36545 -830.10712 -520.86578 4294967295
315.47043 -830.27161 -520.93091 4294967295
317.74185 -830.23865 -520.60107 4294967295
321.03168 -830.50323 -520.91748 4294967295
329.02988 -830.7569 -520.27545 4294967295
331.1626 -830.7608 -520.49396 4294967295
236.58313 -825.18768 -520.76855 4294967295
240.9586 -825.20282 -520.5918 4294967295
242.17732 -825.05023 -520.07965 4294967295
244.94859 -825.01184 -520.26941 4294967295
250.83693 -825.01746 -520.16754 4294967295
253.28474 -825.07568 -520.04602 4294967295
259.83279 -826.14642 -520.47174 4294967295
262.10391 -826.68774 -520.21521 4294967295
269.52258 -827.49371 -520.08496 4294967295
271.4454 -827.61389 -520.18774 4294967295
279.37891 -827.81207 -520.75458 4294967295
233.26959 -824.85712 -520.46271 4294967295
159.1078 -819.30377 -520.84198 4294967295
161.39522 -819.38806 -520.14038 4294967295
162.82147 -819.54614 -520.88 4294967295
164.8282 -819.54767 -520.77991 4294967295
166.91597 -819.54279 -520.06775 4294967295
169.26135 -819.7019 -520.14697 4294967295
143.7097 -818.10419 -520.43304 4294967295
146.29985 -818.04102 -520.37 4294967295
154.68532 -818.81842 -520.71643 4294967295
-132.91183 -799.05554 -520.91626 4294967295
295.75491 -857.72156 -519.19672 4294967295
361.72668 -845.53491 -519.20001 4294967295
-44.743553 -833.58728 -519.02094 4294967295
339.83078 -831.01135 -519.4989 4294967295
342.21436 -831.2431 -519.55243 4294967295
344.41098 -831.48425 -519.87439 4294967295
349.72028 -832.02155 -519.2171 4294967295
351.85782 -832.20496 -519.30951 4294967295
359.51471 -832.81354 -519.04181 4294967295
360.36334 -833.08191 -519.2832 4294967295
-113.382 -829.03082 -519.50934 4294967295
-110.72131 -829.20959 -519.16193 4294967295
-108.0848 -829.40326 -519.20941 4294967295
-105.60368 -829.56683 -519.32483 4294967295
-102.98086 -829.72168 -519.68256 4294967295
-95.503319 -830.15521 -519.01782 4294967295
-92.636101 -830.39777 -519.72089 4294967295
-88.075302 -830.73419 -519.1842 4294967295
301.69803 -830.18408 -519.24072 4294967295
304.496 -829.79272 -519.36719 4294967295
306.39352 -830.73016 -519.86523 4294967295
307.01294 -830.724 -519.90192 4294967295
309.57318 -829.75714 -519.01013 4294967295
313.29538 -829.75507 -519.00256 4294967295
325.11472 -830.54999 -519.34424 4294967295
327.23471 -830.54578 -519.01953 4294967295
333.11859 -830.57849 -519.20715 4294967295
335.28149 -830.70325 -519.65143 4294967295
337.49371 -830.83643 -519.72009 4294967295
239.54366 -825.03278 -519.74225 4294967295
255.2476 -825.09753 -519.69183 4294967295
257.58987 -825.427 -519.63745 4294967295
263.44461 -827.12964 -519.78162 4294967295
265.23068 -827.27075 -519.84296 4294967295
267.32129 -827.39063 -519.98254 4294967295
179.69952 -822.81622 -519.40564 4294967295
186.48337 -822.96423 -519.40198 4294967295
189.39104 -822.14838 -519.52246 4294967295
191.44777 -822.0686 -519.62311 4294967295
193.39653 -822.12787 -519.68866 4294967295
195.40465 -822.45386 -519.65765 4294967295
197.45085 -822.62402 -519.56891 4294967295
199.1759 -822.73743 -519.58441 4294967295
201.76367 -822.79681 -519.65204 4294967295
203.35892 -822.91327 -519.54907 4294967295
205.56631 -823.14404 -519.64526 4294967295
207.36983 -823.09113 -519.04248 4294967295
209.27327 -823.36462 -519.65002 4294967295
211.4117 -823.48907 -519.63751 4294967295
213.2402 -823.61627 -519.716 4294967295
215.46391 -823.76581 -519.77197 4294967295
217.28656 -823.88483 -519.69305 4294967295
219.47839 -824.03113 -519.61255 4294967295
223.38132 -824.4837 -519.55823 4294967295
225.50441 -824.63306 -519.55231 4294967295
227.40158 -824.74402 -519.57178 4294967295
229.3896 -824.86566 -519.61029 4294967295
231.41492 -824.88116 -519.70752 4294967295
235.43298 -824.76984 -519.32056 4294967295
237.63799 -824.88306 -519.32434 4294967295
241.07607 -824.79926 -519.0127 4294967295
243.54347 -824.70905 -519.24713 4294967295
246.54449 -824.64557 -519.10919 4294967295
248.3378 -824.86029 -519.72589 4294967295
173.00574 -820.27118 -519.95776 4294967295
175.33533 -821.14874 -519.5871 4294967295
177.33693 -821.64642 -519.01636 4294967295
107.67802 -816.13916 -519.54761 4294967295
109.43401 -816.25806 -519.45038 4294967295
111.37022 -816.40991 -519.63007 4294967295
113.34093 -816.52399 -519.55902 4294967295
115.4593 -816.63727 -519.58759 4294967295
117.49669 -816.94464 -519.48767 4294967295
119.58384 -816.85358 -519.21796 4294967295
123.55223 -817.14484 -519.0849 4294967295
127.44061 -817.5351 -519.6261 4294967295
129.51204 -817.57874 -519.08331 4294967295
131.37323 -817.70917 -519.1438 4294967295
133.86853 -817.94672 -519.56226 4294967295
135.43639 -818.11206 -519.72345 4294967295
139.21078 -817.92493 -519.61993 4294967295
141.39738 -817.92053 -519.3714 4294967295
144.70496 -817.99933 -519.94305 4294967295
148.79729 -817.84064 -519.39642 4294967295
151.11987 -818.20374 -519.95587 4294967295
153.38058 -818.24719 -519.28119 4294967295
156.78934 -818.75018 -519.58484 4294967295
67.280861 -813.55273 -519.31989 4294967295
81.271339 -814.43768 -519.19525 4294967295
83.298065 -814.50525 -519.54224 4294967295
85.800476 -814.6839 -519.28571 4294967295
89.440392 -814.85297 -519.07275 4294967295
96.987701 -815.26917 -519.263 4294967295
101.0778 -815.60797 -519.26343 4294967295
103.59543 -815.83258 -519.55292 4294967295
105.3631 -815.96497 -519.48395 4294967295
19.624462 -810.0072 -519.79462 4294967295
23.379431 -810.20343 -519.69861 4294967295
25.388941 -810.34442 -519.72137 4294967295
27.219818 -810.52087 -519.77777 4294967295
29.476892 -810.64142 -519.70844 4294967295
31.408836 -810.71759 -519.84534 4294967295
33.142708 -810.76068 -519.82336 4294967295
34.979561 -810.65094 -519.63385 4294967295
40.443924 -810.82416 -519.70642 4294967295
43.437702 -810.93542 -519.5896 4294967295
46.422218 -811.13898 -519.69531 4294967295
52.425766 -811.81439 -519.59094 4294967295
55.381752 -812.46021 -519.82666 4294967295
57.527821 -812.59149 -519.75159 4294967295
59.658913 -812.68286 -519.75647 4294967295
63.280205 -812.95721 -519.53772 4294967295
-22.381754 -807.08502 -519.38116 4294967295
-18.666098 -807.40393 -519.55518 4294967295
-16.327847 -807.35248 -519.42548 4294967295
-12.504267 -807.83344 -519.68597 4294967295
-6.9362049 -808.23865 -519.73383 4294967295
-4.6639309 -808.43164 -519.68384 4294967295
-0.84866691 -808.78052 -519.91174 4294967295
1.3780712 -808.76703 -519.79608 4294967295
7.3828087 -809.13446 -519.70538 4294967295
9.178669 -809.22827 -519.69672 4294967295
11.482602 -809.49982 -519.76776 4294967295
-58.800854 -804.49457 -519.88721 4294967295
-56.748875 -804.65411 -519.74701 4294967295
-54.473503 -804.7981 -519.64038 4294967295
-52.453594 -804.75665 -519.659 4294967295
-48.479855 -804.94568 -519.66486 4294967295
-45.07579 -805.26074 -519.88324 4294967295
-42.298843 -805.62646 -519.36194 4294967295
-40.80069 -806.12579 -519.19617 4294967295
-26.540297 -806.7641 -519.42279 4294967295
-24.923933 -806.76599 -519.62134 4294967295
-104.35706 -801.11121 -519.74921 4294967295
-72.37896 -803.47083 -519.68628 4294967295
-68.356674 -803.48254 -519.2644 4294967295
-64.698067 -803.81891 -519.91846 4294967295
-106.77479 -800.98175 -519.77307 4294967295
-46.448887 -833.84326 -518.90881 4294967295
347.51941 -831.78754 -518.7782 4294967295
353.46692 -832.28949 -518.07104 4294967295
356.22003 -832.44415 -518.87097 4294967295
362.13205 -833.94714 -518.89832 4294967295
-122.26946 -828.32703 -518.37604 4294967295
-120.34757 -828.46429 -518.62823 4294967295
-115.90301 -828.78754 -518.86084 4294967295
-85.829613 -830.85547 -518.52863 4294967295
295.49881 -828.32269 -518.9397 4294967295
297.23529 -828.35413 -518.9491 4294967295
301.32724 -829.01215 -518.18298 4294967295
311.59354 -829.63312 -518.98413 4294967295
315.4747 -829.95337 -518.97516 4294967295
323.03525 -830.2381 -518.19019 4294967295
329.75903 -830.39154 -518.1449 4294967295
331.57809 -830.49725 -518.76202 4294967295
259.67996 -825.49316 -518.30188 4294967295
261.29111 -826.23645 -518.76868 4294967295
267.32831 -827.08167 -518.13959 4294967295
269.30414 -827.19446 -518.35742 4294967295
273.37451 -827.39368 -518.65686 4294967295
275.56644 -827.35522 -518.45862 4294967295
281.30637 -827.63855 -518.86975 4294967295
180.73784 -822.86249 -518.8924 4294967295
233.48843 -824.53247 -518.5672 4294967295
238.63515 -824.52045 -518.20819 4294967295
239.95636 -824.49603 -518.16089 4294967295
242.32704 -824.51404 -518.53711 4294967295
245.02643 -824.29999 -518.33881 4294967295
247.89134 -824.23358 -518.18182 4294967295
249.63287 -824.19336 -518.19232 4294967295
251.45206 -824.17163 -518.09784 4294967295
252.61201 -824.53619 -518.72113 4294967295
254.14455 -824.58142 -518.63965 4294967295
160.81578 -819.0318 -518.85382 4294967295
162.93666 -819.1543 -518.90552 4294967295
165.62991 -819.02863 -518.21698 4294967295
167.70392 -819.26147 -518.59393 4294967295
121.35371 -816.95941 -518.86829 4294967295
125.64663 -817.30695 -518.82019 4294967295
141.04393 -817.54883 -518.07928 4294967295
143.25627 -817.58813 -518.63568 4294967295
145.36995 -817.55853 -518.66437 4294967295
151.01959 -817.4649 -518.05042 4294967295
152.56267 -817.66644 -518.14575 4294967295
155.27475 -818.11371 -518.39209 4294967295
158.31779 -818.57568 -518.44183 4294967295
159.67134 -818.69312 -518.26422 4294967295
79.50563 -814.31616 -518.26068 4294967295
93.072319 -814.92932 -518.96381 4294967295
95.56424 -815.1427 -518.86139 4294967295
99.60128 -815.38501 -518.57837 4294967295
31.206902 -810.06927 -518.0246 4294967295
33.418304 -810.25122 -518.27948 4294967295
35.406719 -810.28223 -518.06342 4294967295
42.024574 -810.33936 -518.06116 4294967295
49.654964 -811.11401 -518.4812 4294967295
59.379314 -812.19208 -518.05231 4294967295
61.456196 -812.26459 -518.0329 4294967295
-14.600133 -807.01093 -518.23407 4294967295
-8.9324245 -807.53149 -518.33734 4294967295
-6.7443137 -807.64734 -518.25812 4294967295
-4.5917788 -807.86011 -518.32385 4294967295
-2.7475793 -808.04028 -518.27576 4294967295
-0.73828995 -808.1507 -518.08044 4294967295
3.7522509 -808.37445 -518.1778 4294967295
5.2262402 -808.43866 -518.11432 4294967295
7.6233826 -808.60358 -518.27698 4294967295
9.0572577 -808.77759 -518.56366 4294967295
11.459825 -808.84912 -518.35217 4294967295
13.419401 -809.09717 -518.34644 4294967295
23.562124 -809.57837 -518.02728 4294967295
-54.170929 -804.22974 -518.40253 4294967295
-50.501541 -804.41565 -518.31824 4294967295
-48.834175 -804.58282 -518.58441 4294967295
-46.968704 -804.59973 -518.5459 4294967295
-44.758434 -804.79871 -518.55353 4294967295
-24.704737 -806.27069 -518.13611 4294967295
-20.784599 -806.65729 -518.2334 4294967295
-16.57303 -806.83557 -518.11987 4294967295
-77.062721 -802.61456 -518.44922 4294967295
-74.33226 -802.84119 -518.33459 4294967295
-70.606056 -803.04718 -518.34601 4294967295
-68.877792 -803.12927 -518.28589 4294967295
-66.280746 -803.24457 -518.38007 4294967295
-62.639198 -803.52368 -518.44507 4294967295
-109.74412 -800.20264 -518.58038 4294967295
-106.46465 -800.51324 -518.60297 4294967295
-102.55231 -800.80109 -518.78937 4294967295
-100.84206 -800.8634 -518.6698 4294967295
362.57147 -842.81989 -517.92719 4294967295
363.9679 -837.11682 -517.26007 4294967295
-42.504662 -833.6499 -517.01208 4294967295
343.62698 -831.28998 -517.63623 4294967295
345.60056 -831.54266 -517.9267 4294967295
348.52972 -831.88745 -517.67871 4294967295
351.32724 -832.16272 -517.89612 4294967295
358.72568 -832.26825 -517.16998 4294967295
-125.53694 -828.06543 -517.10358 4294967295
-123.71153 -828.16388 -517.19336 4294967295
-118.28971 -828.4928 -517.21814 4294967295
-114.28851 -828.77905 -517.19354 4294967295
-112.49426 -828.9599 -517.71008 4294967295
-109.17173 -829.19684 -517.09497 4294967295
-106.75231 -829.37555 -517.0014 4294967295
-101.23433 -829.73859 -517.3501 4294967295
-90.339333 -830.45416 -517.46088 4294967295
-87.689789 -830.65015 -517.58478 4294967295
305.285 -828.88239 -517.22821 4294967295
307.05502 -828.97534 -517.30548 4294967295
309.83221 -829.11993 -517.08252 4294967295
311.39221 -829.04443 -517.20569 4294967295
313.32544 -829.30811 -517.2818 4294967295
325.57068 -830.20471 -517.38361 4294967295
334.51004 -830.38116 -517.42157 4294967295
336.46222 -830.53235 -517.73425 4294967295
338.52994 -830.69452 -517.41461 4294967295
261.57159 -825.74579 -517.33984 4294967295
263.34756 -826.81897 -517.91412 4294967295
265.31323 -827.03369 -517.93658 4294967295
293.38956 -827.79602 -517.0752 4294967295
295.46265 -827.82056 -517.48969 4294967295
297.42218 -827.60168 -517.25824 4294967295
299.43878 -827.52551 -517.13989 4294967295
199.21288 -822.21313 -517.91461 4294967295
201.7067 -822.33112 -517.77197 4294967295
203.33928 -822.45917 -517.63007 4294967295
207.37772 -822.80969 -517.61298 4294967295
209.39436 -822.93048 -517.54504 4294967295
211.46388 -823.10388 -517.54767 4294967295
213.49803 -823.22363 -517.67554 4294967295
215.58629 -823.39514 -517.81445 4294967295
217.31242 -823.49524 -517.72852 4294967295
219.48883 -823.6358 -517.74829 4294967295
221.33533 -823.7691 -517.78406 4294967295
225.50809 -824.02509 -517.724 4294967295
227.33125 -824.1911 -517.84869 4294967295
231.37299 -824.51581 -517.79327 4294967295
233.92383 -823.79364 -517.08942 4294967295
236.88928 -823.98285 -517.43445 4294967295
241.29857 -823.97614 -517.40259 4294967295
243.45485 -823.71033 -517.31012 4294967295
245.2308 -823.46777 -517.05524 4294967295
246.57527 -823.87042 -517.57904 4294967295
253.51324 -823.76599 -517.36432 4294967295
256.06522 -824.3584 -517.88306 4294967295
258.13971 -824.73792 -517.70532 4294967295
171.22597 -819.34662 -517.98712 4294967295
175.39693 -820.55359 -517.8656 4294967295
177.43686 -821.23706 -517.56476 4294967295
179.37054 -821.87885 -517.50433 4294967295
187.32794 -821.99042 -517.67584 4294967295
189.48674 -821.61963 -517.67859 4294967295
191.27194 -821.61292 -517.79718 4294967295
193.39243 -821.66565 -517.8017 4294967295
197.43521 -821.99884 -517.71118 4294967295
113.61724 -816.05664 -517.75623 4294967295
115.38535 -816.16467 -517.77209 4294967295
117.23891 -816.34283 -517.86188 4294967295
127.34303 -817.12756 -517.63184 4294967295
129.54263 -817.22742 -517.57489 4294967295
131.48424 -817.35718 -517.69342 4294967295
133.55774 -817.61682 -517.67169 4294967295
135.62508 -817.65912 -517.75775 4294967295
137.50354 -817.77734 -517.75177 4294967295
147.18288 -817.18195 -517.93854 4294967295
148.97229 -817.16272 -517.68018 4294967295
149.82182 -817.36047 -517.93738 4294967295
154.00638 -817.5658 -517.63397 4294967295
157.17628 -817.87231 -517.46478 4294967295
161.37639 -818.38159 -517.15717 4294967295
163.59612 -818.63629 -517.30798 4294967295
167.35794 -818.85266 -517.48352 4294967295
169.11163 -818.82294 -517.50421 4294967295
85.224167 -814.01971 -517.77264 4294967295
87.584328 -814.20166 -517.77704 4294967295
91.388664 -814.50458 -517.78638 4294967295
93.284973 -814.63171 -517.71631 4294967295
95.403366 -814.85187 -517.80005 4294967295
97.15004 -815.10901 -517.68463 4294967295
99.448982 -815.10858 -517.58472 4294967295
101.30541 -815.24756 -517.6109 4294967295
103.61752 -815.37415 -517.65265 4294967295
105.36407 -815.52484 -517.72961 4294967295
109.25537 -815.80225 -517.76007 4294967295
111.35648 -815.91223 -517.75031 4294967295
37.081474 -810.43823 -517.79541 4294967295
47.493626 -810.45807 -517.58893 4294967295
51.517639 -811.4267 -517.86017 4294967295
55.51162 -811.86194 -517.94739 4294967295
63.473087 -812.30298 -517.90924 4294967295
65.466652 -812.48834 -517.98907 4294967295
67.393188 -812.99792 -517.90192 4294967295
1.3485353 -808.29071 -517.98743 4294967295
25.383568 -809.74445 -517.96436 4294967295
27.277264 -809.90997 -517.98383 4294967295
40.058525 -809.95728 -517.4726 4294967295
44.631077 -809.8761 -517.27875 4294967295
-40.34663 -804.58875 -517.06506 4294967295
-38.793728 -805.76013 -517.92297 4294967295
-28.594242 -805.71375 -517.63019 4294967295
-66.801414 -802.59137 -517.29285 4294967295
-54.673264 -803.50641 -517.40601 4294967295
81.215004 -801.14111 -517.00641 4294967295
83.420395 -801.16553 -517.01898 4294967295
85.524025 -801.03882 -517.00745 4294967295
107.46586 -803.1853 -517.00256 4294967295
-108.54272 -798.95325 -517.07764 4294967295
-106.47624 -799.54138 -517.32416 4294967295
-102.38871 -799.39667 -517.06592 4294967295
-100.56313 -799.60596 -517.18237 4294967295
-84.704407 -800.76215 -517.23859 4294967295
-82.566589 -800.8562 -517.07758 4294967295
59.536381 -799.21564 -517.0033 4294967295
362.50455 -845.13837 -516.69067 4294967295
-44.399147 -833.71985 -516.96936 4294967295
344.6579 -831.38788 -516.66846 4294967295
347.35422 -831.73712 -516.3963 4294967295
349.68182 -832.00201 -516.51965 4294967295
352.02963 -832.19006 -516.24738 4294967295
353.74799 -832.27051 -516.49786 4294967295
355.79239 -832.26984 -516.55682 4294967295
-116.09137 -828.599 -516.63177 4294967295
-111.11217 -829.02893 -516.99237 4294967295
-104.09272 -829.55127 -516.93176 4294967295
-93.639549 -830.19666 -516.94342 4294967295
-86.125076 -830.67816 -516.34479 4294967295
315.5896 -829.5686 -516.94751 4294967295
332.09332 -830.18713 -516.7392 4294967295
335.84219 -830.30762 -516.02075 4294967295
337.30975 -830.44293 -516.05426 4294967295
341.24167 -830.93896 -516.41534 4294967295
263.38126 -826.32202 -516.81317 4294967295
265.38165 -826.44067 -516.81287 4294967295
267.52591 -826.57904 -516.89587 4294967295
271.30975 -826.72797 -516.87616 4294967295
277.27051 -826.61884 -516.31982 4294967295
205.39545 -822.18719 -516.60175 4294967295
211.41039 -822.61047 -516.28583 4294967295
215.57605 -822.75531 -516.25555 4294967295
217.50616 -822.73816 -516.26721 4294967295
219.47491 -822.92737 -516.38245 4294967295
221.48734 -822.92084 -516.22626 4294967295
225.46695 -823.18201 -516.25287 4294967295
227.41661 -823.3429 -516.26569 4294967295
229.3494 -823.38336 -516.12482 4294967295
231.39073 -823.5415 -516.05273 4294967295
237.84785 -822.90021 -516.00482 4294967295
239.2583 -823.7171 -516.93201 4294967295
240.84129 -822.88983 -516.2074 4294967295
242.20445 -823.12531 -516.4541 4294967295
243.222 -822.60864 -516.12451 4294967295
244.73938 -822.28644 -516.09473 4294967295
246.55156 -822.85559 -516.42438 4294967295
248.45531 -823.37946 -516.89813 4294967295
249.47769 -822.44275 -516.00494 4294967295
250.96062 -823.17566 -516.75513 4294967295
253.25446 -822.36432 -516.0412 4294967295
255.92628 -822.80432 -516.20374 4294967295
257.85471 -823.38092 -516.26154 4294967295
259.68243 -824.27911 -516.55457 4294967295
262.07974 -824.94934 -516.14252 4294967295
173.31854 -819.284 -516.30707 4294967295
175.49826 -819.4314 -516.24988 4294967295
177.35582 -820.52954 -516.7735 4294967295
179.51369 -820.9942 -516.40845 4294967295
181.68262 -821.31787 -516.27405 4294967295
183.36745 -821.43604 -516.24506 4294967295
185.36858 -821.06317 -516.2627 4294967295
187.62561 -820.88849 -516.28754 4294967295
189.4808 -820.76416 -516.33478 4294967295
191.48235 -820.80334 -516.36987 4294967295
193.35112 -820.91113 -516.39105 4294967295
195.43178 -820.95868 -516.2572 4294967295
197.4782 -821.20575 -516.32404 4294967295
199.35954 -821.24213 -516.19196 4294967295
203.40096 -821.52802 -516.03577 4294967295
125.61117 -816.38013 -516.06866 4294967295
131.41113 -816.80347 -516.31494 4294967295
133.60863 -816.82184 -516.4118 4294967295
135.71126 -816.92786 -516.42584 4294967295
137.57971 -817.0423 -516.40027 4294967295
139.45056 -816.91479 -516.1283 4294967295
141.76883 -816.92883 -516.89459 4294967295
143.33199 -816.50452 -516.63361 4294967295
145.41739 -816.50189 -516.99158 4294967295
147.32037 -816.09082 -516.50433 4294967295
148.8485 -816.31238 -516.5517 4294967295
150.59468 -816.67163 -516.84955 4294967295
153.05716 -816.64478 -516.63336 4294967295
155.50259 -816.89075 -516.60016 4294967295
157.83195 -816.52881 -516.04803 4294967295
159.20323 -817.91748 -516.90277 4294967295
160.43808 -817.72369 -516.3136 4294967295
163.09468 -817.95575 -516.39203 4294967295
164.92024 -818.18701 -516.64648 4294967295
166.52092 -817.88824 -516.38214 4294967295
167.71754 -818.30444 -516.69464 4294967295
171.22922 -818.18713 -516.29486 4294967295
73.293777 -813.16364 -516.49866 4294967295
77.332901 -813.06055 -516.28497 4294967295
83.146896 -813.15302 -516.69104 4294967295
85.518295 -813.05121 -516.33771 4294967295
87.435539 -813.15112 -516.2243 4294967295
89.319458 -813.51666 -516.43091 4294967295
91.531479 -813.51312 -516.21472 4294967295
95.550583 -814.23181 -516.23059 4294967295
97.556953 -814.29822 -516.10632 4294967295
101.39109 -814.49255 -516.06744 4294967295
103.51131 -814.77325 -516.32104 4294967295
107.53155 -814.96692 -516.43872 4294967295
109.18148 -814.9884 -516.37933 4294967295
111.32624 -815.09735 -516.40851 4294967295
113.62213 -815.12256 -516.33722 4294967295
115.3956 -815.24121 -516.32654 4294967295
117.25163 -815.33728 -516.27899 4294967295
119.75423 -815.60754 -516.24921 4294967295
51.550381 -810.7229 -516.7157 4294967295
53.555332 -810.84967 -516.64813 4294967295
55.56134 -811.0672 -516.72968 4294967295
59.398094 -811.22052 -516.59875 4294967295
63.594009 -811.43024 -516.53546 4294967295
65.358841 -811.39801 -516.37042 4294967295
71.389229 -812.97406 -516.5722 4294967295
79.471031 -812.95056 -516.60095 4294967295
81.265312 -812.85071 -516.52509 4294967295
1.3775198 -807.16907 -516.75836 4294967295
5.5336466 -807.25793 -516.50989 4294967295
7.410965 -807.552 -516.67023 4294967295
9.3173637 -807.44543 -516.39044 4294967295
11.565161 -807.58734 -516.5036 4294967295
25.631901 -808.86646 -516.66632 4294967295
29.388819 -808.98853 -516.54431 4294967295
31.414606 -809.09167 -516.45868 4294967295
33.194847 -809.29895 -516.67255 4294967295
35.660156 -809.24908 -516.461 4294967295
47.311562 -809.87079 -516.29816 4294967295
49.338596 -809.84052 -516.12561 4294967295
107.52397 -807.40887 -516.04504 4294967295
111.39842 -807.30145 -516.18976 4294967295
112.93727 -807.37762 -516.18048 4294967295
115.62675 -807.38043 -516.20215 4294967295
129.8414 -807.60217 -516.30347 4294967295
133.38112 -807.50372 -516.40424 4294967295
137.31148 -809.24078 -516.02618 4294967295
141.68198 -809.13385 -516.12128 4294967295
143.08759 -809.36951 -516.06482 4294967295
145.48227 -808.19385 -516.3219 4294967295
146.98593 -809.14722 -516.15503 4294967295
149.18813 -809.34766 -516.05231 4294967295
171.21097 -808.80859 -516.28815 4294967295
-38.471642 -804.83093 -516.9588 4294967295
-36.60561 -804.94244 -516.84558 4294967295
-34.800697 -805.01477 -516.83112 4294967295
-32.621349 -805.02332 -516.77502 4294967295
-30.373379 -804.91223 -516.90265 4294967295
-24.479778 -805.26935 -516.82043 4294967295
-22.465921 -804.84351 -516.44189 4294967295
-20.374809 -805.33514 -516.56091 4294967295
-18.656731 -805.62439 -516.69403 4294967295
-16.607748 -805.74329 -516.71539 4294967295
-14.399969 -805.67932 -516.59845 4294967295
-12.544641 -805.86743 -516.65765 4294967295
-10.543755 -805.81177 -516.54144 4294967295
-8.5360804 -806.06171 -516.56836 4294967295
-4.7386985 -805.58075 -516.14136 4294967295
-0.49644765 -806.60205 -516.55438 4294967295
77.766525 -805.49036 -516.05853 4294967295
79.154396 -805.23352 -516.19092 4294967295
81.699463 -805.18854 -516.28461 4294967295
83.651344 -805.26215 -516.31128 4294967295
85.253777 -805.31268 -516.31226 4294967295
87.60862 -805.26477 -516.33057 4294967295
89.158127 -805.54199 -516.24384 4294967295
92.126724 -805.63025 -516.28033 4294967295
93.57711 -805.43121 -516.33875 4294967295
103.56491 -805.18964 -516.66461 4294967295
112.87009 -804.88733 -516.85345 4294967295
131.22195 -805.29858 -516.71637 4294967295
133.26891 -804.97986 -516.73425 4294967295
137.44185 -806.89917 -516.61664 4294967295
138.97691 -806.97778 -516.62665 4294967295
145.55286 -804.88745 -516.54077 4294967295
167.93362 -806.98328 -516.36249 4294967295
-72.647324 -801.81915 -516.76227 4294967295
-70.809029 -801.90784 -516.82678 4294967295
-68.637535 -801.85791 -516.72742 4294967295
-64.647583 -801.49866 -516.25018 4294967295
-58.694569 -802.14386 -516.74707 4294967295
-52.493301 -803.17511 -516.83673 4294967295
-50.667965 -803.30865 -516.83813 4294967295
-48.613342 -802.73846 -516.55786 4294967295
-46.4701 -802.67426 -516.45618 4294967295
-44.823349 -801.92126 -516.15515 4294967295
-42.417747 -803.28064 -516.41925 4294967295
-38.671814 -803.49139 -516.15613 4294967295
-36.539696 -803.58789 -516.10199 4294967295
-34.431087 -803.45349 -516.05249 4294967295
-28.816416 -803.57489 -516.17719 4294967295
-26.439213 -803.85248 -516.17432 4294967295
-24.871992 -803.94849 -516.11597 4294967295
33.404297 -801.39594 -516.52637 4294967295
77.305397 -803.54865 -516.60175 4294967295
81.821312 -802.98828 -516.86615 4294967295
85.286026 -802.92023 -516.92218 4294967295
87.5802 -802.8335 -516.94708 4294967295
89.175461 -802.02197 -516.95544 4294967295
93.4198 -802.14368 -516.89893 4294967295
101.30132 -803.07684 -516.93579 4294967295
105.51064 -803.25201 -516.9873 4294967295
109.58775 -802.13129 -516.7915 4294967295
-107.09186 -798.0224 -516.53357 4294967295
-104.58447 -798.19653 -516.57947 4294967295
-102.73363 -798.104 -516.56219 4294967295
-100.67378 -798.25745 -516.41913 4294967295
-96.649399 -798.52454 -516.5459 4294967295
-86.798622 -798.7204 -516.41766 4294967295
-84.474945 -798.82104 -516.3811 4294967295
-82.744911 -798.1637 -516.19214 4294967295
-80.874916 -799.76428 -516.43634 4294967295
-68.369217 -800.73651 -516.17767 4294967295
-66.549889 -800.44165 -516.11627 4294967295
-64.683907 -800.13293 -516.21509 4294967295
-62.337845 -800.05603 -516.17493 4294967295
-58.616035 -800.31769 -516.08917 4294967295
-16.524521 -799.35321 -516.13318 4294967295
-12.155419 -799.27643 -516.14819 4294967295
59.666496 -800.92902 -516.96643 4294967295
61.388165 -800.05878 -516.95972 4294967295
-110.50632 -796.92908 -516.29272 4294967295
-108.77217 -796.32117 -516.08411 4294967295
-106.79379 -796.32953 -516.07813 4294967295
-104.46243 -796.40698 -516.10181 4294967295
-102.64263 -796.25043 -516.14392 4294967295
-100.87795 -796.21429 -516.01459 4294967295
-98.556343 -796.38782 -516.04761 4294967295
-86.416405 -796.00385 -516.0473 4294967295
-84.977989 -795.66187 -516.02216 4294967295
-82.486351 -796.17871 -516.10004 4294967295
-81.001099 -795.72308 -516.09631 4294967295
-66.503098 -795.84369 -516.36285 4294967295
-64.522026 -795.95129 -516.30841 4294967295
-58.43074 -796.53552 -516.17371 4294967295
-38.536812 -796.25189 -516.39746 4294967295
-36.598225 -797.19531 -516.32147 4294967295
-34.68877 -797.06134 -516.39661 4294967295
31.478703 -796.92157 -516.84338 4294967295
-100.13898 -793.38336 -516.0108 4294967295
-98.718735 -793.37848 -516.03821 4294967295
-90.332916 -793.30695 -516.01251 4294967295
-86.287445 -793.26709 -516.04364 4294967295
-84.476852 -793.47272 -516.06464 4294967295
-82.754074 -793.5741 -516.09821 4294967295
-60.506706 -793.08978 -516.25903 4294967295
343.8627 -831.25366 -515.43091 4294967295
345.54892 -831.49615 -515.91711 4294967295
358.39386 -832.0816 -515.24487 4294967295
-124.42538 -828.01624 -515.40692 4294967295
-121.45358 -828.1911 -515.60712 4294967295
-114.94512 -828.59259 -515.06805 4294967295
-112.70241 -828.80743 -515.52808 4294967295
-110.38596 -828.98962 -515.15289 4294967295
-92.355293 -830.18542 -515.08368 4294967295
-88.27314 -830.487 -515.70764 4294967295
309.98392 -828.57782 -515.76093 4294967295
311.41559 -828.60089 -515.64496 4294967295
313.431 -828.80939 -515.32349 4294967295
327.46323 -829.92462 -515.74579 4294967295
329.85599 -829.96136 -515.78131 4294967295
338.95447 -830.56982 -515.12036 4294967295
263.64917 -825.32751 -515.67212 4294967295
265.52908 -825.27484 -515.53387 4294967295
269.12595 -825.51202 -515.52197 4294967295
277.37769 -826.21057 -515.45581 4294967295
279.46628 -826.42529 -515.26508 4294967295
295.24396 -827.24561 -515.58539 4294967295
297.40814 -827.02631 -515.47589 4294967295
298.92749 -826.71503 -515.63538 4294967295
302.78214 -826.86115 -515.01917 4294967295
303.43823 -827.37073 -515.58606 4294967295
305.4035 -827.63263 -515.66754 4294967295
307.78235 -827.84552 -515.5611 4294967295
229.50415 -822.04633 -515.26123 4294967295
233.39401 -822.16608 -515.11017 4294967295
235.75996 -822.65405 -515.87433 4294967295
237.20815 -822.31317 -515.06604 4294967295
239.45116 -822.59412 -515.89001 4294967295
242.18103 -822.07477 -515.74854 4294967295
248.01477 -822.22455 -515.86926 4294967295
257.4534 -822.20099 -515.61102 4294967295
259.26038 -822.16864 -515.3736 4294967295
261.14838 -823.59595 -515.56793 4294967295
263.18619 -824.14258 -515.20343 4294967295
177.33714 -819.39288 -515.85535 4294967295
183.35655 -820.01093 -515.4386 4294967295
185.34781 -819.77637 -515.36047 4294967295
187.28821 -819.48206 -515.36285 4294967295
189.58292 -819.4967 -515.37567 4294967295
191.34468 -819.41766 -515.33728 4294967295
193.51942 -819.4649 -515.34021 4294967295
197.67422 -819.65717 -515.26776 4294967295
199.37907 -819.89978 -515.24048 4294967295
205.36537 -821.33575 -515.42822 4294967295
209.28102 -821.51398 -515.31586 4294967295
211.34529 -821.47021 -515.38794 4294967295
213.45207 -821.42407 -515.34717 4294967295
217.37041 -821.44489 -515.29663 4294967295
219.52016 -821.38953 -515.25409 4294967295
221.34708 -821.46332 -515.25226 4294967295
223.46013 -821.5271 -515.26318 4294967295
227.37062 -821.86389 -515.28595 4294967295
231.24075 -821.94116 -515.14795 4294967295
238.61642 -821.6272 -515.33563 4294967295
239.11372 -819.75458 -515.12103 4294967295
240.60144 -821.34479 -515.4519 4294967295
241.08694 -819.25659 -515.172 4294967295
242.57687 -820.48297 -515.34174 4294967295
243.50703 -821.55597 -515.61896 4294967295
244.76079 -820.15466 -515.38239 4294967295
246.57823 -821.38745 -515.63263 4294967295
247.46858 -819.38617 -515.21387 4294967295
248.01819 -821.12683 -515.40271 4294967295
249.26801 -820.58728 -515.31305 4294967295
250.84836 -821.38019 -515.5603 4294967295
251.79118 -819.74847 -515.18073 4294967295
253.44989 -820.38385 -515.27289 4294967295
254.79926 -821.72632 -515.60645 4294967295
256.5791 -820.58154 -515.20148 4294967295
258.85172 -820.97156 -515.04791 4294967295
159.72124 -817.09564 -515.98865 4294967295
161.48216 -817.14343 -515.92377 4294967295
164.18329 -816.90765 -515.74512 4294967295
168.95126 -817.41052 -515.93616 4294967295
169.66307 -816.32141 -515.02075 4294967295
171.17317 -816.33771 -515.00452 4294967295
173.41287 -817.4751 -515.2356 4294967295
175.41565 -817.51654 -515.1748 4294967295
177.1312 -817.76599 -515.11646 4294967295
235.323 -817.98077 -515.00519 4294967295
237.41997 -817.76361 -515.06653 4294967295
239.4826 -817.74823 -515.0918 4294967295
241.40535 -817.58588 -515.1225 4294967295
243.08655 -818.34851 -515.19043 4294967295
245.22728 -817.62097 -515.17426 4294967295
247.02652 -817.03534 -515.11578 4294967295
249.14166 -817.30872 -515.06775 4294967295
251.4451 -817.35303 -515.05328 4294967295
95.755875 -813.29834 -515.70154 4294967295
101.22307 -813.99872 -515.65717 4294967295
103.68001 -813.56934 -515.54077 4294967295
105.47153 -813.56305 -515.51624 4294967295
107.44658 -813.82367 -515.49615 4294967295
111.58426 -813.74573 -515.4765 4294967295
115.36633 -813.78131 -515.41431 4294967295
117.18937 -813.76794 -515.26556 4294967295
119.32472 -813.9447 -515.11755 4294967295
121.48476 -815.33148 -515.78638 4294967295
123.24829 -814.32184 -515.12787 4294967295
125.25885 -814.43872 -515.3407 4294967295
127.41959 -814.47925 -515.0755 4294967295
129.51958 -814.97925 -515.27966 4294967295
131.38525 -814.99487 -515.27478 4294967295
133.05878 -814.39703 -515.0481 4294967295
135.34549 -814.91858 -515.21216 4294967295
139.31084 -815.52606 -515.3172 4294967295
141.69711 -815.67456 -515.32214 4294967295
143.48375 -814.4433 -515.04047 4294967295
144.37573 -815.2699 -515.77686 4294967295
145.11313 -813.36566 -515.40741 4294967295
147.05521 -814.42676 -515.82697 4294967295
148.34955 -815.36682 -515.92352 4294967295
149.25233 -814.61005 -515.6875 4294967295
150.77452 -814.65033 -515.73407 4294967295
151.94601 -815.46594 -515.87482 4294967295
152.89771 -814.21637 -515.5553 4294967295
153.51306 -815.24243 -515.71503 4294967295
154.73036 -814.66602 -515.64868 4294967295
156.04782 -815.50684 -515.74121 4294967295
157.36693 -814.24567 -515.55237 4294967295
159.74829 -815.14264 -515.51422 4294967295
161.45862 -814.13135 -515.02496 4294967295
162.05019 -815.44025 -515.34314 4294967295
163.57631 -814.17352 -515.04584 4294967295
164.39653 -815.40381 -515.25848 4294967295
165.39514 -814.22772 -515.07062 4294967295
166.99855 -815.83557 -515.36926 4294967295
167.42058 -814.19421 -515.08856 4294967295
169.45749 -814.19678 -515.10297 4294967295
173.50949 -813.56201 -515.15686 4294967295
177.44591 -813.43805 -515.22894 4294967295
183.50224 -813.21851 -515.41718 4294967295
185.33829 -813.48187 -515.37244 4294967295
189.38133 -813.461 -515.42542 4294967295
237.39848 -815.23596 -515.30951 4294967295
239.47636 -815.23212 -515.27728 4294967295
243.20213 -815.36456 -515.1922 4294967295
245.61827 -815.4527 -515.13281 4294967295
247.56551 -815.31598 -515.07019 4294967295
69.381645 -811.36786 -515.8194 4294967295
75.361122 -811.60938 -515.47479 4294967295
77.204926 -810.0755 -515.03595 4294967295
79.513702 -810.77661 -515.37665 4294967295
81.129898 -810.29706 -515.15295 4294967295
83.519173 -810.92969 -515.41772 4294967295
85.531174 -811.10419 -515.38635 4294967295
87.346992 -810.42749 -515.18109 4294967295
89.471405 -811.2345 -515.28931 4294967295
91.12709 -812.13458 -515.36383 4294967295
93.553505 -811.4884 -515.2323 4294967295
95.166985 -811.08228 -515.17645 4294967295
97.225052 -811.75391 -515.17297 4294967295
99.265388 -811.69714 -515.16687 4294967295
101.37875 -811.68921 -515.17444 4294967295
103.55649 -810.24939 -515.27075 4294967295
105.37886 -810.4339 -515.01965 4294967295
107.23393 -812.49011 -515.12787 4294967295
109.26528 -811.35901 -515.18652 4294967295
111.4874 -811.18762 -515.14075 4294967295
113.51852 -810.30542 -515.13184 4294967295
115.61854 -812.40021 -515.10974 4294967295
117.45374 -812.2475 -515.07196 4294967295
121.33474 -812.98737 -515.09375 4294967295
127.47885 -812.66174 -515.08832 4294967295
129.10292 -812.9292 -515.09296 4294967295
131.69504 -812.29486 -515.13208 4294967295
133.56448 -812.83624 -515.1427 4294967295
135.22318 -812.30981 -515.1554 4294967295
139.44893 -812.19409 -515.02631 4294967295
141.54112 -812.13147 -515.09326 4294967295
143.27167 -812.02704 -515.1637 4294967295
145.40897 -811.87866 -515.27924 4294967295
146.98363 -811.44885 -515.72705 4294967295
149.72588 -812.17389 -515.7229 4294967295
153.08708 -812.18311 -515.70007 4294967295
155.73393 -812.23816 -515.68408 4294967295
157.86116 -811.73743 -515.7337 4294967295
165.42633 -811.27277 -515.79651 4294967295
167.30284 -811.2865 -515.83521 4294967295
169.23471 -811.2951 -515.85443 4294967295
171.48839 -811.28394 -515.83759 4294967295
173.27989 -811.27356 -515.83038 4294967295
181.14058 -811.29926 -515.8797 4294967295
185.33514 -811.1438 -515.93311 4294967295
203.51538 -811.28412 -515.7912 4294967295
205.2533 -811.06537 -515.78345 4294967295
27.348864 -807.67999 -515.72461 4294967295
29.584833 -807.85175 -515.63025 4294967295
33.160717 -807.78894 -515.60229 4294967295
35.228149 -807.83234 -515.57788 4294967295
37.386837 -807.97797 -515.46521 4294967295
39.344448 -808.26697 -515.50916 4294967295
45.062328 -807.93622 -515.3576 4294967295
47.744545 -808.10132 -515.36835 4294967295
49.425053 -808.14624 -515.36389 4294967295
51.211388 -808.80103 -515.521 4294967295
53.45842 -808.90137 -515.52686 4294967295
54.979031 -809.513 -515.65656 4294967295
55.710186 -808.23248 -515.32306 4294967295
57.498188 -808.96368 -515.48364 4294967295
59.379753 -809.73535 -515.56696 4294967295
61.322544 -809.54285 -515.46271 4294967295
63.374588 -809.12097 -515.43744 4294967295
65.446251 -809.41187 -515.40472 4294967295
67.289513 -809.31281 -515.36627 4294967295
75.320511 -807.97772 -515.33508 4294967295
77.285538 -807.7981 -515.2594 4294967295
79.836845 -807.98822 -515.4046 4294967295
83.34272 -808.04156 -515.46771 4294967295
85.132141 -808.13464 -515.45599 4294967295
87.283264 -807.58801 -515.52942 4294967295
89.299889 -808.06842 -515.396 4294967295
91.324074 -807.67017 -515.58508 4294967295
93.521179 -807.37512 -515.75519 4294967295
95.23053 -807.60236 -515.70184 4294967295
97.698792 -807.52948 -515.7793 4294967295
99.386124 -807.47058 -515.84204 4294967295
108.83459 -807.71729 -515.95032 4294967295
115.26647 -809.81244 -515.31073 4294967295
117.31699 -809.99164 -515.26471 4294967295
119.36549 -809.44861 -515.54169 4294967295
129.28827 -809.70294 -515.69409 4294967295
133.49219 -809.42279 -515.88019 4294967295
135.54338 -809.23773 -515.98419 4294967295
201.3846 -809.11517 -515.65497 4294967295
203.5994 -809.14972 -515.60309 4294967295
205.42381 -809.14233 -515.55139 4294967295
-18.671946 -804.16681 -515.92487 4294967295
-14.450919 -804.09784 -515.85486 4294967295
-12.778355 -804.23065 -515.88367 4294967295
-8.492712 -804.01147 -515.63879 4294967295
-6.5097871 -804.3349 -515.70477 4294967295
-2.5597494 -804.68817 -515.71033 4294967295
3.5525746 -805.09375 -515.68518 4294967295
5.253293 -805.23907 -515.65393 4294967295
7.4068408 -805.18195 -515.61212 4294967295
9.4871855 -804.46173 -515.50513 4294967295
11.079163 -805.16479 -515.43762 4294967295
13.329718 -806.14703 -515.56598 4294967295
27.574612 -805.29858 -515.45032 4294967295
29.361837 -805.61365 -515.31958 4294967295
31.340494 -805.69537 -515.35974 4294967295
33.653481 -806.49414 -515.40326 4294967295
35.230167 -806.44836 -515.43463 4294967295
37.158737 -804.10303 -515.8623 4294967295
47.226082 -806.25793 -515.50305 4294967295
49.270187 -806.33081 -515.5094 4294967295
53.137657 -806.8302 -515.52448 4294967295
59.44907 -806.32471 -515.55176 4294967295
-40.834778 -801.91974 -515.93896 4294967295
