# .PCD v0.7 - Point Cloud Data file format
VERSION 0.7
FIELDS x y z rgba
SIZE 4 4 4 4
TYPE F F F U
COUNT 1 1 1 1
WIDTH 1147
HEIGHT 1
VIEWPOINT 0 0 0 1 0 0 0
POINTS 1147
DATA ascii
457.79047 3089.8997 -167.79625 4294967129
459.48767 3089.1409 -167.9568 4294967129
461.2507 3089.6309 -167.87074 4294967129
471.35956 3089.6563 -167.94373 4294967129
473.37411 3089.4646 -167.89595 4294967129
475.70535 3089.1062 -167.93227 4294967129
479.25922 3089.085 -167.83473 4294967129
481.01526 3088.9919 -167.85593 4294967129
485.62012 3089.5376 -167.91089 4294967129
489.82056 3089.4958 -167.7713 4294967129
493.24664 3089.6248 -167.14423 4294967129
501.58835 3088.4983 -167.54118 4294967129
503.40988 3088.5601 -167.51888 4294967129
505.401 3088.457 -167.55475 4294967129
507.63452 3088.5051 -167.28423 4294967129
509.23666 3087.9971 -167.92929 4294967129
511.43701 3088.0049 -167.81544 4294967129
513.62018 3087.8896 -167.8065 4294967129
519.54187 3087.2039 -167.36761 4294967129
590.0462 3087.7759 -167.88783 4294967129
383.20883 3091.6213 -167.07672 4294967129
387.49094 3091.6348 -167.15724 4294967129
388.81415 3091.7129 -167.20615 4294967129
403.37564 3092.0498 -167.49582 4294967129
405.48111 3092.1331 -167.68951 4294967129
409.2803 3091.9563 -167.55072 4294967129
411.4516 3092.2236 -167.76381 4294967129
413.71536 3092.218 -167.78386 4294967129
415.57962 3092.0894 -167.57542 4294967129
417.41641 3091.9919 -167.54408 4294967129
419.85364 3092.0938 -167.48676 4294967129
423.52847 3091.9077 -167.48767 4294967129
425.24747 3090.1487 -167.86481 4294967129
427.19614 3090.1177 -167.90575 4294967129
429.54865 3091.0527 -167.69159 4294967129
431.5903 3091.9932 -167.45927 4294967129
433.52832 3090.1743 -167.89204 4294967129
435.72021 3091.9058 -167.47511 4294967129
437.46191 3090.9761 -167.73483 4294967129
440.19397 3090.4241 -167.75842 4294967129
441.63922 3091.7122 -167.45139 4294967129
443.72556 3091.4939 -167.47215 4294967129
445.71423 3091.2471 -167.44492 4294967129
453.81165 3090.0518 -167.81435 4294967129
483.2247 3090.241 -167.14354 4294967129
485.84189 3090.012 -167.1225 4294967129
589.72253 3091.9597 -167.16809 4294967129
377.74515 3093.7249 -167.26662 4294967129
379.6843 3094.3115 -167.3335 4294967129
381.18723 3093.8586 -167.33316 4294967129
385.37839 3094.5859 -167.31703 4294967129
387.49731 3094.5635 -167.32033 4294967129
389.48923 3095.9338 -167.07153 4294967129
391.51105 3094.2632 -167.32405 4294967129
395.25345 3094.0068 -167.25258 4294967129
397.8656 3095.2432 -167.03539 4294967129
401.40192 3094.0747 -167.26668 4294967129
403.49649 3095.1921 -167.05269 4294967129
405.16757 3093.9753 -167.31952 4294967129
407.38428 3093.929 -167.30833 4294967129
409.77222 3093.9136 -167.31314 4294967129
413.50308 3093.9402 -167.27446 4294967129
415.66794 3093.8999 -167.32054 4294967129
419.38113 3093.5762 -167.12584 4294967129
421.37375 3093.2773 -167.13695 4294967129
423.36887 3093.2214 -167.08762 4294967129
427.34369 3093.2454 -167.15277 4294967129
589.76935 3094.5449 -167.46007 4294967129
377.62125 3096.0999 -167.16603 4294967129
379.36664 3096.0232 -167.18951 4294967129
381.13055 3096.124 -167.12926 4294967129
383.70511 3096.0637 -167.16089 4294967129
385.72195 3096.0815 -167.13542 4294967129
589.4624 3097.1169 -167.67564 4294967129
587.86383 3100.6753 -167.55743 4294967129
588.93866 3099.4246 -167.91733 4294967129
585.71985 3103.4216 -167.25529 4294967129
586.44415 3102.2742 -167.09216 4294967129
544.78986 3107.8733 -167.65799 4294967129
547.19885 3107.7756 -167.43152 4294967129
551.02808 3107.627 -167.01114 4294967129
555.71619 3107.3044 -167.02437 4294967129
509.6478 3110.9341 -167.1312 4294967129
511.38736 3110.8691 -167.35042 4294967129
513.6355 3110.7461 -167.29138 4294967129
517.16443 3110.4338 -167.08186 4294967129
519.091 3110.3594 -167.1355 4294967129
521.401 3110.2061 -167.17529 4294967129
525.34607 3109.8503 -167.44827 4294967129
527.51971 3109.7346 -167.89076 4294967129
534.70813 3108.9236 -167.75136 4294967129
471.52878 3113.8352 -167.13383 4294967129
473.6918 3113.6892 -167.11705 4294967129
479.26419 3113.2083 -167.12178 4294967129
481.25577 3113.2783 -167.45503 4294967129
483.50775 3113.2659 -167.65727 4294967129
485.37729 3113.1978 -167.72392 4294967129
487.52396 3112.8848 -167.49913 4294967129
489.51202 3112.9626 -167.78674 4294967129
491.33737 3112.752 -167.87206 4294967129
493.26923 3112.7739 -167.93961 4294967129
495.29285 3112.0022 -167.1922 4294967129
497.31012 3111.7649 -167.11273 4294967129
499.27347 3111.6477 -167.19373 4294967129
503.7901 3111.3435 -167.19429 4294967129
505.19464 3111.2668 -167.21417 4294967129
507.69086 3111.0969 -167.19099 4294967129
443.46237 3116.9519 -167.36816 4294967129
445.61392 3116.4983 -167.15895 4294967129
447.32257 3116.7146 -167.55995 4294967129
449.52811 3116.4731 -167.58945 4294967129
451.66562 3115.894 -167.59207 4294967129
453.61194 3115.6362 -167.54994 4294967129
455.52451 3115.5535 -167.64963 4294967129
457.30942 3115.1917 -167.28394 4294967129
459.25339 3115.1704 -167.48868 4294967129
461.76068 3115.1523 -167.47697 4294967129
463.28943 3114.8472 -167.1627 4294967129
465.36481 3114.8765 -167.44557 4294967129
469.23349 3114.6045 -167.58508 4294967129
407.5379 3119.9524 -167.09941 4294967129
409.44089 3119.8284 -167.1057 4294967129
413.4556 3119.8625 -167.62518 4294967129
417.52136 3119.4592 -167.45541 4294967129
419.37836 3119.2908 -167.45099 4294967129
421.44742 3118.8772 -167.33592 4294967129
423.41611 3118.5264 -167.12654 4294967129
431.38339 3117.9204 -167.4048 4294967129
433.42255 3117.5627 -167.27341 4294967129
435.37466 3117.5725 -167.43062 4294967129
437.57123 3117.208 -167.18698 4294967129
439.27194 3117.3477 -167.45377 4294967129
441.37503 3117.0396 -167.2374 4294967129
381.41275 3122.5432 -167.35071 4294967129
383.59213 3121.9065 -167.01459 4294967129
385.13412 3122.594 -167.62614 4294967129
386.8168 3122.4683 -167.65021 4294967129
389.68967 3122.1929 -167.64647 4294967129
393.43918 3121.8374 -167.8102 4294967129
395.03107 3122.04 -167.94055 4294967129
396.86227 3120.783 -167.19601 4294967129
397.50104 3121.8967 -167.96991 4294967129
401.31656 3120.4739 -167.22118 4294967129
403.53534 3120.4221 -167.26923 4294967129
379.32385 3123.7847 -167.99457 4294967129
577.68396 3082.2607 -166.09882 4294967130
581.67975 3082.4844 -166.40959 4294967130
583.82227 3082.9497 -166.34227 4294967130
585.51263 3083.79 -166.29407 4294967130
535.2536 3086.5513 -166.20923 4294967130
539.09064 3086.4839 -166.06305 4294967130
541.1936 3086.46 -166.02817 4294967130
553.19763 3085.0518 -166.86046 4294967130
556.91327 3084.6321 -166.72169 4294967130
587.00165 3085.4382 -166.10103 4294967130
499.53113 3089.6462 -166.15877 4294967130
508.05817 3088.8198 -166.23569 4294967130
516.88953 3087.936 -166.7114 4294967130
588.81805 3087.7263 -166.662 4294967130
589.32007 3089.5676 -166.83224 4294967130
377.73569 3091.2969 -166.93127 4294967130
443.33624 3092.7844 -166.71326 4294967130
445.38663 3092.6958 -166.59502 4294967130
447.54944 3092.8191 -166.19565 4294967130
449.23386 3091.9619 -166.8457 4294967130
451.41803 3091.8643 -166.89603 4294967130
455.48389 3092.1108 -166.58414 4294967130
457.61255 3091.6396 -166.84918 4294967130
459.39987 3091.1782 -166.96428 4294967130
461.23804 3091.509 -166.68098 4294967130
473.19513 3090.6904 -166.95872 4294967130
477.32697 3090.3208 -166.90488 4294967130
481.22122 3090.4485 -166.64111 4294967130
483.60175 3090.7424 -166.02551 4294967130
487.67694 3090.5386 -166.39647 4294967130
491.22137 3090.1812 -166.14099 4294967130
393.53604 3095.573 -166.95924 4294967130
399.76672 3095.1636 -166.88487 4294967130
405.50284 3095.6658 -166.53842 4294967130
407.65659 3095.3069 -166.73552 4294967130
409.45862 3095.4065 -166.62029 4294967130
411.41876 3095.3723 -166.58809 4294967130
413.77121 3095.2 -166.60757 4294967130
415.61267 3094.9897 -166.63202 4294967130
417.73532 3095.3037 -166.13513 4294967130
419.18631 3094.6042 -166.57304 4294967130
421.61758 3094.9246 -166.08359 4294967130
427.23248 3094.5349 -166.01782 4294967130
429.4162 3093.8159 -166.59669 4294967130
431.57651 3093.4705 -166.76801 4294967130
433.46609 3093.4458 -166.71985 4294967130
435.36957 3093.2471 -166.80936 4294967130
439.38107 3093.165 -166.72079 4294967130
441.35477 3093.1428 -166.5551 4294967130
588.45197 3094.5527 -166.28551 4294967130
377.51163 3097.2712 -166.74828 4294967130
381.41217 3097.6084 -166.49796 4294967130
383.62222 3097.4492 -166.54591 4294967130
385.19238 3097.2529 -166.61021 4294967130
387.52142 3097.2522 -166.52856 4294967130
389.53427 3097.1489 -166.44376 4294967130
395.4653 3096.7466 -166.1684 4294967130
587.78015 3098.1514 -166.47993 4294967130
586.4234 3100.3799 -166.07573 4294967130
584.36365 3104.165 -166.76341 4294967130
553.5199 3107.4673 -166.76125 4294967130
569.6377 3106.9041 -166.7132 4294967130
571.67133 3106.8833 -166.92845 4294967130
573.81927 3106.946 -166.92654 4294967130
575.63312 3107.0027 -166.57088 4294967130
578.28461 3106.9209 -166.30228 4294967130
580.15497 3106.6423 -166.03464 4294967130
582.36871 3105.3074 -166.29622 4294967130
510.70151 3110.6055 -166.18935 4294967130
515.49915 3110.2568 -166.09399 4294967130
525.3443 3109.5862 -166.07408 4294967130
527.45911 3109.4561 -166.50011 4294967130
529.53583 3109.3059 -166.94904 4294967130
531.33551 3109.1228 -166.83102 4294967130
475.28027 3113.1995 -166.11542 4294967130
485.13062 3112.5393 -166.22359 4294967130
487.53003 3112.3264 -166.07092 4294967130
501.43915 3111.2268 -166.27898 4294967130
503.20227 3111.0874 -166.12906 4294967130
457.61295 3114.8425 -166.08344 4294967130
467.31781 3114.0127 -166.01602 4294967130
425.55939 3118.1448 -166.961 4294967130
377.45633 3122.1729 -166.88786 4294967130
379.46634 3122.1458 -166.94814 4294967130
385.30966 3121.3745 -166.58916 4294967130
387.66882 3120.835 -166.23215 4294967130
391.74896 3120.8938 -166.80919 4294967130
395.72253 3120.5918 -166.92831 4294967130
399.79807 3120.2444 -166.91985 4294967130
525.41241 3086.6438 -165.85794 4294967131
527.29108 3086.6919 -165.3756 4294967131
529.61676 3086.6682 -165.57123 4294967131
531.09003 3086.7104 -165.66747 4294967131
533.47302 3086.5884 -165.97578 4294967131
537.03021 3086.623 -165.65302 4294967131
543.40399 3086.2183 -165.64575 4294967131
545.41711 3085.9458 -165.51135 4294967131
547.29279 3085.6792 -165.03354 4294967131
587.78802 3086.9795 -165.95433 4294967131
505.09488 3089.1396 -165.9882 4294967131
511.44666 3088.8345 -165.46977 4294967131
515.51166 3088.3247 -165.46707 4294967131
587.72296 3088.9436 -165.4194 4294967131
463.53027 3092.2727 -165.12721 4294967131
467.58353 3092.1245 -165.50417 4294967131
469.36188 3092.0002 -165.24702 4294967131
471.80536 3091.8206 -165.30836 4294967131
475.25922 3091.4033 -165.55948 4294967131
477.77301 3091.2109 -165.36369 4294967131
489.73114 3090.5029 -165.42145 4294967131
493.29523 3090.499 -165.04074 4294967131
587.30591 3092.5542 -165.01971 4294967131
588.35101 3091.166 -165.85735 4294967131
419.26758 3095.7288 -165.26675 4294967131
423.66443 3094.9006 -165.8615 4294967131
425.38855 3094.8193 -165.79774 4294967131
431.42639 3094.7898 -165.18553 4294967131
435.64227 3094.4231 -165.34192 4294967131
439.77371 3094.1045 -165.48579 4294967131
441.18954 3094.0747 -165.32607 4294967131
445.45746 3093.6848 -165.29184 4294967131
449.52713 3093.3921 -165.25714 4294967131
451.56192 3093.2915 -165.17905 4294967131
587.28119 3094.561 -165.25331 4294967131
377.42441 3098.7075 -165.55205 4294967131
379.38943 3098.8638 -165.18404 4294967131
385.33997 3098.3867 -165.37238 4294967131
387.69138 3098.2356 -165.29631 4294967131
391.3497 3097.9685 -165.18369 4294967131
393.34854 3097.2878 -165.86519 4294967131
399.22284 3096.7764 -165.83371 4294967131
405.40918 3096.7568 -165.30623 4294967131
407.5061 3096.5896 -165.32417 4294967131
409.53787 3096.4678 -165.37073 4294967131
411.7037 3096.3755 -165.21269 4294967131
413.71527 3096.1877 -165.40144 4294967131
415.41464 3096.0725 -165.38399 4294967131
587.06885 3096.4277 -165.42336 4294967131
584.91699 3102.3533 -165.62604 4294967131
547.21851 3107.99 -165.05731 4294967131
509.23419 3110.6631 -165.98549 4294967131
517.448 3109.897 -165.82315 4294967131
519.35803 3109.8364 -165.90532 4294967131
523.59674 3109.7185 -165.91284 4294967131
535.06287 3108.7107 -165.74756 4294967131
537.7146 3108.4292 -165.75783 4294967131
541.21448 3108.1604 -165.95967 4294967131
545.38214 3108.0776 -165.14091 4294967131
469.11679 3113.8267 -165.89098 4294967131
470.60999 3113.5457 -165.21977 4294967131
477.40173 3112.9519 -165.11392 4294967131
481.09183 3112.7502 -165.96791 4294967131
493.11819 3111.8362 -165.9614 4294967131
495.33151 3111.6243 -165.95189 4294967131
498.86917 3111.3247 -165.94901 4294967131
431.69611 3116.8755 -165.64415 4294967131
433.62915 3116.759 -165.88457 4294967131
434.87421 3116.6089 -165.70035 4294967131
439.2359 3116.3079 -165.69679 4294967131
441.3295 3116.2046 -165.83751 4294967131
443.27475 3116.0459 -165.82713 4294967131
445.50409 3115.8188 -165.70413 4294967131
447.20828 3115.6702 -165.80525 4294967131
449.81384 3115.3147 -165.79585 4294967131
451.53033 3115.2798 -165.90199 4294967131
453.22818 3115.0168 -165.05208 4294967131
463.6123 3114.3188 -165.892 4294967131
393.28857 3119.8438 -165.27399 4294967131
395.59964 3119.7383 -165.41122 4294967131
396.6915 3119.5872 -165.16568 4294967131
401.29916 3119.4028 -165.53008 4294967131
403.58957 3119.1777 -165.38965 4294967131
407.11633 3118.7339 -165.192 4294967131
411.28134 3118.5371 -165.25932 4294967131
413.7981 3118.2004 -165.4196 4294967131
417.65707 3118.0261 -165.49742 4294967131
419.48114 3117.8457 -165.38068 4294967131
421.23703 3117.6655 -165.22957 4294967131
423.39349 3117.5964 -165.46603 4294967131
427.38986 3117.3154 -165.76776 4294967131
429.68048 3117.0352 -165.52985 4294967131
377.40424 3121.2375 -165.20909 4294967131
379.54898 3120.9951 -165.34621 4294967131
383.51218 3120.6514 -165.30742 4294967131
385.08734 3120.5229 -165.04346 4294967131
573.48767 3082.8481 -164.76564 4294967132
582.03198 3082.4785 -164.05682 4294967132
583.02356 3083.0684 -164.95293 4294967132
584.20172 3083.7642 -164.88068 4294967132
585.28809 3084.8247 -164.82355 4294967132
501.26166 3089.9465 -164.72928 4294967132
503.55151 3089.8271 -164.34514 4294967132
513.52252 3088.7393 -164.44649 4294967132
519.90332 3088.0603 -164.89384 4294967132
521.24646 3087.8281 -164.49402 4294967132
523.21869 3087.4595 -164.07951 4294967132
529.84839 3087.0313 -164.27682 4294967132
586.28436 3087.1848 -164.53406 4294967132
483.45175 3091.4553 -164.13411 4294967132
485.66614 3091.0115 -164.80453 4294967132
495.54071 3090.3416 -164.87408 4294967132
497.26251 3090.2319 -164.69835 4294967132
587.11005 3090.783 -164.77409 4294967132
424.14465 3095.9275 -164.18533 4294967132
425.54749 3095.7319 -164.146 4294967132
429.33594 3095.4648 -164.05907 4294967132
431.63251 3095.2957 -164.0305 4294967132
433.61774 3095.1177 -164.13591 4294967132
435.58029 3095.0667 -164.2932 4294967132
437.63733 3094.8186 -164.1416 4294967132
455.31934 3093.436 -164.10098 4294967132
585.92993 3095.646 -164.32686 4294967132
586.14471 3093.6887 -164.2049 4294967132
383.73376 3098.9836 -164.44005 4294967132
385.28607 3098.9456 -164.15498 4294967132
387.44913 3098.7241 -164.24664 4294967132
389.39636 3098.6223 -164.13327 4294967132
391.58005 3098.3782 -164.17336 4294967132
393.36606 3098.2788 -164.06339 4294967132
397.4176 3098.0706 -164.14188 4294967132
401.46982 3097.6211 -164.11659 4294967132
403.31723 3097.4778 -164.16689 4294967132
405.51062 3097.2947 -164.15224 4294967132
407.513 3097.1526 -164.15576 4294967132
409.46829 3097.0415 -164.0786 4294967132
411.53708 3096.8645 -164.19919 4294967132
413.28329 3096.7546 -164.12003 4294967132
415.71182 3096.6025 -164.14809 4294967132
417.9397 3096.583 -164.14781 4294967132
421.66867 3096.2625 -164.04793 4294967132
585.64819 3098.0266 -164.60577 4294967132
379.54312 3099.3428 -164.17101 4294967132
381.57813 3099.2693 -164.01143 4294967132
583.35254 3102.8296 -164.30341 4294967132
551.09564 3107.7593 -164.88377 4294967132
553.56891 3107.5894 -164.75677 4294967132
567.56903 3107.0911 -164.77119 4294967132
571.53668 3107.1326 -164.35078 4294967132
573.90063 3107.2136 -164.15349 4294967132
503.88187 3110.8687 -164.24718 4294967132
505.64096 3110.7634 -164.00548 4294967132
507.59558 3110.468 -164.30649 4294967132
509.42105 3110.4895 -164.33336 4294967132
513.31665 3110.0127 -164.40852 4294967132
517.84888 3109.7615 -164.00911 4294967132
465.28552 3113.9465 -164.15475 4294967132
469.22867 3113.6257 -164.56975 4294967132
473.68289 3113.1533 -164.48665 4294967132
475.25458 3113.0654 -164.51201 4294967132
481.28766 3112.5925 -164.08234 4294967132
483.29034 3112.4563 -164.06688 4294967132
485.47098 3112.0913 -164.28276 4294967132
487.54916 3111.9089 -164.63258 4294967132
489.39655 3111.7529 -164.40463 4294967132
493.21542 3111.4492 -164.08513 4294967132
495.40128 3111.2407 -164.27974 4294967132
429.4628 3116.8308 -164.30908 4294967132
431.06873 3116.7844 -164.85439 4294967132
433.38248 3116.4863 -164.15672 4294967132
435.22852 3116.3713 -164.27596 4294967132
437.6658 3116.1958 -164.30829 4294967132
439.30115 3116.0789 -164.22598 4294967132
445.54816 3115.583 -164.20753 4294967132
449.3204 3115.2988 -164.71486 4294967132
451.39044 3115.103 -164.54413 4294967132
455.65359 3114.7969 -164.75558 4294967132
457.4137 3114.6326 -164.62466 4294967132
459.48056 3114.4871 -164.60318 4294967132
463.93857 3114.0964 -164.36256 4294967132
389.47156 3119.677 -164.12814 4294967132
395.50668 3119.426 -164.18159 4294967132
400.25537 3119.2505 -164.73207 4294967132
401.17725 3119.0635 -164.22499 4294967132
421.24908 3117.4604 -164.08583 4294967132
425.47879 3117.0137 -164.32643 4294967132
427.50867 3117.0266 -164.21175 4294967132
379.7785 3120.7754 -164.10907 4294967132
381.51132 3120.6177 -164.10652 4294967132
575.76318 3082.6255 -163.65019 4294967133
577.6557 3082.5444 -163.83669 4294967133
582.75476 3083.9529 -163.44556 4294967133
535.08173 3086.9839 -163.43832 4294967133
537.18719 3086.7983 -163.60748 4294967133
541.46002 3086.2458 -163.22108 4294967133
545.34613 3085.8289 -163.16707 4294967133
584.54175 3085.6436 -163.66605 4294967133
507.75702 3089.4529 -163.99594 4294967133
525.36975 3087.1997 -163.72324 4294967133
527.0163 3087.1355 -163.58104 4294967133
533.13934 3087.1042 -163.68951 4294967133
584.93896 3087.9712 -163.17619 4294967133
585.83032 3089.5991 -163.77934 4294967133
475.4715 3091.9722 -163.9361 4294967133
481.19879 3091.6201 -163.94173 4294967133
586.08301 3091.8264 -163.97586 4294967133
459.37976 3093.135 -163.98679 4294967133
584.83136 3094.6321 -163.32481 4294967133
585.09674 3093.0134 -163.33334 4294967133
583.69098 3098.3247 -163.04152 4294967133
584.18726 3096.5962 -163.11479 4294967133
377.36761 3099.5452 -163.97768 4294967133
584.05963 3100.2703 -163.88545 4294967133
577.76788 3106.7209 -163.84392 4294967133
581.55249 3105.3496 -163.54709 4294967133
501.21652 3110.9944 -163.97014 4294967133
511.12128 3110.3523 -163.84624 4294967133
515.54761 3110.0447 -163.9955 4294967133
521.4389 3109.5623 -163.81828 4294967133
523.5108 3109.5078 -163.5193 4294967133
525.63904 3109.4329 -163.59196 4294967133
527.46198 3109.4282 -163.14212 4294967133
531.53375 3109.1482 -163.41768 4294967133
533.46045 3108.9988 -163.65016 4294967133
535.12061 3108.9509 -163.06021 4294967133
537.32001 3108.7842 -163.02968 4294967133
541.10571 3108.4895 -163.12115 4294967133
549.87579 3108.0063 -163.05051 4294967133
471.31522 3113.3625 -163.79828 4294967133
497.56924 3111.1033 -163.88625 4294967133
499.35361 3111.0159 -163.93433 4294967133
461.35931 3114.2627 -163.85309 4294967133
397.0271 3119.3496 -163.99864 4294967133
405.60181 3118.5176 -163.97638 4294967133
409.16711 3118.1921 -163.8037 4294967133
411.65375 3118.0166 -163.93173 4294967133
423.24951 3117.3293 -163.84415 4294967133
377.41 3120.9204 -163.9478 4294967133
383.55029 3120.2083 -163.8058 4294967133
385.33005 3120.0627 -163.95857 4294967133
565.3761 3083.7468 -162.65941 4294967134
571.44086 3082.9778 -162.07179 4294967134
573.97949 3082.8459 -162.0849 4294967134
578.44531 3082.8716 -162.28859 4294967134
581.25793 3083.0078 -162.81136 4294967134
557.18817 3084.6257 -162.90318 4294967134
583.10516 3085.8516 -162.53131 4294967134
583.76855 3088.7893 -162.31598 4294967134
584.63342 3091.4446 -162.8945 4294967134
435.50815 3095.5037 -162.02209 4294967134
583.65918 3094.4248 -162.4624 4294967134
391.47787 3098.9346 -162.1893 4294967134
393.61035 3098.7488 -162.36549 4294967134
401.55878 3098.2068 -162.04065 4294967134
403.37332 3098.0669 -162.09259 4294967134
407.33313 3097.6184 -162.06712 4294967134
413.51816 3097.146 -162.0105 4294967134
415.84943 3097.0481 -162.19096 4294967134
421.42926 3096.6187 -162.18666 4294967134
427.52246 3096.1748 -162.19458 4294967134
582.93738 3097.5396 -162.30745 4294967134
387.50024 3099.2622 -162.04964 4294967134
582.29651 3101.8342 -162.78099 4294967134
581.62244 3103.793 -162.43335 4294967134
551.17999 3107.9312 -162.84917 4294967134
554.95062 3107.7446 -162.4545 4294967134
568.10162 3107.3767 -162.49678 4294967134
569.51672 3107.4075 -162.00795 4294967134
578.89618 3105.9644 -162.48962 4294967134
543.43591 3108.3743 -162.91983 4294967134
547.05725 3108.1924 -162.91284 4294967134
441.37473 3115.8782 -162.14378 4294967134
387.80463 3119.7229 -162.18385 4294967134
395.84549 3119.1797 -162.1015 4294967134
580.59442 3084.825 -161.60869 4294967135
501.41312 3089.9395 -161.30186 4294967135
503.26544 3089.7993 -161.29289 4294967135
505.46799 3089.634 -161.69374 4294967135
507.88358 3089.3438 -161.09381 4294967135
509.47003 3089.1672 -161.03943 4294967135
525.65704 3087.3645 -161.3391 4294967135
531.60089 3087.23 -161.29773 4294967135
533.41437 3087.1069 -161.18604 4294967135
581.75293 3087.8555 -161.15974 4294967135
467.22244 3092.9612 -161.71864 4294967135
469.7756 3092.8083 -161.8947 4294967135
473.37631 3092.5286 -161.58974 4294967135
497.41272 3090.248 -161.13878 4294967135
499.42014 3090.0964 -161.6138 4294967135
581.89941 3090.6377 -161.0386 4294967135
582.15057 3092.5208 -161.28438 4294967135
583.2431 3091.5037 -161.93724 4294967135
431.57663 3095.8218 -161.72763 4294967135
439.6929 3095.1152 -161.89807 4294967135
441.36841 3095.0454 -161.96664 4294967135
445.53592 3094.7732 -161.81389 4294967135
447.69162 3094.583 -161.89685 4294967135
449.61407 3094.4209 -161.75439 4294967135
451.50308 3094.2517 -161.46559 4294967135
455.18655 3093.9563 -161.51886 4294967135
457.46149 3093.6868 -161.85054 4294967135
581.49475 3094.3933 -161.00529 4294967135
409.32886 3097.4695 -161.95879 4294967135
411.54477 3097.4014 -161.82201 4294967135
418.98495 3096.8101 -161.88068 4294967135
423.42047 3096.4504 -161.93948 4294967135
581.50055 3098.7131 -161.5135 4294967135
582.5661 3096.0552 -161.87526 4294967135
379.04169 3099.9839 -161.86949 4294967135
383.18655 3099.6462 -161.90453 4294967135
571.6853 3107.3567 -161.7657 4294967135
579.40314 3105.0244 -161.54323 4294967135
507.49759 3110.8987 -161.29407 4294967135
511.33301 3110.5686 -161.65054 4294967135
513.44592 3110.4871 -161.01663 4294967135
515.60278 3110.2031 -161.65958 4294967135
517.68134 3110.0781 -161.52527 4294967135
521.32336 3109.9165 -161.17934 4294967135
523.37982 3109.8076 -161.23709 4294967135
525.76416 3109.6709 -161.23602 4294967135
529.42035 3109.4106 -161.5416 4294967135
467.15775 3113.9126 -161.68195 4294967135
469.40097 3113.7334 -161.4906 4294967135
471.43231 3113.4924 -161.75537 4294967135
473.31409 3113.4099 -161.5144 4294967135
475.60345 3113.2917 -161.31105 4294967135
477.35013 3113.1355 -161.61858 4294967135
479.56879 3113.0535 -161.28937 4294967135
481.36694 3112.8564 -161.4671 4294967135
483.49573 3112.6353 -161.17094 4294967135
489.56671 3112.0708 -161.73503 4294967135
491.48441 3111.9294 -161.65326 4294967135
493.28799 3111.8501 -161.3553 4294967135
495.27814 3111.7026 -161.3658 4294967135
497.50568 3111.5315 -161.13895 4294967135
499.36301 3111.3313 -161.47142 4294967135
503.5643 3111.156 -161.14902 4294967135
505.66171 3111.0015 -161.36664 4294967135
427.41122 3116.9363 -161.94513 4294967135
429.08743 3116.843 -161.77286 4294967135
431.2384 3116.7585 -161.39792 4294967135
433.76349 3116.5027 -161.73967 4294967135
435.49142 3116.375 -161.86389 4294967135
437.68561 3116.2654 -161.73866 4294967135
439.07452 3116.1716 -161.62613 4294967135
445.46356 3115.6294 -161.53938 4294967135
447.33591 3115.4741 -161.59752 4294967135
451.47321 3115.177 -161.56512 4294967135
453.28073 3114.9873 -161.93994 4294967135
457.37308 3114.7239 -161.85841 4294967135
459.07892 3114.625 -161.53035 4294967135
461.61252 3114.3611 -161.90218 4294967135
463.38559 3114.3333 -161.14888 4294967135
465.32181 3114.1133 -161.38689 4294967135
391.33923 3119.469 -161.91823 4294967135
397.56104 3119.1826 -161.71663 4294967135
399.02603 3119.1672 -161.3485 4294967135
401.62833 3118.8271 -161.97729 4294967135
403.59885 3118.656 -161.93069 4294967135
405.46545 3118.4868 -161.84535 4294967135
407.24814 3118.3083 -161.91618 4294967135
409.45566 3118.1418 -161.76094 4294967135
411.5632 3118.0481 -161.60725 4294967135
412.69373 3117.9976 -161.40028 4294967135
415.49869 3117.7009 -161.89076 4294967135
417.39633 3117.603 -161.85002 4294967135
419.34656 3117.4277 -161.924 4294967135
421.47595 3117.366 -161.60323 4294967135
423.52579 3117.2341 -161.74879 4294967135
425.57809 3117.0554 -161.98923 4294967135
377.13852 3120.9326 -161.71844 4294967135
379.34961 3120.6028 -161.81049 4294967135
380.98843 3120.4695 -161.68105 4294967135
385.06903 3120.0796 -161.4872 4294967135
573.61957 3083.2004 -160.02397 4294967136
577.56433 3083.4575 -160.32784 4294967136
545.47272 3085.7144 -160.97205 4294967136
559.56323 3084.3779 -160.735 4294967136
580.40527 3092.5752 -160.14763 4294967136
581.12708 3096.1946 -160.93031 4294967136
579.78778 3102.3679 -160.88567 4294967136
555.69092 3107.8916 -160.87419 4294967136
564.12341 3107.8037 -160.3345 4294967136
575.66681 3106.45 -160.49417 4294967136
509.17896 3110.8289 -160.91824 4294967136
531.53125 3109.3391 -160.94362 4294967136
537.44794 3108.9822 -160.79774 4294967136
539.30841 3108.8501 -160.84587 4294967136
541.02411 3108.7637 -160.70782 4294967136
543.7771 3108.5798 -160.93974 4294967136
547.35779 3108.4077 -160.92899 4294967136
549.57153 3108.3206 -160.67976 4294967136
551.22955 3108.1643 -160.90375 4294967136
553.43652 3108.1067 -160.46982 4294967136
485.2196 3112.6255 -160.8226 4294967136
567.47815 3083.4072 -159.83328 4294967137
569.70886 3083.2212 -159.79843 4294967137
578.72705 3086.981 -159.26068 4294967137
501.1434 3089.9487 -159.26904 4294967137
503.40948 3089.7234 -159.00368 4294967137
521.41516 3087.8672 -159.29178 4294967137
523.35156 3087.6692 -159.26404 4294967137
525.31512 3087.5007 -159.00558 4294967137
467.42041 3092.8086 -159.12419 4294967137
472.09488 3092.4382 -159.20454 4294967137
495.5527 3090.5085 -159.07539 4294967137
497.85681 3090.2305 -159.23705 4294967137
579.77368 3090.0017 -159.61646 4294967137
429.47891 3095.8853 -159.06299 4294967137
431.79141 3095.6301 -159.17714 4294967137
435.19577 3095.3667 -159.06371 4294967137
455.42896 3093.7871 -159.17813 4294967137
579.19727 3095.7666 -159.62114 4294967137
405.74496 3097.6841 -159.13518 4294967137
413.61038 3097.0603 -159.05484 4294967137
419.03912 3096.6458 -159.20493 4294967137
421.2692 3096.4614 -159.30692 4294967137
423.21191 3096.3682 -159.26965 4294967137
425.39038 3096.2148 -159.21815 4294967137
379.42972 3099.7927 -159.37988 4294967137
383.36432 3099.4609 -159.27031 4294967137
578.19208 3099.7273 -159.18079 4294967137
557.03595 3107.9885 -159.81317 4294967137
565.67096 3107.8403 -159.68619 4294967137
569.89581 3107.4546 -159.87561 4294967137
572.4798 3106.9365 -159.91855 4294967137
511.24887 3110.9126 -159.1331 4294967137
519.29407 3110.2766 -159.04955 4294967137
521.8114 3110.1167 -159.01015 4294967137
479.58459 3113.3813 -159.20953 4294967137
493.31866 3112.1572 -159.04749 4294967137
505.65897 3111.3408 -159.01111 4294967137
443.89206 3116.1089 -159.12383 4294967137
449.43823 3115.6162 -159.00157 4294967137
451.50815 3115.4221 -159.02766 4294967137
457.49905 3115.0845 -159.0531 4294967137
458.92383 3114.9045 -159.06027 4294967137
461.93311 3114.7083 -159.15298 4294967137
465.35165 3114.3027 -159.02888 4294967137
469.32285 3114.0334 -159.07561 4294967137
393.53455 3119.885 -159.00067 4294967137
407.19104 3118.8132 -159.10912 4294967137
409.8313 3118.5923 -159.09573 4294967137
415.62564 3118.1836 -159.14117 4294967137
417.21439 3118.082 -159.17996 4294967137
422.05853 3117.7673 -159.24062 4294967137
427.68237 3117.3206 -159.09131 4294967137
381.2851 3120.9575 -159.08531 4294967137
573.47845 3083.748 -158.36995 4294967138
545.45984 3085.5728 -158.59804 4294967138
547.1474 3085.4448 -158.66962 4294967138
549.52496 3085.2983 -158.9975 4294967138
554.96442 3084.8457 -158.5919 4294967138
559.59778 3084.3169 -158.20628 4294967138
561.67889 3084.0852 -158.17224 4294967138
575.80536 3084.0208 -158.9864 4294967138
577.57312 3085.5466 -158.24667 4294967138
505.25247 3089.6233 -158.68813 4294967138
508.28598 3089.3396 -158.49367 4294967138
511.07242 3089.0723 -158.32553 4294967138
529.18365 3087.3247 -158.98361 4294967138
469.6702 3092.6082 -158.90192 4294967138
577.75476 3092.1946 -158.32928 4294967138
415.41199 3097.0303 -158.99004 4294967138
577.31366 3097.4878 -158.50224 4294967138
577.82727 3102.2947 -158.81332 4294967138
571.5481 3106.6477 -158.35645 4294967138
575.4715 3105.2805 -158.54884 4294967138
515.40747 3110.6182 -158.92662 4294967138
525.4201 3109.9424 -158.76134 4294967138
529.33661 3109.7285 -158.72104 4294967138
535.60608 3109.2983 -158.99466 4294967138
539.29047 3109.0989 -158.80869 4294967138
541.39697 3108.9897 -158.68886 4294967138
543.56207 3108.8916 -158.62634 4294967138
545.81519 3108.8015 -158.69165 4294967138
547.26697 3108.6694 -158.87057 4294967138
549.90289 3108.6321 -158.23706 4294967138
550.88715 3108.53 -158.52292 4294967138
554.06421 3108.4209 -158.13907 4294967138
557.91132 3108.2754 -158.03307 4294967138
559.89209 3108.1812 -158.13809 4294967138
483.61938 3113.0261 -158.84669 4294967138
485.25571 3112.8516 -158.7769 4294967138
487.21542 3112.7124 -158.7131 4294967138
489.51434 3112.5413 -158.80119 4294967138
491.73041 3112.29 -158.90204 4294967138
495.5545 3111.9912 -158.97896 4294967138
497.35941 3111.9438 -158.62341 4294967138
499.59726 3111.7356 -158.84279 4294967138
503.36365 3111.5012 -158.81271 4294967138
509.30344 3111.0632 -158.80643 4294967138
435.5863 3116.8462 -158.95471 4294967138
437.39648 3116.7231 -158.92409 4294967138
441.07446 3116.4175 -158.93781 4294967138
445.41843 3116.0054 -158.78555 4294967138
447.29407 3115.7209 -158.88316 4294967138
455.62268 3115.1409 -158.90092 4294967138
463.04822 3114.5962 -158.97513 4294967138
397.82452 3119.5916 -158.98495 4294967138
401.49612 3119.2239 -158.8746 4294967138
412.54187 3118.394 -158.41988 4294967138
419.3299 3117.9221 -158.9429 4294967138
423.43948 3117.6973 -158.97496 4294967138
429.03714 3117.3 -158.97757 4294967138
431.60992 3117.0342 -158.93211 4294967138
386.96219 3120.4531 -158.67934 4294967138
563.66235 3083.8887 -157.44563 4294967139
565.80103 3083.7202 -157.6924 4294967139
569.50946 3083.8066 -157.78938 4294967139
502.65451 3089.8557 -157.02879 4294967139
496.85172 3090.2856 -157.04147 4294967139
575.79022 3092.2166 -157.05353 4294967139
455.44574 3093.5977 -157.03471 4294967139
575.83386 3095.1392 -157.44397 4294967139
377.66605 3099.7 -157.03752 4294967139
381.59109 3099.4014 -157.09547 4294967139
576.06512 3099.5227 -157.76889 4294967139
575.68481 3103.0024 -157.56439 4294967139
563.69629 3107.8625 -157.8931 4294967139
569.95856 3107.1089 -157.98859 4294967139
459.15814 3115.1772 -157.02119 4294967139
407.51938 3118.9282 -157.03404 4294967139
381.4469 3121.2456 -157.00377 4294967139
543.22015 3085.7041 -156.49338 4294967140
545.51099 3085.5134 -156.60825 4294967140
547.63556 3085.3262 -156.60277 4294967140
567.95605 3084.3669 -156.1219 4294967140
571.45923 3084.7407 -156.33067 4294967140
511.61139 3089.1035 -156.17241 4294967140
513.50146 3088.9099 -156.44897 4294967140
517.07379 3088.4824 -156.7897 4294967140
521.1557 3087.9478 -156.61032 4294967140
523.19049 3087.7202 -156.78442 4294967140
525.53564 3087.5288 -156.69424 4294967140
531.55444 3087.1672 -156.82104 4294967140
575.49127 3088.7134 -156.35326 4294967140
467.26038 3092.6631 -156.83922 4294967140
470.10464 3092.4487 -156.992 4294967140
471.79721 3092.259 -156.59789 4294967140
494.44 3090.4233 -156.39111 4294967140
425.60547 3095.9417 -156.91013 4294967140
457.56067 3093.4231 -156.85045 4294967140
573.45441 3094.8694 -156.12192 4294967140
409.52441 3097.2429 -156.72852 4294967140
413.53577 3096.9226 -156.75465 4294967140
417.41797 3096.6077 -156.81822 4294967140
421.35449 3096.281 -156.96925 4294967140
423.05609 3096.1621 -156.80159 4294967140
573.55627 3097.0322 -156.33696 4294967140
379.18484 3099.5728 -156.61766 4294967140
573.77698 3099.5222 -156.38971 4294967140
573.74994 3102.0544 -156.17303 4294967140
563.44037 3107.5234 -156.10245 4294967140
567.44006 3107.1287 -156.39157 4294967140
571.46063 3105.7039 -156.46436 4294967140
513.90997 3110.9937 -156.7186 4294967140
517.20282 3110.7239 -156.60435 4294967140
519.15472 3110.5281 -156.71455 4294967140
521.30646 3110.3469 -156.76021 4294967140
523.45508 3110.1975 -156.83652 4294967140
525.52869 3110.1565 -156.34328 4294967140
526.88843 3110.0801 -156.38933 4294967140
529.23877 3109.9502 -156.3195 4294967140
531.65381 3109.8445 -156.28288 4294967140
533.52942 3109.7026 -156.5372 4294967140
537.45508 3109.4753 -156.47131 4294967140
539.43921 3109.3386 -156.79263 4294967140
543.69043 3109.2842 -156.07201 4294967140
550.39343 3108.8059 -156.08151 4294967140
479.46353 3113.8052 -156.46111 4294967140
485.13535 3113.2642 -156.43874 4294967140
487.38638 3112.9832 -156.66537 4294967140
491.49866 3112.6799 -156.52745 4294967140
495.49298 3112.3411 -156.73576 4294967140
499.26801 3112.1165 -156.30676 4294967140
501.59985 3111.9236 -156.52168 4294967140
503.58997 3111.7786 -156.61908 4294967140
507.37958 3111.5654 -156.2395 4294967140
509.45834 3111.3745 -156.45474 4294967140
511.21036 3111.262 -156.4025 4294967140
439.53326 3116.8127 -156.92387 4294967140
443.91187 3116.4128 -156.94846 4294967140
447.21823 3116.123 -156.82596 4294967140
449.19699 3115.9102 -156.91414 4294967140
451.60803 3115.7751 -156.74135 4294967140
455.60632 3115.4883 -156.82982 4294967140
457.53781 3115.3118 -156.94722 4294967140
461.58633 3115.0251 -156.66855 4294967140
463.32281 3114.8921 -156.40443 4294967140
465.19803 3114.6897 -156.84229 4294967140
467.28888 3114.5217 -156.88133 4294967140
475.54745 3114.0088 -156.84753 4294967140
397.80267 3119.9006 -156.85352 4294967140
401.98102 3119.437 -156.70218 4294967140
410.08261 3118.7493 -156.56012 4294967140
415.70905 3118.3945 -156.48405 4294967140
419.42044 3118.3076 -156.71362 4294967140
425.31531 3117.9299 -156.6638 4294967140
433.72443 3117.2651 -156.75735 4294967140
435.66937 3117.1287 -156.70923 4294967140
395.46075 3120.084 -156.93753 4294967140
549.35706 3085.1531 -155.95671 4294967141
551.87268 3084.9917 -155.94846 4294967141
555.55786 3084.7004 -155.76485 4294967141
557.34204 3084.5752 -155.52501 4294967141
559.31781 3084.583 -155.42509 4294967141
561.62091 3084.4724 -155.55103 4294967141
563.94348 3084.3743 -155.79482 4294967141
569.31384 3084.8396 -155.59482 4294967141
506.7847 3089.5896 -155.89928 4294967141
509.59253 3089.3677 -155.51802 4294967141
499.46323 3090.1548 -155.69431 4294967141
573.5304 3092.4297 -155.75204 4294967141
405.61551 3097.6204 -155.35016 4294967141
571.63831 3096.8923 -155.21146 4294967141
571.62848 3099.3889 -155.15265 4294967141
571.88031 3102.9697 -155.42035 4294967141
559.49945 3107.9021 -155.91916 4294967141
561.54803 3107.6714 -155.88046 4294967141
569.62048 3105.0557 -155.19675 4294967141
547.32782 3109.0366 -155.85399 4294967141
551.38202 3108.7646 -155.66151 4294967141
554.31598 3108.4792 -155.56767 4294967141
555.81018 3108.3154 -155.57997 4294967141
533.67816 3086.7769 -154.00089 4294967142
535.30212 3086.5823 -154.08578 4294967142
541.43024 3085.9431 -154.05403 4294967142
561.73157 3084.9565 -154.11525 4294967142
563.4469 3084.9465 -154.37529 4294967142
565.45337 3085.0903 -154.41856 4294967142
567.50299 3085.3484 -154.52542 4294967142
504.27731 3089.9248 -154.85405 4294967142
506.02924 3089.8154 -154.27263 4294967142
512.22504 3089.2666 -154.17957 4294967142
520.00854 3088.1575 -154.52621 4294967142
521.53754 3087.9924 -154.30067 4294967142
527.3125 3087.425 -154.1675 4294967142
571.72833 3089.8491 -154.13232 4294967142
463.633 3092.8403 -154.85143 4294967142
465.57382 3092.5894 -154.11255 4294967142
467.12967 3092.4724 -154.60353 4294967142
469.69263 3092.2849 -154.65906 4294967142
471.57098 3092.1072 -154.28372 4294967142
472.96771 3091.9766 -154.38666 4294967142
475.40421 3091.7507 -154.45918 4294967142
491.30304 3090.4819 -154.59706 4294967142
496.64236 3090.2808 -154.87178 4294967142
501.95432 3090.0522 -154.72639 4294967142
571.71564 3092.4956 -154.69966 4294967142
423.20865 3095.9619 -154.48526 4294967142
425.58093 3095.7544 -154.55258 4294967142
457.65738 3093.2693 -154.81979 4294967142
569.61609 3094.6697 -154.07095 4294967142
571.56122 3094.7637 -154.9785 4294967142
385.22473 3098.9578 -154.37753 4294967142
408.28085 3097.3228 -154.55872 4294967142
410.97351 3097.0679 -154.42308 4294967142
415.28381 3096.5479 -154.21881 4294967142
417.35715 3096.3877 -154.28882 4294967142
421.62601 3096.0813 -154.88911 4294967142
569.90173 3096.97 -154.36964 4294967142
377.54953 3099.522 -154.59869 4294967142
379.50027 3099.375 -154.60515 4294967142
381.15109 3099.2266 -154.28513 4294967142
383.62234 3099.1006 -154.77817 4294967142
569.65515 3099.1594 -154.25217 4294967142
569.52051 3103.793 -154.35658 4294967142
557.00262 3107.7795 -154.23192 4294967142
560.04181 3107.6599 -154.82576 4294967142
561.50763 3106.9646 -154.26804 4294967142
563.85736 3106.8889 -154.86429 4294967142
565.4032 3106.1052 -154.37236 4294967142
567.51959 3105.8164 -154.65613 4294967142
517.33411 3110.9834 -154.04814 4294967142
483.84415 3113.7419 -154.16875 4294967142
489.49414 3113.2397 -154.02255 4294967142
505.91623 3111.52 -154.03877 4294967142
509.19394 3111.3413 -154.29532 4294967142
447.43015 3116.3621 -154.15552 4294967142
449.31314 3116.1924 -154.04362 4294967142
451.74463 3115.9829 -154.05132 4294967142
453.35052 3115.8745 -154.00829 4294967142
455.44757 3115.73 -154.19597 4294967142
457.44751 3115.5806 -154.38026 4294967142
462.96564 3115.1565 -154.01149 4294967142
465.40076 3114.9351 -154.36246 4294967142
469.77203 3114.687 -154.18622 4294967142
475.40488 3114.4253 -154.21707 4294967142
400.69678 3119.6963 -154.08899 4294967142
404.61484 3119.3159 -154.49486 4294967142
412.26694 3118.6494 -154.34894 4294967142
421.42258 3118.4255 -154.24483 4294967142
423.16919 3118.2578 -154.6983 4294967142
425.59399 3118.1433 -154.27109 4294967142
429.30325 3117.8999 -154.07724 4294967142
435.49396 3117.4246 -154.10106 4294967142
437.8674 3117.228 -154.29596 4294967142
439.25333 3117.113 -154.38437 4294967142
389.5354 3120.77 -154.6463 4294967142
391.40384 3120.6426 -154.47948 4294967142
393.87744 3120.4727 -154.41414 4294967142
539.6308 3086.1216 -153.85324 4294967143
543.21161 3085.6108 -153.8918 4294967143
545.4043 3085.4302 -153.69505 4294967143
547.43494 3085.3064 -153.83728 4294967143
549.56641 3085.2588 -153.66211 4294967143
551.51239 3085.2358 -153.55612 4294967143
553.52582 3085.1177 -153.7412 4294967143
557.42145 3085.2021 -153.60144 4294967143
507.56161 3089.7996 -153.73929 4294967143
509.06204 3089.6553 -153.73688 4294967143
510.18155 3089.5916 -153.61067 4294967143
515.24438 3088.9563 -153.82721 4294967143
517.84741 3088.5659 -153.91316 4294967143
531.17419 3087.0005 -153.77512 4294967143
569.63293 3089.8225 -153.19684 4294967143
494.48593 3090.3965 -153.82739 4294967143
497.77811 3090.342 -153.52554 4294967143
502.48309 3090.2402 -153.29642 4294967143
413.30219 3096.7488 -153.84834 4294967143
567.70184 3096.9453 -153.47473 4294967143
567.78174 3100.4736 -153.4183 4294967143
565.84192 3103.9434 -153.31058 4294967143
557.40112 3107.0005 -153.06189 4294967143
559.47217 3106.4817 -153.19788 4294967143
561.33441 3105.5466 -153.02876 4294967143
563.3186 3105.7495 -153.60144 4294967143
520.88672 3110.8418 -153.48055 4294967143
522.70526 3110.5801 -153.80869 4294967143
525.80969 3110.4153 -153.97255 4294967143
527.16199 3110.5249 -153.53246 4294967143
529.3396 3110.342 -153.77003 4294967143
531.6413 3110.188 -153.66887 4294967143
533.46295 3110.0781 -153.70294 4294967143
535.14417 3109.9954 -153.5351 4294967143
538.18134 3109.7969 -153.9465 4294967143
541.56024 3109.5876 -153.57954 4294967143
543.69696 3109.3879 -153.97289 4294967143
547.91858 3108.9067 -153.86308 4294967143
549.43805 3108.7056 -153.41235 4294967143
551.74756 3108.5647 -153.81882 4294967143
553.51776 3108.2656 -153.73616 4294967143
485.19592 3113.6196 -153.97798 4294967143
487.54761 3113.4131 -153.87685 4294967143
491.36227 3113.0913 -153.90042 4294967143
495.4917 3112.7866 -153.85905 4294967143
497.42947 3112.5117 -153.95937 4294967143
499.42355 3112.0063 -153.61757 4294967143
502.81323 3111.6821 -153.92354 4294967143
512.08002 3111.104 -153.88931 4294967143
514.01038 3111.0352 -153.54634 4294967143
515.35065 3111.2844 -153.8745 4294967143
443.44989 3116.7864 -153.99042 4294967143
458.96841 3115.5056 -153.93117 4294967143
467.28546 3114.8708 -153.91977 4294967143
471.43222 3114.6497 -153.82303 4294967143
473.12711 3114.5933 -153.70876 4294967143
477.67621 3114.3696 -153.85518 4294967143
408.44675 3118.9636 -153.83981 4294967143
415.2197 3118.4714 -153.52516 4294967143
417.60269 3118.3967 -153.89821 4294967143
419.42517 3118.6025 -153.99989 4294967143
386.96494 3121.1238 -153.99277 4294967143
397.13428 3120.0591 -153.78943 4294967143
551.64032 3085.9373 -152.02515 4294967144
553.47821 3085.8774 -152.25082 4294967144
559.53748 3085.6895 -152.58548 4294967144
561.43945 3086.448 -152.11121 4294967144
563.45532 3086.3123 -152.63539 4294967144
565.32239 3086.7573 -152.83694 4294967144
511.06699 3089.9529 -152.30659 4294967144
512.66492 3089.6528 -152.36026 4294967144
513.72656 3089.2751 -152.91393 4294967144
514.61395 3089.2703 -152.47441 4294967144
517.27875 3088.9399 -152.30232 4294967144
519.65845 3088.5576 -152.10747 4294967144
565.6228 3088.7007 -152.19055 4294967144
567.74365 3088.6738 -152.70415 4294967144
494.73547 3090.4978 -152.29781 4294967144
496.10056 3090.4429 -152.78232 4294967144
498.92087 3090.4666 -152.93008 4294967144
500.71936 3090.4956 -152.91 4294967144
502.02982 3090.6807 -152.06569 4294967144
503.54993 3090.5879 -152.27296 4294967144
505.68134 3090.2656 -152.78793 4294967144
507.17685 3090.2922 -152.35747 4294967144
508.80692 3090.24 -152.21156 4294967144
399.18295 3098.2754 -152.35464 4294967144
401.73822 3098.0684 -152.51219 4294967144
407.19452 3097.582 -152.29849 4294967144
409.83313 3097.2976 -152.09537 4294967144
411.63617 3097.0432 -152.82169 4294967144
414.85754 3096.7009 -152.08598 4294967144
381.38907 3099.0872 -152.06204 4294967144
561.80609 3104.0095 -152.42024 4294967144
563.61371 3103.0938 -152.55612 4294967144
553.4494 3107.9492 -152.96364 4294967144
555.10559 3106.9065 -152.22023 4294967144
557.30322 3105.7439 -152.09389 4294967144
515.11682 3110.8577 -152.27745 4294967144
516.70697 3110.6333 -152.09943 4294967144
545.8299 3108.678 -152.2639 4294967144
547.22357 3108.5703 -152.38863 4294967144
550.93982 3108.2192 -152.63721 4294967144
483.86316 3113.6599 -152.17003 4294967144
401.0889 3119.5452 -152.00479 4294967144
402.57346 3119.5652 -152.68324 4294967144
403.68146 3119.4221 -152.28357 4294967144
406.48431 3119.1304 -152.62892 4294967144
407.66129 3118.9629 -152.11385 4294967144
410.58969 3118.7043 -152.4048 4294967144
411.99875 3118.5762 -152.16708 4294967144
535.64233 3086.8904 -151.85129 4294967145
537.49481 3086.7236 -151.68745 4294967145
541.44604 3086.3201 -151.76797 4294967145
545.11969 3086.113 -151.68356 4294967145
549.79211 3085.9917 -151.86096 4294967145
557.23218 3086.5176 -151.44437 4294967145
559.42126 3086.6538 -151.63554 4294967145
513.90216 3089.6785 -151.70818 4294967145
515.64246 3089.5142 -151.51132 4294967145
521.42969 3088.1494 -151.5679 4294967145
523.32959 3087.96 -151.64684 4294967145
525.2027 3087.7063 -151.16696 4294967145
527.37256 3087.6282 -151.78177 4294967145
529.43719 3087.4451 -151.72066 4294967145
533.25555 3087.1973 -151.49706 4294967145
561.5238 3088.6135 -151.20227 4294967145
563.52399 3088.8745 -151.49573 4294967145
459.66071 3092.9355 -151.97833 4294967145
461.15512 3092.801 -151.85097 4294967145
463.44589 3092.5771 -151.44724 4294967145
467.25699 3092.2693 -151.78111 4294967145
469.62265 3092.2068 -151.84 4294967145
471.27969 3091.9575 -151.51646 4294967145
473.32748 3091.7512 -151.93657 4294967145
475.21051 3091.5715 -151.58087 4294967145
477.38416 3091.3708 -151.50864 4294967145
479.59357 3091.2222 -151.73192 4294967145
481.009 3091.1353 -151.52266 4294967145
485.5802 3090.8076 -151.67159 4294967145
487.27643 3090.7761 -151.71417 4294967145
489.74258 3090.5454 -151.99219 4294967145
492.89493 3090.5886 -151.9014 4294967145
497.28763 3090.7446 -151.56172 4294967145
499.07513 3091.051 -151.24158 4294967145
502.46603 3091.0459 -151.35762 4294967145
504.8237 3091.0413 -151.34451 4294967145
421.47058 3095.9551 -151.38835 4294967145
423.37973 3095.7922 -151.71063 4294967145
427.20441 3095.4688 -151.56912 4294967145
431.02036 3095.1743 -151.52315 4294967145
433.42349 3095.0237 -151.77852 4294967145
437.31152 3094.7229 -151.65245 4294967145
439.57556 3094.6711 -151.79085 4294967145
449.17084 3093.7495 -151.69366 4294967145
453.45676 3093.4021 -151.70135 4294967145
455.11166 3093.2825 -151.58604 4294967145
457.60049 3093.0835 -151.93243 4294967145
383.46826 3098.9321 -151.82529 4294967145
385.42807 3098.9009 -151.97545 4294967145
387.19519 3098.7559 -151.73854 4294967145
389.39429 3098.5906 -151.81071 4294967145
391.40622 3098.3042 -151.81017 4294967145
393.52179 3098.2708 -151.77988 4294967145
395.5495 3097.9514 -151.86156 4294967145
397.00455 3098.375 -151.58304 4294967145
404.40021 3098.0942 -151.47771 4294967145
412.5907 3097.2239 -151.25035 4294967145
417.40616 3096.3845 -151.83322 4294967145
419.22534 3096.1218 -151.71471 4294967145
379.27594 3099.2166 -151.68289 4294967145
557.65723 3100.2922 -151.16325 4294967145
559.50732 3101.7568 -151.51064 4294967145
555.67578 3104.144 -151.04694 4294967145
556.81702 3104.1223 -151.35416 4294967145
559.57922 3103.9072 -151.94763 4294967145
549.49176 3107.3701 -151.10089 4294967145
551.20709 3107.3596 -151.44467 4294967145
553.63129 3105.8589 -151.10229 4294967145
510.59378 3110.834 -151.36139 4294967145
513.77094 3110.5647 -151.06358 4294967145
515.72809 3110.4446 -151.049 4294967145
519.21167 3110.1812 -151.39919 4294967145
521.47845 3110.5061 -151.69801 4294967145
526.28906 3110.4568 -151.84256 4294967145
529.27826 3109.9404 -151.70941 4294967145
533.40485 3109.6436 -151.7558 4294967145
535.30823 3109.5657 -151.78807 4294967145
538.45544 3109.3093 -151.67465 4294967145
543.37549 3108.8804 -151.99399 4294967145
485.17542 3113.4707 -151.81232 4294967145
489.19733 3112.9417 -151.83855 4294967145
497.79428 3111.7029 -151.47227 4294967145
499.51602 3111.5452 -151.60585 4294967145
501.46359 3111.219 -151.39137 4294967145
504.74905 3111.0532 -151.43738 4294967145
507.68494 3111.1206 -151.83174 4294967145
453.53561 3115.9221 -151.03923 4294967145
455.62564 3115.9839 -151.07339 4294967145
458.94342 3115.5073 -151.2299 4294967145
463.32245 3115.2295 -151.59601 4294967145
465.53122 3115.0288 -151.15434 4294967145
469.98813 3114.6118 -151.01262 4294967145
471.90677 3114.4812 -151.41711 4294967145
473.35062 3114.5571 -151.48904 4294967145
475.47928 3114.2507 -151.82211 4294967145
477.83011 3114.0327 -151.79066 4294967145
397.31308 3119.9058 -151.29033 4294967145
399.22101 3119.6663 -151.86171 4294967145
402.49963 3119.4514 -151.57639 4294967145
404.9816 3119.145 -151.76216 4294967145
