# .PCD v0.7 - Point Cloud Data file format
VERSION 0.7
FIELDS x y z rgba
SIZE 4 4 4 4
TYPE F F F U
COUNT 1 1 1 1
WIDTH 1147
HEIGHT 1
VIEWPOINT 0 0 0 1 0 0 0
POINTS 1147
DATA ascii
317.32724 1766.7708 -103.30886 4294967193
319.94284 1766.9628 -103.53238 4294967193
321.61572 1766.9592 -103.44036 4294967193
323.61411 1766.9244 -103.27593 4294967193
329.34784 1766.8361 -103.47232 4294967193
333.24203 1766.4084 -103.57326 4294967193
335.54825 1766.0618 -103.50307 4294967193
339.27466 1765.7272 -103.64954 4294967193
341.67712 1765.2461 -103.14802 4294967193
343.46994 1765.272 -103.11286 4294967193
347.19153 1765.4932 -103.23788 4294967193
349.13577 1765.5284 -103.22993 4294967193
353.1272 1765.822 -103.79726 4294967193
283.30774 1769.4877 -103.15617 4294967193
284.95709 1769.2952 -103.21707 4294967193
287.64935 1769.0642 -103.23138 4294967193
289.15909 1769.1564 -103.52454 4294967193
291.12833 1769.2098 -103.75336 4294967193
293.42227 1769.0303 -103.62318 4294967193
295.39206 1768.9867 -103.74339 4294967193
297.49637 1768.9756 -103.93697 4294967193
299.38467 1768.8018 -103.94477 4294967193
301.55203 1768.1548 -103.87029 4294967193
305.51376 1767.6321 -103.34117 4294967193
307.08969 1767.4197 -103.15508 4294967193
309.09021 1767.4056 -103.45053 4294967193
311.70224 1767.2294 -103.44373 4294967193
313.59412 1767.1385 -103.45384 4294967193
325.56158 1767.2119 -103.62852 4294967193
327.09943 1767.0876 -103.5587 4294967193
279.64322 1770.406 -103.65684 4294967193
461.37927 1732.5394 -102.81784 4294967194
463.3266 1732.2642 -102.41811 4294967194
467.61203 1731.6436 -102.25764 4294967194
480.26385 1731.288 -102.32774 4294967194
483.42242 1732.1814 -102.30186 4294967194
485.63885 1733.5354 -102.83533 4294967194
431.52722 1735.5024 -102.38389 4294967194
433.60754 1735.5032 -102.16692 4294967194
437.3443 1735.0748 -102.03991 4294967194
385.16855 1738.8799 -102.12933 4294967194
389.64023 1738.501 -102.41065 4294967194
393.34698 1738.3105 -102.16142 4294967194
395.25305 1738.3738 -102.15144 4294967194
397.57211 1737.9497 -102.19511 4294967194
401.465 1737.7301 -102.08475 4294967194
407.73395 1737.2563 -102.0708 4294967194
485.66745 1737.908 -102.85344 4294967194
361.39151 1740.4503 -102.02164 4294967194
363.58823 1740.2677 -102.13209 4294967194
287.4595 1745.9954 -102.76712 4294967194
293.4313 1745.3315 -102.82488 4294967194
297.41034 1744.7024 -102.99046 4294967194
299.52005 1744.5356 -102.94247 4294967194
303.46698 1744.7534 -102.35337 4294967194
305.55328 1744.4812 -102.89829 4294967194
311.21637 1744.2108 -102.35889 4294967194
313.48309 1744.153 -102.01717 4294967194
323.57581 1743.3179 -102.00391 4294967194
483.64441 1745.075 -102.3506 4294967194
285.6004 1746.0808 -102.906 4294967194
289.38867 1746.1678 -102.12995 4294967194
291.41095 1746.1038 -102.14892 4294967194
483.65384 1747.4248 -102.16454 4294967194
483.77856 1751.946 -102.60355 4294967194
479.59631 1754.4019 -102.59843 4294967194
481.66644 1753.5026 -102.50285 4294967194
422.87708 1757.7781 -102.04273 4294967194
453.09778 1756.3484 -102.74214 4294967194
459.40097 1756.3226 -102.48576 4294967194
465.67017 1756.4486 -102.21865 4294967194
471.86835 1755.8989 -102.00114 4294967194
477.64038 1755.0614 -102.49496 4294967194
384.93527 1760.7769 -102.06081 4294967194
387.28265 1760.6011 -102.13866 4294967194
389.36905 1760.2405 -102.1349 4294967194
391.63336 1760.2487 -102.07719 4294967194
395.07239 1759.8276 -102.811 4294967194
397.29041 1759.6505 -102.71268 4294967194
399.10815 1759.5493 -102.75363 4294967194
401.30948 1759.407 -102.4599 4294967194
403.51141 1759.2417 -102.1192 4294967194
405.33496 1759.0994 -102.17527 4294967194
407.31573 1759.1195 -102.13828 4294967194
411.27347 1758.7639 -102.08083 4294967194
413.52298 1758.5674 -102.0539 4294967194
415.53214 1758.4661 -102.26383 4294967194
378.94702 1761.0951 -102.11718 4294967194
381.60577 1761.0615 -102.06728 4294967194
309.22617 1766.9122 -102.12377 4294967194
311.86734 1766.7104 -102.12881 4294967194
345.3913 1765.2576 -102.95716 4294967194
351.29086 1764.8875 -102.09795 4294967194
355.45352 1764.9053 -102.12122 4294967194
279.69016 1769.4097 -102.01228 4294967194
281.42255 1769.0378 -102.00427 4294967194
285.04715 1768.7997 -102.1271 4294967194
287.79785 1768.5834 -102.0508 4294967194
289.60187 1768.4933 -102.19852 4294967194
295.51669 1768.0505 -102.10672 4294967194
298.05411 1767.877 -102.21077 4294967194
299.15448 1767.7036 -102.04489 4294967194
303.3367 1767.3345 -102.14345 4294967194
305.33075 1767.1932 -102.05537 4294967194
469.52182 1731.3969 -101.78967 4294967195
471.8273 1731.2626 -101.34951 4294967195
473.88828 1731.2546 -101.86921 4294967195
475.9614 1731.3228 -101.88453 4294967195
477.7114 1731.3398 -101.91854 4294967195
481.43671 1732.6647 -101.00745 4294967195
482.83478 1733.0443 -101.11279 4294967195
413.47067 1736.8048 -101.94556 4294967195
419.16348 1736.545 -101.44445 4294967195
421.65247 1736.2756 -101.67736 4294967195
423.75351 1736.0764 -101.75365 4294967195
425.55722 1735.9331 -101.87117 4294967195
427.26569 1735.795 -101.86935 4294967195
441.20673 1734.6895 -101.43687 4294967195
444.9505 1734.4622 -101.1999 4294967195
447.85504 1734.2233 -101.11935 4294967195
371.61816 1739.6543 -101.94891 4294967195
373.31137 1739.5724 -101.80456 4294967195
375.43213 1739.3865 -101.94859 4294967195
377.54608 1739.2607 -101.9742 4294967195
379.36755 1739.2046 -101.95589 4294967195
483.38321 1738.1012 -101.57226 4294967195
329.4003 1742.8545 -101.34682 4294967195
331.49643 1742.4822 -101.68121 4294967195
357.46631 1740.8677 -101.70777 4294967195
367.52112 1740.0758 -101.92992 4294967195
481.38495 1740.5883 -101.00006 4294967195
295.50864 1745.6833 -101.66928 4294967195
305.42133 1745.2852 -101.49776 4294967195
308.98526 1744.9778 -101.45598 4294967195
317.21317 1743.9203 -101.92594 4294967195
321.49619 1743.5862 -101.77821 4294967195
285.54822 1746.5778 -101.66572 4294967195
287.23022 1746.4944 -101.59195 4294967195
289.77328 1746.4772 -101.02218 4294967195
477.4585 1754.3197 -101.28775 4294967195
481.5903 1752.0992 -101.52908 4294967195
427.06985 1757.6395 -101.85177 4294967195
429.33163 1757.3013 -101.86567 4294967195
433.29016 1757.2699 -101.6485 4294967195
435.2995 1757.1853 -101.65892 4294967195
437.44342 1757.036 -101.90446 4294967195
439.54953 1757.0817 -101.28575 4294967195
443.46454 1756.877 -101.13012 4294967195
449.97507 1756.772 -101.01198 4294967195
463.74194 1756.5864 -101.64984 4294967195
475.60175 1755.1691 -101.91302 4294967195
417.79126 1758.1527 -101.97937 4294967195
419.05432 1758.2583 -101.67051 4294967195
369.37814 1762.2582 -101.37223 4294967195
371.34717 1762.1417 -101.76352 4294967195
315.27438 1766.2212 -101.80434 4294967195
321.54507 1766.0342 -101.68734 4294967195
325.29153 1765.8311 -101.11087 4294967195
329.02856 1765.6722 -101.23582 4294967195
332.03601 1765.3361 -101.27557 4294967195
335.78549 1764.9183 -101.46469 4294967195
337.85577 1764.6626 -101.34421 4294967195
338.90338 1764.5186 -101.17307 4294967195
341.55408 1764.4088 -101.38074 4294967195
343.36801 1764.3318 -101.20975 4294967195
347.20615 1764.674 -101.86353 4294967195
349.36435 1764.6388 -101.62675 4294967195
353.40424 1764.7494 -101.72515 4294967195
357.09952 1764.6953 -101.5945 4294967195
277.1369 1769.4664 -101.78226 4294967195
291.47076 1768.3242 -101.96394 4294967195
301.74911 1767.4603 -101.99901 4294967195
450.69757 1733.9526 -100.86838 4294967196
453.04279 1733.7189 -100.23899 4294967196
455.29474 1733.4207 -100.87545 4294967196
457.19778 1732.9225 -100.44914 4294967196
459.36755 1732.6443 -100.07796 4294967196
475.68024 1731.8853 -100.37157 4294967196
477.76804 1731.9436 -100.63589 4294967196
479.40869 1732.6354 -100.2451 4294967196
481.43802 1733.7073 -100.46538 4294967196
481.60678 1734.6674 -100.36623 4294967196
379.50873 1739.7969 -100.18259 4294967196
381.55438 1739.5294 -100.09693 4294967196
383.41229 1739.4086 -100.01834 4294967196
387.57108 1739.0956 -100.11924 4294967196
389.40527 1738.9578 -100.31294 4294967196
391.41098 1738.9492 -100.11514 4294967196
395.29413 1738.6654 -100.15282 4294967196
397.36139 1738.5187 -100.19399 4294967196
401.41455 1738.2108 -100.02808 4294967196
407.65869 1737.7448 -100.146 4294967196
481.47687 1737.6191 -100.47858 4294967196
361.25952 1741.1552 -100.01855 4294967196
363.3837 1740.9884 -100.19926 4294967196
365.58752 1740.8088 -100.39821 4294967196
367.40393 1740.7081 -100.23844 4294967196
373.51245 1740.1871 -100.14962 4294967196
303.37598 1745.5344 -100.89362 4294967196
311.427 1744.8696 -100.93968 4294967196
313.32407 1744.8771 -100.14056 4294967196
315.44119 1744.7477 -100.27689 4294967196
319.56641 1744.5773 -100.03198 4294967196
479.55136 1744.9238 -100.36414 4294967196
291.44421 1746.442 -100.67537 4294967196
293.50839 1746.4409 -100.15179 4294967196
295.70923 1746.2438 -100.01625 4294967196
299.53348 1746.0004 -100.17403 4294967196
480.06433 1750.1302 -100.15482 4294967196
481.80841 1750.1262 -100.98743 4294967196
475.63574 1754.5664 -100.77768 4294967196
447.00156 1756.9348 -100.69587 4294967196
451.40125 1756.7565 -100.86939 4294967196
453.8576 1756.531 -100.37937 4294967196
457.4079 1756.7913 -100.12376 4294967196
376.50339 1761.2822 -100.9391 4294967196
305.81699 1766.7985 -100.26103 4294967196
309.83298 1766.5 -100.1122 4294967196
311.52606 1766.3516 -100.0099 4294967196
281.61203 1768.7391 -100.02535 4294967196
285.09354 1768.3439 -100.36733 4294967196
287.63885 1768.1807 -100.06569 4294967196
291.43597 1767.8925 -100.31763 4294967196
299.73633 1767.1783 -100.51925 4294967196
301.89923 1767.1971 -100.21027 4294967196
461.62512 1732.3723 -99.818542 4294967197
463.68967 1732.0995 -99.722923 4294967197
465.61566 1732.0587 -99.565529 4294967197
467.58334 1731.931 -99.689903 4294967197
473.47159 1731.9526 -99.820854 4294967197
419.35962 1736.5646 -99.465187 4294967197
425.67984 1736.1251 -99.873566 4294967197
429.60397 1735.7841 -99.742363 4294967197
433.66647 1735.4164 -99.901649 4294967197
435.38388 1735.1914 -99.327316 4294967197
437.09915 1735.0176 -99.168762 4294967197
442.82703 1734.8035 -99.101532 4294967197
479.62216 1734.8312 -99.490295 4294967197
385.19714 1739.287 -99.933151 4294967197
399.65903 1738.3269 -99.944542 4294967197
403.25662 1738.0847 -99.805351 4294967197
409.48672 1737.5631 -99.634636 4294967197
411.7876 1737.3458 -99.806511 4294967197
415.40842 1737.0225 -99.761597 4294967197
479.58929 1738.0837 -99.685028 4294967197
371.55923 1740.3976 -99.907745 4294967197
375.39597 1740.0629 -99.822098 4294967197
325.54956 1743.8335 -99.84433 4294967197
331.53476 1743.2727 -99.861725 4294967197
477.67847 1747.3468 -99.383415 4294967197
477.64639 1751.8807 -99.660149 4294967197
473.29871 1754.6826 -99.914291 4294967197
475.69894 1753.1453 -99.459312 4294967197
427.4281 1757.9044 -99.582329 4294967197
429.58813 1757.8981 -99.153397 4294967197
433.42206 1757.7872 -99.200546 4294967197
455.98318 1756.5027 -99.54879 4294967197
459.6391 1756.7947 -99.977043 4294967197
461.64059 1756.7502 -99.611832 4294967197
463.56042 1756.4703 -99.786285 4294967197
383.41922 1760.9891 -99.407814 4294967197
385.57382 1760.7778 -99.68499 4294967197
387.07306 1760.6818 -99.522102 4294967197
389.68231 1760.4504 -99.86911 4294967197
393.55606 1760.2931 -99.222748 4294967197
395.24716 1760.1256 -99.590752 4294967197
397.40622 1759.9667 -99.671989 4294967197
399.46594 1759.8949 -99.289246 4294967197
403.84357 1759.5591 -99.64772 4294967197
407.35428 1759.2671 -99.836723 4294967197
411.48468 1759.1256 -99.006691 4294967197
415.40939 1758.7437 -99.38636 4294967197
417.39072 1758.5905 -99.477036 4294967197
421.68896 1758.361 -99.224586 4294967197
423.2103 1758.2751 -99.066925 4294967197
366.33002 1762.4618 -99.48597 4294967197
369.45209 1762.0537 -99.242004 4294967197
371.19989 1761.8818 -99.331268 4294967197
373.39801 1761.6378 -99.714996 4294967197
375.44769 1761.4686 -99.53968 4294967197
377.06198 1761.3726 -99.248367 4294967197
379.63199 1761.1592 -99.842957 4294967197
381.67841 1761.1033 -99.499954 4294967197
307.41797 1766.71 -99.776031 4294967197
313.30267 1766.1707 -99.991852 4294967197
317.41138 1765.8788 -99.501831 4294967197
333.40512 1764.8114 -99.556778 4294967197
336.14349 1764.5619 -99.85466 4294967197
341.6976 1764.1185 -99.698677 4294967197
345.35022 1764.0481 -99.219246 4294967197
349.49368 1764.0558 -99.172104 4294967197
279.17224 1768.97 -99.542831 4294967197
288.49991 1768.1305 -99.896988 4294967197
295.25592 1767.6362 -99.981339 4294967197
296.84628 1767.4655 -99.964256 4294967197
456.67767 1733.5603 -98.032738 4294967198
459.46869 1733.249 -98.059402 4294967198
469.45734 1732.5208 -98.060913 4294967198
475.65268 1732.8942 -98.654915 4294967198
477.61755 1733.8942 -98.922081 4294967198
421.44165 1736.4326 -98.987602 4294967198
423.3974 1736.2408 -98.993958 4294967198
438.94336 1734.9801 -98.985039 4294967198
440.93793 1734.9668 -98.399849 4294967198
446.76123 1734.5079 -98.440842 4294967198
449.06003 1734.186 -98.731918 4294967198
477.62183 1737.6693 -98.720207 4294967198
475.51056 1741.8374 -98.607155 4294967198
303.54327 1745.8459 -98.034935 4294967198
475.41568 1747.283 -98.499313 4294967198
475.37256 1751.9757 -98.730125 4294967198
473.66498 1753.2985 -98.55899 4294967198
431.3869 1757.8551 -98.974594 4294967198
435.56699 1757.7118 -98.927765 4294967198
437.19537 1757.7615 -98.512688 4294967198
439.71326 1757.4958 -98.986198 4294967198
441.19937 1757.485 -98.776375 4294967198
445.51901 1757.5164 -98.070129 4294967198
447.85852 1757.0991 -98.270065 4294967198
450.29001 1756.8947 -98.491348 4294967198
452.32376 1756.7136 -98.677055 4294967198
457.95093 1756.3889 -98.599327 4294967198
461.7298 1756.3181 -98.005188 4294967198
463.2803 1756.1146 -98.149536 4294967198
465.88928 1755.6971 -98.269333 4294967198
408.90973 1759.3322 -98.855202 4294967198
413.26834 1758.9919 -98.95208 4294967198
419.15872 1758.5823 -98.964767 4294967198
425.29742 1758.2227 -98.683113 4294967198
361.42215 1763.4222 -98.887756 4294967198
326.72229 1765.4392 -98.828629 4294967198
347.35596 1764.058 -98.968849 4294967198
351.84085 1764.0416 -98.941559 4294967198
355.37546 1764.0332 -98.9123 4294967198
292.1181 1768.095 -98.057327 4294967198
454.13403 1733.8362 -97.957657 4294967199
461.84586 1732.9729 -97.012627 4294967199
463.61386 1732.7424 -97.462593 4294967199
465.71231 1732.5394 -97.81176 4294967199
467.6553 1732.5586 -97.792953 4294967199
473.67398 1733.1046 -97.871193 4294967199
413.40308 1736.9218 -97.310921 4294967199
415.48633 1736.7283 -97.091293 4294967199
417.54544 1736.5544 -97.085114 4294967199
429.67331 1735.397 -97.057297 4294967199
435.38824 1735.1267 -97.057129 4294967199
437.50943 1735.0773 -97.026833 4294967199
444.44278 1734.922 -97.903564 4294967199
448.07724 1734.4556 -97.232033 4294967199
451.35284 1734.2009 -97.771492 4294967199
473.63464 1734.3057 -97.563362 4294967199
475.48087 1735.0513 -97.94838 4294967199
375.52765 1739.9933 -97.093391 4294967199
377.40942 1739.8513 -97.090744 4294967199
387.7023 1739.0582 -97.375412 4294967199
395.67969 1738.3651 -97.301826 4294967199
399.59348 1738.0087 -97.243706 4294967199
401.45435 1737.8787 -97.210625 4294967199
403.44998 1737.722 -97.056534 4294967199
405.58551 1737.5524 -97.146263 4294967199
473.39716 1737.0818 -97.069511 4294967199
475.71158 1737.8499 -97.992546 4294967199
353.57114 1741.9529 -97.999138 4294967199
363.53238 1741.0222 -97.582329 4294967199
365.30682 1740.8854 -97.503578 4294967199
367.33926 1740.7129 -97.486008 4294967199
371.6105 1740.334 -97.284935 4294967199
305.5076 1745.6622 -97.901352 4294967199
307.46707 1745.4653 -97.778 4294967199
309.20871 1745.2694 -97.818832 4294967199
311.43594 1745.1318 -97.601227 4294967199
317.41183 1744.7271 -97.49057 4294967199
319.69379 1744.6326 -97.830833 4294967199
321.46411 1744.4862 -97.706627 4294967199
323.62982 1744.2836 -97.752121 4294967199
329.43445 1743.754 -97.400803 4294967199
331.55051 1743.5925 -97.395935 4294967199
333.50272 1743.4651 -97.54921 4294967199
335.39005 1743.3241 -97.643929 4294967199
473.34238 1744.9609 -97.961906 4294967199
287.42099 1746.9528 -97.851387 4294967199
289.50626 1746.863 -97.716766 4294967199
293.4957 1746.6354 -97.396797 4294967199
297.5975 1746.4258 -97.808853 4294967199
299.23148 1746.2347 -97.48288 4294967199
471.45264 1747.1554 -97.119881 4294967199
473.54782 1747.3308 -97.816391 4294967199
473.98373 1749.8792 -97.721085 4294967199
466.63745 1753.4728 -97.271446 4294967199
454.64874 1756.2133 -97.233673 4294967199
456.52353 1756.3059 -97.943665 4294967199
460.41135 1755.8804 -97.834282 4294967199
390.04819 1760.8239 -97.27285 4294967199
354.04993 1763.7411 -97.20813 4294967199
366.96979 1762.2916 -97.364784 4294967199
371.30038 1762.0502 -97.088127 4294967199
373.45914 1761.9562 -97.071068 4294967199
379.63873 1761.5713 -97.110207 4294967199
381.91422 1761.3922 -97.211128 4294967199
311.00128 1766.8413 -97.193718 4294967199
331.47833 1765.0557 -97.223099 4294967199
333.52591 1764.8704 -97.290222 4294967199
339.26706 1764.4055 -97.275238 4294967199
343.142 1764.1121 -97.317009 4294967199
345.39554 1764.0231 -97.184258 4294967199
277.74423 1769.2341 -97.062508 4294967199
283.26733 1768.8075 -97.508781 4294967199
285.07782 1768.6968 -97.423592 4294967199
288.70258 1768.502 -97.048096 4294967199
293.44489 1768.156 -97.042152 4294967199
301.97641 1767.42 -97.548691 4294967199
307.54092 1767.099 -97.258247 4294967199
458.27005 1733.8053 -96.907944 4294967200
461.04007 1733.6663 -96.69883 4294967200
465.45087 1733.3466 -96.29454 4294967200
419.30463 1736.4305 -96.789604 4294967200
421.47394 1736.1904 -96.835251 4294967200
425.26801 1735.8822 -96.812714 4294967200
427.21796 1735.7123 -96.845833 4294967200
431.42953 1735.2646 -96.77359 4294967200
433.27261 1735.0292 -96.336868 4294967200
442.01538 1735.4203 -96.546265 4294967200
445.6481 1735.1243 -96.639473 4294967200
446.94446 1734.8925 -96.544693 4294967200
449.29947 1734.4275 -96.990204 4294967200
452.99796 1734.5165 -96.184723 4294967200
454.21948 1734.2712 -96.309006 4294967200
455.47644 1734.2063 -96.356544 4294967200
457.37564 1734.3242 -96.091576 4294967200
462.8775 1734.1705 -96.04467 4294967200
383.25439 1739.401 -96.979393 4294967200
411.50256 1737.1356 -96.905678 4294967200
469.49539 1744.9088 -96.732559 4294967200
469.54703 1747.5281 -96.467064 4294967200
467.56827 1751.0553 -96.181503 4294967200
469.56729 1749.9503 -96.219002 4294967200
471.66287 1749.7772 -96.928925 4294967200
460.30292 1754.412 -96.006966 4294967200
463.01208 1754.5852 -96.961426 4294967200
441.79688 1757.4891 -96.183098 4294967200
451.54599 1756.6282 -96.606735 4294967200
457.7565 1755.5557 -96.625832 4294967200
395.66553 1760.4449 -96.991081 4294967200
397.49692 1760.2924 -96.861061 4294967200
401.09634 1760.1123 -96.876701 4294967200
409.41028 1759.629 -96.845802 4294967200
415.09848 1759.3459 -96.490494 4294967200
419.37665 1758.9176 -96.960472 4294967200
421.19147 1758.8452 -96.723572 4294967200
423.28119 1758.6464 -96.844116 4294967200
427.26511 1758.417 -96.857239 4294967200
431.52695 1758.3259 -96.601387 4294967200
433.36972 1758.2562 -96.681435 4294967200
436.11533 1758.0752 -96.917213 4294967200
437.46024 1758.2141 -96.119644 4294967200
349.32874 1763.8494 -96.882233 4294967200
351.66119 1763.7446 -96.769302 4294967200
385.2355 1761.2211 -96.873634 4294967200
387.19608 1761.0848 -96.909843 4294967200
313.66144 1766.6366 -96.999397 4294967200
328.73898 1765.3572 -96.968895 4294967200
305.07809 1767.3546 -96.744568 4294967200
308.9566 1767.101 -96.708092 4294967200
439.26938 1735.3137 -95.886826 4294967201
443.86972 1735.9064 -95.63913 4294967201
445.90729 1736.0123 -95.099884 4294967201
448.01828 1734.9858 -95.877487 4294967201
449.71295 1735.0856 -95.584038 4294967201
451.42044 1735.1364 -95.478828 4294967201
454.50482 1735.2333 -95.059402 4294967201
456.34079 1735.0338 -95.192146 4294967201
459.84024 1734.5812 -95.931938 4294967201
463.89963 1735.7612 -95.069183 4294967201
465.30707 1734.6252 -95.239922 4294967201
467.46588 1735.7117 -95.554611 4294967201
469.33994 1736.2874 -95.932678 4294967201
397.4704 1737.9924 -95.018517 4294967201
465.32486 1739.7562 -95.141602 4294967201
339.72403 1742.8406 -95.045174 4294967201
321.6402 1744.1588 -95.079704 4294967201
325.4783 1743.8831 -95.032524 4294967201
327.46866 1743.7424 -95.05761 4294967201
465.64575 1743.4442 -95.410461 4294967201
295.34204 1746.2668 -95.029366 4294967201
464.10995 1748.5859 -95.106781 4294967201
465.63571 1747.3157 -95.38932 4294967201
467.3201 1746.9644 -95.916023 4294967201
463.80005 1751.3055 -95.515312 4294967201
465.80103 1749.6614 -95.52536 4294967201
467.90939 1749.735 -95.716599 4294967201
457.05615 1754.5905 -95.156113 4294967201
458.6261 1753.9375 -95.135933 4294967201
461.62634 1753.0267 -95.47464 4294967201
445.70813 1757.2295 -95.78817 4294967201
448.73459 1756.8846 -95.745804 4294967201
456.15543 1755.5135 -95.915688 4294967201
363.1246 1762.9515 -95.140717 4294967201
373.54474 1762.3678 -95.05793 4294967201
313.95584 1766.9141 -95.222549 4294967201
319.12766 1766.4707 -95.084549 4294967201
321.19171 1766.2882 -95.026062 4294967201
324.01505 1766.0516 -95.04557 4294967201
343.58759 1764.3834 -95.134499 4294967201
345.67709 1764.2484 -95.076698 4294967201
279.75003 1769.3936 -95.054016 4294967201
413.2709 1736.7368 -94.736382 4294967202
415.22607 1736.5457 -94.686073 4294967202
417.45953 1736.2935 -94.688332 4294967202
419.18137 1736.1414 -94.664215 4294967202
421.41931 1736.0289 -94.865463 4294967202
423.30573 1735.7874 -94.629028 4294967202
425.34131 1735.4905 -94.025833 4294967202
436.73795 1735.2563 -94.215805 4294967202
438.26715 1735.4357 -94.123245 4294967202
440.3158 1736.218 -94.275406 4294967202
441.9332 1736.4969 -94.680542 4294967202
444.21426 1736.7775 -94.646072 4294967202
447.77762 1736.0734 -94.612038 4294967202
449.2966 1736.5577 -94.185349 4294967202
450.46503 1735.7909 -94.713272 4294967202
452.67673 1735.5138 -94.906136 4294967202
453.39719 1736.4038 -94.206726 4294967202
454.7598 1736.8361 -94.01252 4294967202
456.41733 1736.6251 -94.234428 4294967202
458.06866 1735.7637 -94.823891 4294967202
459.83398 1736.5211 -94.665794 4294967202
461.82031 1736.0897 -94.984482 4294967202
465.34671 1735.5671 -94.774139 4294967202
385.41129 1739.0376 -94.923134 4294967202
387.87079 1738.8289 -94.836617 4294967202
391.5463 1738.4698 -94.895683 4294967202
395.48798 1738.1362 -94.755737 4294967202
399.27075 1737.7792 -94.455574 4294967202
401.18835 1737.6681 -94.847466 4294967202
442.83682 1737.3007 -94.151031 4294967202
446.2142 1737.1373 -94.082413 4294967202
458.40787 1737.1709 -94.226212 4294967202
459.56406 1738.8287 -94.050217 4294967202
460.93707 1737.4515 -94.443237 4294967202
461.43741 1738.5084 -94.339172 4294967202
462.09647 1737.5477 -94.559128 4294967202
463.12314 1738.2373 -94.678894 4294967202
464.77869 1737.2802 -94.928726 4294967202
353.18289 1741.7023 -94.96743 4294967202
365.42725 1740.6348 -94.943932 4294967202
369.53168 1740.3057 -94.931816 4294967202
371.2605 1740.1777 -94.71302 4294967202
460.40894 1741.0385 -94.043602 4294967202
461.49133 1741.131 -94.289642 4294967202
463.19144 1741.7877 -94.705254 4294967202
331.2746 1743.4196 -94.970055 4294967202
461.30557 1744.2784 -94.243057 4294967202
462.21091 1743.3441 -94.476067 4294967202
463.10141 1745.4896 -94.74601 4294967202
291.20093 1746.5341 -94.869583 4294967202
460.82602 1746.7207 -94.161163 4294967202
462.40732 1748.7222 -94.691414 4294967202
459.40833 1750.9623 -94.151779 4294967202
460.89899 1750.4263 -94.471039 4294967202
462.01093 1750.3507 -94.720917 4294967202
455.18378 1754.8541 -94.902016 4294967202
456.66925 1753.4153 -94.351097 4294967202
457.74545 1753.0839 -94.459503 4294967202
458.64322 1752.4626 -94.377678 4294967202
459.936 1752.8921 -94.860176 4294967202
439.73203 1757.556 -94.569313 4294967202
443.68726 1757.0118 -94.100334 4294967202
446.83313 1756.9954 -94.51062 4294967202
449.29135 1756.248 -94.055527 4294967202
450.63062 1756.3275 -94.896278 4294967202
452.69931 1755.7238 -94.996559 4294967202
395.43939 1760.8555 -94.812408 4294967202
397.33447 1760.7312 -94.606331 4294967202
403.28879 1760.401 -94.844063 4294967202
411.45309 1759.8864 -94.618675 4294967202
417.22437 1759.6638 -94.050255 4294967202
421.91507 1759.2815 -94.374039 4294967202
425.8808 1759.0383 -94.317177 4294967202
349.45288 1763.9644 -94.967239 4294967202
357.50015 1763.5427 -94.734718 4294967202
359.42169 1763.3662 -94.984749 4294967202
361.74625 1763.2166 -94.903694 4294967202
365.22311 1762.7477 -94.894516 4294967202
369.61832 1762.4873 -94.933487 4294967202
377.42151 1762.1514 -94.868401 4294967202
381.85275 1761.8239 -94.920235 4294967202
383.67642 1761.7056 -94.782837 4294967202
387.53317 1761.4302 -94.805611 4294967202
389.3884 1761.3528 -94.543182 4294967202
391.21185 1761.2205 -94.85833 4294967202
331.6279 1765.427 -94.993324 4294967202
335.03278 1765.1473 -94.958458 4294967202
347.35809 1764.1625 -94.815346 4294967202
283.78915 1769.1538 -94.85891 4294967202
289.18814 1768.8323 -94.84848 4294967202
293.96042 1768.4679 -94.928238 4294967202
305.13245 1767.6665 -94.885071 4294967202
307.38757 1767.5692 -94.706215 4294967202
311.2244 1767.2876 -94.730446 4294967202
427.40091 1735.2632 -93.856232 4294967203
429.76248 1735.0609 -93.854149 4294967203
431.47009 1734.9271 -93.809166 4294967203
434.116 1735.1809 -93.606804 4294967203
435.49237 1735.2227 -93.276802 4294967203
438.96335 1735.8081 -93.798637 4294967203
442.37741 1738.7745 -93.148918 4294967203
444.36557 1738.0641 -93.802216 4294967203
445.87463 1738.3853 -93.494781 4294967203
447.44763 1737.5764 -93.691513 4294967203
448.9122 1738.5707 -93.226982 4294967203
451.42758 1737.2347 -93.880882 4294967203
453.7869 1738.1831 -93.485214 4294967203
455.66797 1738.5408 -93.497131 4294967203
457.43057 1738.7611 -93.695381 4294967203
337.59927 1742.7445 -93.035599 4294967203
454.84512 1740.7456 -93.001648 4294967203
456.75052 1740.8738 -93.264297 4294967203
458.26505 1740.6346 -93.575668 4294967203
459.34491 1741.3672 -93.774414 4294967203
458.18097 1743.137 -93.433052 4294967203
459.30722 1745.4922 -93.72477 4294967203
460.20499 1744.0615 -93.944374 4294967203
457.57227 1746.3872 -93.327904 4294967203
459.17822 1748.2616 -93.813225 4294967203
454.71255 1751.9495 -93.13147 4294967203
457.22922 1750.7152 -93.64669 4294967203
453.33591 1753.8584 -93.478493 4294967203
455.5304 1753.1353 -93.854591 4294967203
441.28653 1756.9402 -93.390633 4294967203
445.5867 1756.833 -93.701256 4294967203
446.41495 1756.7144 -93.539238 4294967203
447.67804 1756.4944 -93.79612 4294967203
450.79904 1755.1178 -93.437485 4294967203
423.50146 1759.2544 -93.941147 4294967203
427.34396 1758.9929 -93.812073 4294967203
429.82651 1758.887 -93.773857 4294967203
431.83545 1758.84 -93.873924 4294967203
435.27594 1758.3848 -93.520851 4294967203
435.63507 1735.4718 -92.193855 4294967204
436.8588 1735.5725 -92.552055 4294967204
437.83484 1735.7433 -92.926826 4294967204
438.75409 1736.7725 -92.262268 4294967204
373.42068 1739.7825 -92.732857 4294967204
383.46051 1738.9974 -92.834251 4294967204
385.4744 1738.7526 -92.224251 4294967204
387.46744 1738.5778 -92.164902 4294967204
389.49323 1738.4384 -92.344978 4294967204
395.56311 1737.8174 -92.101997 4294967204
399.41916 1737.4264 -92.023758 4294967204
440.71213 1737.9442 -92.829376 4294967204
445.03506 1739.8823 -92.932404 4294967204
446.84479 1739.4016 -92.979622 4294967204
335.41183 1742.8765 -92.582214 4294967204
341.62051 1742.3987 -92.704277 4294967204
343.56729 1742.2603 -92.879364 4294967204
345.63782 1742.0996 -92.86692 4294967204
349.16391 1741.8309 -92.844795 4294967204
351.55594 1741.632 -92.77282 4294967204
355.23056 1741.2328 -92.617584 4294967204
441.24243 1740.1111 -92.096336 4294967204
443.15869 1740.4907 -92.582664 4294967204
444.46072 1741.5509 -92.306259 4294967204
446.05112 1741.3805 -92.345955 4294967204
448.09766 1740.9976 -92.425179 4294967204
450.37671 1740.4856 -92.65921 4294967204
452.70004 1740.4282 -92.865097 4294967204
309.56049 1744.8981 -92.705582 4294967204
315.09656 1744.3969 -92.252518 4294967204
321.49622 1743.9111 -92.687553 4294967204
325.436 1743.5781 -92.554932 4294967204
327.07642 1743.478 -92.605995 4294967204
329.58423 1743.3777 -92.947731 4294967204
331.41238 1743.2235 -92.716286 4294967204
451.7037 1743.267 -92.207214 4294967204
454.01047 1743.4532 -92.53672 4294967204
456.13821 1743.5604 -92.963661 4294967204
277.52481 1747.4635 -92.787025 4294967204
291.40231 1746.2878 -92.789543 4294967204
295.28305 1746.0703 -92.856384 4294967204
453.02655 1746.3384 -92.173691 4294967204
455.42953 1746.7122 -92.776329 4294967204
452.7597 1751.599 -92.463287 4294967204
454.24521 1749.4791 -92.593475 4294967204
449.48822 1753.385 -92.130066 4294967204
451.44528 1753.2029 -92.540176 4294967204
438.22794 1757.3351 -92.839668 4294967204
441.92578 1756.0081 -92.07547 4294967204
443.0423 1756.3621 -92.739929 4294967204
444.63086 1756.395 -92.950294 4294967204
446.108 1755.6996 -92.547485 4294967204
448.42725 1755.2679 -92.819397 4294967204
399.58926 1760.948 -92.148994 4294967204
405.77866 1760.6642 -92.157959 4294967204
362.10043 1763.3339 -92.857643 4294967204
367.17023 1763.0039 -92.573952 4294967204
369.46332 1762.8667 -92.7192 4294967204
373.48819 1762.7012 -92.868347 4294967204
379.32483 1762.5188 -92.18441 4294967204
381.60321 1762.3099 -92.44136 4294967204
384.00513 1762.0017 -92.485046 4294967204
387.38531 1761.7874 -92.197166 4294967204
389.26389 1761.6653 -92.246452 4294967204
393.48557 1761.3025 -92.658714 4294967204
395.3768 1761.2136 -92.171547 4294967204
321.52319 1766.7076 -92.704544 4294967204
323.80234 1766.4968 -92.605118 4294967204
325.60336 1766.2689 -92.987381 4294967204
328.90308 1766.0874 -92.515877 4294967204
332.99695 1765.7117 -92.78273 4294967204
347.27222 1764.5498 -92.707024 4294967204
351.33569 1764.2125 -92.594025 4294967204
285.17477 1769.4174 -92.765495 4294967204
287.4794 1769.3419 -92.859268 4294967204
289.4913 1769.1389 -92.831467 4294967204
291.46991 1769.0851 -92.364464 4294967204
294.17856 1768.8823 -92.8517 4294967204
307.91168 1767.8525 -92.807076 4294967204
309.58246 1767.762 -92.696716 4294967204
313.09811 1767.5491 -92.307396 4294967204
405.18359 1736.9882 -91.961334 4294967205
411.20181 1736.5988 -91.878517 4294967205
413.36859 1736.4032 -91.700081 4294967205
414.99792 1736.2628 -91.811371 4294967205
417.40784 1736.1453 -91.813286 4294967205
419.36002 1736.0558 -91.867935 4294967205
421.39542 1735.8054 -91.579102 4294967205
423.55157 1735.6923 -91.786453 4294967205
425.40875 1735.7196 -91.804817 4294967205
427.6626 1735.5577 -91.850395 4294967205
429.43082 1735.4425 -91.712967 4294967205
431.59866 1735.2891 -91.705177 4294967205
436.86487 1736.1897 -91.363052 4294967205
397.18707 1737.6412 -91.881744 4294967205
401.36987 1737.2252 -91.970596 4294967205
403.53479 1737.0718 -91.957451 4294967205
438.79663 1738.3613 -91.196991 4294967205
439.57843 1739.7969 -91.221558 4294967205
440.21756 1741.3401 -91.169754 4294967205
441.57922 1742.3519 -91.494514 4294967205
443.37909 1742.75 -91.803673 4294967205
442.36823 1744.0612 -91.231598 4294967205
443.84418 1744.755 -91.295372 4294967205
445.44458 1744.3649 -91.559433 4294967205
447.08224 1743.365 -91.81192 4294967205
448.13806 1745.9464 -91.441177 4294967205
449.34921 1743.2783 -91.928139 4294967205
446.47998 1748.7053 -91.021042 4294967205
449.36975 1748.7449 -91.435295 4294967205
450.6011 1746.0792 -91.728828 4294967205
451.83356 1748.9899 -91.903389 4294967205
446.30865 1751.3646 -91.049782 4294967205
448.26859 1751.2272 -91.408333 4294967205
450.59283 1751.2777 -91.852638 4294967205
443.45813 1754.9224 -91.617035 4294967205
445.22455 1754.2244 -91.567589 4294967205
446.91092 1753.4971 -91.636108 4294967205
438.55707 1756.1901 -91.146973 4294967205
440.21588 1756.1666 -91.805534 4294967205
441.34006 1755.2347 -91.270599 4294967205
401.53485 1760.8684 -91.996315 4294967205
403.31589 1760.8164 -91.74369 4294967205
409.39856 1760.5199 -91.886917 4294967205
411.55426 1760.2593 -91.954056 4294967205
413.2258 1760.0905 -91.748741 4294967205
415.41541 1760.208 -91.732849 4294967205
419.8905 1759.5946 -91.617043 4294967205
421.50726 1759.5826 -91.739647 4294967205
423.71884 1759.2065 -91.606422 4294967205
425.79889 1758.9388 -91.181229 4294967205
427.68417 1758.8608 -91.616478 4294967205
431.93256 1758.4971 -91.99321 4294967205
433.38388 1758.2781 -91.900017 4294967205
435.34961 1758.0109 -91.931236 4294967205
423.49695 1736.344 -90.076202 4294967206
427.7645 1736.054 -90.501167 4294967206
433.50415 1735.5757 -90.464806 4294967206
435.70294 1735.8088 -90.430153 4294967206
367.40787 1739.991 -90.011154 4294967206
377.38065 1739.2554 -90.124557 4294967206
437.35843 1739.1826 -90.163353 4294967206
347.60071 1741.5057 -90.065323 4294967206
349.28558 1741.3667 -90.110703 4294967206
361.86618 1740.506 -90.226196 4294967206
438.98953 1741.2767 -90.515526 4294967206
295.25305 1745.7622 -90.044601 4294967206
309.67847 1744.6017 -90.061646 4294967206
329.3476 1743.0022 -90.031174 4294967206
439.60468 1743.8939 -90.399796 4294967206
440.87503 1744.4924 -90.729416 4294967206
281.42789 1746.8494 -90.201508 4294967206
289.60422 1746.2104 -90.181 4294967206
291.34561 1746.0582 -90.15551 4294967206
439.66626 1746.4822 -90.043976 4294967206
441.22156 1748.0358 -90.215599 4294967206
442.50223 1746.9602 -90.626297 4294967206
444.24127 1746.9821 -90.893066 4294967206
441.89072 1751.7723 -90.321838 4294967206
442.37949 1749.5153 -90.315529 4294967206
443.5723 1750.6692 -90.514496 4294967206
444.1203 1749.0331 -90.615768 4294967206
445.03778 1750.4968 -90.742661 4294967206
439.46695 1754.8138 -90.595924 4294967206
441.4184 1753.8813 -90.67894 4294967206
442.77548 1753.3267 -90.804161 4294967206
444.39999 1752.5267 -90.908943 4294967206
435.49719 1757.0797 -90.324974 4294967206
437.22424 1756.1749 -90.401367 4294967206
406.2825 1760.647 -90.087013 4294967206
427.71902 1758.6073 -90.331863 4294967206
431.51947 1758.2457 -90.64222 4294967206
375.43552 1763.2029 -90.115486 4294967206
323.9996 1766.9799 -90.179504 4294967206
332.17847 1766.1266 -90.913391 4294967206
337.35098 1765.9296 -90.213272 4294967206
343.5282 1765.278 -90.539032 4294967206
347.43567 1765.0457 -90.252014 4294967206
355.71722 1764.4875 -90.136131 4294967206
287.96127 1769.5043 -90.896935 4294967206
289.43594 1769.4951 -90.258354 4294967206
291.1434 1769.413 -90.192169 4294967206
293.7468 1769.239 -90.204109 4294967206
303.51392 1768.5739 -90.126083 4294967206
305.54871 1768.3464 -90.086601 4294967206
277.74503 1770.3044 -90.13121 4294967206
279.43201 1770.1813 -90.022652 4294967206
281.18707 1770.0353 -90.114754 4294967206
413.54623 1736.8396 -89.679726 4294967207
415.19797 1736.7334 -89.601074 4294967207
417.63647 1736.5499 -89.609863 4294967207
419.03033 1736.5011 -89.725418 4294967207
431.58612 1736.4189 -89.352402 4294967207
435.42911 1736.7632 -89.537148 4294967207
369.43414 1739.8132 -89.871216 4294967207
371.47217 1739.6495 -89.89576 4294967207
373.71024 1739.6194 -89.850418 4294967207
381.54721 1738.9325 -89.759575 4294967207
383.2923 1738.9458 -89.55587 4294967207
385.41754 1738.7697 -89.717606 4294967207
387.70486 1738.459 -89.819672 4294967207
391.06281 1738.3867 -89.455887 4294967207
393.7778 1738.1302 -89.815697 4294967207
395.50928 1737.912 -89.638786 4294967207
397.59244 1737.856 -89.983849 4294967207
399.46811 1737.6393 -89.663391 4294967207
403.46552 1737.4346 -89.967598 4294967207
405.32767 1737.3915 -89.707954 4294967207
409.25003 1737.0497 -89.647514 4294967207
429.10623 1737.0157 -89.000145 4294967207
434.8446 1739.9017 -89.001137 4294967207
435.64417 1738.3171 -89.458481 4294967207
331.37 1742.9399 -89.948181 4294967207
333.39349 1742.708 -89.973518 4294967207
335.23636 1742.5431 -89.762596 4294967207
337.10886 1742.3811 -89.875923 4294967207
339.46164 1742.1859 -89.960579 4294967207
341.6619 1741.9767 -89.809067 4294967207
343.41116 1741.8282 -89.88121 4294967207
345.50757 1741.6636 -89.992455 4294967207
351.3063 1741.1824 -89.845879 4294967207
353.33936 1741.0421 -89.867584 4294967207
355.34216 1740.9358 -89.963593 4294967207
359.49054 1740.6309 -89.88517 4294967207
363.14954 1740.3784 -89.774353 4294967207
435.98911 1742.5724 -89.261581 4294967207
438.00089 1742.2484 -89.944168 4294967207
299.23215 1745.4967 -89.844894 4294967207
305.23563 1745.0271 -89.835556 4294967207
311.41852 1744.4525 -89.927925 4294967207
313.33804 1744.2825 -89.786041 4294967207
317.51105 1743.975 -89.517647 4294967207
321.64932 1743.6218 -89.745789 4294967207
323.28046 1743.3641 -89.770782 4294967207
327.21191 1743.2815 -89.878632 4294967207
436.15311 1745.0884 -89.214859 4294967207
438.00162 1744.4541 -89.763657 4294967207
279.24493 1746.964 -89.867645 4294967207
435.75516 1746.6724 -89.069656 4294967207
436.40207 1748.8671 -89.145927 4294967207
437.37372 1746.7214 -89.435364 4294967207
438.36554 1748.2588 -89.5756 4294967207
439.72446 1748.5847 -89.845604 4294967207
436.99365 1750.8773 -89.217514 4294967207
437.91425 1751.9735 -89.467484 4294967207
438.79578 1750.2972 -89.592171 4294967207
440.51642 1750.5269 -89.961395 4294967207
435.42075 1754.0503 -89.325485 4294967207
436.28482 1752.2804 -89.193855 4294967207
437.66739 1753.5878 -89.705727 4294967207
439.65833 1752.5956 -89.968582 4294967207
431.49118 1757.0201 -89.242027 4294967207
433.22772 1756.9474 -89.595711 4294967207
434.87433 1755.7043 -89.49794 4294967207
400.28955 1760.9441 -89.557518 4294967207
411.43488 1760.0876 -89.568886 4294967207
415.70267 1759.7937 -89.661064 4294967207
417.85223 1759.6003 -89.814842 4294967207
419.8681 1759.3021 -89.705772 4294967207
425.1358 1758.771 -89.909538 4294967207
363.31604 1763.9193 -89.992432 4294967207
365.505 1763.7662 -89.836212 4294967207
367.34625 1763.5844 -89.923149 4294967207
369.60706 1763.4141 -89.866058 4294967207
371.98309 1763.319 -89.847282 4294967207
373.18198 1763.2815 -89.991608 4294967207
377.68185 1762.9801 -89.398659 4294967207
381.14737 1762.7683 -89.658897 4294967207
385.60458 1762.2837 -89.8004 4294967207
387.67148 1762.1508 -89.073586 4294967207
389.70502 1761.994 -89.382545 4294967207
395.57153 1761.311 -89.063354 4294967207
397.25174 1761.1864 -89.161964 4294967207
325.75858 1766.726 -89.931854 4294967207
329.09027 1766.4867 -89.82283 4294967207
349.2243 1764.9974 -89.789406 4294967207
351.69745 1764.6675 -89.95311 4294967207
357.24442 1764.4009 -89.829529 4294967207
361.23825 1764.1769 -89.545204 4294967207
283.83777 1769.8828 -89.919807 4294967207
296.73871 1769.0392 -89.581909 4294967207
307.79587 1768.2405 -89.759705 4294967207
309.65298 1768.2694 -89.925827 4294967207
311.45117 1768.0957 -89.901451 4294967207
315.655 1767.8115 -89.932236 4294967207
319.16913 1767.4578 -89.671356 4294967207
321.01694 1767.3927 -89.785469 4294967207
375.68295 1739.8643 -88.033195 4294967208
397.4115 1738.3958 -88.089653 4294967208
399.35129 1738.2773 -88.340004 4294967208
401.4856 1738.1093 -88.480385 4294967208
403.28531 1738.0006 -88.458054 4294967208
405.5647 1737.8364 -88.498749 4294967208
411.02539 1737.5701 -88.330338 4294967208
413.39282 1737.2992 -88.568893 4294967208
417.46021 1737.0959 -88.448799 4294967208
421.64392 1737.2406 -88.44429 4294967208
423.54111 1737.2336 -88.622726 4294967208
425.47391 1737.7616 -88.282593 4294967208
427.62848 1737.7932 -88.483841 4294967208
431.27087 1737.9518 -88.489571 4294967208
432.89063 1739.6788 -88.30024 4294967208
433.19202 1737.639 -88.70475 4294967208
345.60117 1741.9766 -88.066322 4294967208
431.16705 1741.5533 -88.173561 4294967208
433.74081 1741.744 -88.647873 4294967208
303.32401 1745.4188 -88.030975 4294967208
327.36169 1743.4773 -88.110008 4294967208
433.63608 1745.1838 -88.698761 4294967208
277.67664 1747.1987 -88.145294 4294967208
431.22989 1747.46 -88.383705 4294967208
434.91626 1747.5161 -88.897141 4294967208
431.19446 1749.8132 -88.354523 4294967208
433.59592 1749.2545 -88.701775 4294967208
435.47629 1750.7498 -88.975418 4294967208
429.42212 1754.9097 -88.010818 4294967208
431.7207 1752.106 -88.440506 4294967208
432.42822 1754.8839 -88.881538 4294967208
434.14343 1752.2372 -88.867081 4294967208
425.57654 1757.5718 -88.248657 4294967208
427.90567 1757.6794 -88.859116 4294967208
429.35278 1756.7449 -88.580475 4294967208
401.5921 1760.7402 -88.691032 4294967208
403.39325 1760.6084 -88.89299 4294967208
407.64835 1759.9099 -88.092644 4294967208
409.33832 1759.8237 -88.434982 4294967208
413.57214 1759.5132 -88.504387 4294967208
415.56461 1759.3644 -88.556 4294967208
417.16153 1759.1899 -88.367546 4294967208
421.14108 1758.5648 -88.335091 4294967208
383.52008 1762.515 -88.935165 4294967208
391.66647 1761.6492 -88.89402 4294967208
345.46338 1765.0989 -88.10276 4294967208
300.34909 1768.67 -88.215034 4294967208
379.63922 1739.5574 -87.97345 4294967209
381.20822 1739.5072 -87.765213 4294967209
383.26324 1739.3304 -87.699524 4294967209
385.49686 1739.1016 -87.725769 4294967209
391.45181 1738.7421 -87.8908 4294967209
405.56021 1738.8748 -87.001907 4294967209
421.50961 1738.5635 -87.388138 4294967209
423.64084 1738.4561 -87.69265 4294967209
425.44919 1739.7014 -87.414154 4294967209
429.51077 1739.5887 -87.884026 4294967209
337.21295 1742.8113 -87.602226 4294967209
339.58569 1742.531 -87.797523 4294967209
341.69901 1742.364 -87.713928 4294967209
353.30524 1741.4901 -87.77858 4294967209
355.34778 1741.3081 -87.658722 4294967209
357.82269 1741.1195 -87.743011 4294967209
359.50363 1741.0564 -87.638756 4294967209
363.24155 1740.7843 -87.690132 4294967209
371.39365 1740.1581 -87.787117 4294967209
373.55365 1740.0375 -87.823235 4294967209
425.6163 1741.778 -87.235313 4294967209
427.41544 1741.8132 -87.288742 4294967209
297.39963 1745.7554 -87.836662 4294967209
301.5979 1745.448 -87.793777 4294967209
307.23932 1745.1832 -87.741966 4294967209
309.6994 1744.9565 -87.953339 4294967209
311.28265 1744.8668 -87.763268 4294967209
313.50873 1744.6549 -87.850166 4294967209
319.3421 1744.1167 -87.69313 4294967209
321.67477 1743.9152 -87.74015 4294967209
325.41797 1743.7112 -87.671425 4294967209
331.37247 1743.2012 -87.742233 4294967209
333.32007 1743.0847 -87.752281 4294967209
423.44583 1744.2178 -87.134392 4294967209
281.28989 1747.1313 -87.866051 4294967209
285.20682 1746.7887 -87.786797 4294967209
293.39838 1746.115 -87.784904 4294967209
429.6048 1751.6486 -87.972321 4294967209
423.93405 1754.9011 -87.218292 4294967209
427.64279 1754.8713 -87.754745 4294967209
419.27353 1757.2937 -87.050827 4294967209
421.92242 1756.1453 -87.050392 4294967209
423.37845 1757.5861 -87.786751 4294967209
425.63144 1756.1599 -87.702995 4294967209
397.81744 1760.9082 -87.658203 4294967209
399.28046 1760.7717 -87.5849 4294967209
404.90518 1760.1815 -87.998535 4294967209
411.62427 1758.7249 -87.083725 4294967209
415.60968 1758.4386 -87.233009 4294967209
417.35431 1758.4092 -87.455505 4294967209
419.66113 1758.5304 -87.950005 4294967209
363.57764 1763.83 -87.925644 4294967209
367.13495 1763.3817 -87.539215 4294967209
369.44818 1763.1512 -87.825516 4294967209
373.02869 1762.9526 -87.66497 4294967209
375.67477 1762.9009 -87.525276 4294967209
379.19336 1762.6317 -87.693672 4294967209
383.68958 1762.0822 -87.633209 4294967209
385.86514 1761.8151 -87.626801 4294967209
389.92621 1761.5972 -87.905235 4294967209
391.51868 1761.4003 -87.643791 4294967209
393.59769 1761.2667 -87.699982 4294967209
324.11118 1766.8055 -87.990791 4294967209
327.32474 1766.4561 -87.797676 4294967209
347.55112 1764.855 -87.928398 4294967209
353.28879 1764.5967 -87.849548 4294967209
355.80298 1764.3999 -87.907524 4294967209
359.48032 1764.135 -87.883385 4294967209
285.80627 1769.735 -87.025963 4294967209
289.77023 1769.5461 -87.778915 4294967209
291.25183 1769.4203 -87.264992 4294967209
294.77374 1769.0576 -87.060768 4294967209
301.59137 1768.5232 -87.762459 4294967209
307.15527 1768.2902 -87.900864 4294967209
309.63895 1768.0557 -87.909225 4294967209
313.33029 1767.7238 -87.851845 4294967209
316.96927 1767.3557 -87.504715 4294967209
319.47235 1767.2709 -87.796288 4294967209
281.39197 1770.1063 -87.016098 4294967209
383.32712 1739.8575 -86.558479 4294967210
385.54614 1739.6128 -86.683167 4294967210
387.49222 1739.5723 -86.505737 4294967210
389.34958 1739.4813 -86.573853 4294967210
391.44037 1739.4547 -86.546722 4294967210
393.97153 1739.2534 -86.86042 4294967210
395.37231 1739.5725 -86.356209 4294967210
397.47226 1739.1924 -86.937019 4294967210
399.44308 1739.1282 -86.961189 4294967210
401.40442 1739.1721 -86.866585 4294967210
403.5929 1738.957 -86.993866 4294967210
407.49878 1738.8938 -86.919136 4294967210
409.48535 1739.3364 -86.585091 4294967210
411.46686 1739.2344 -86.588913 4294967210
413.2832 1739.8153 -86.252365 4294967210
415.3764 1739.0854 -86.653793 4294967210
417.43985 1739.6429 -86.483177 4294967210
419.41046 1739.7202 -86.636452 4294967210
421.29086 1739.6949 -86.886292 4294967210
341.98389 1742.8271 -86.606644 4294967210
345.79718 1742.4926 -86.704422 4294967210
347.73792 1742.384 -86.602478 4294967210
349.22116 1742.3242 -86.538849 4294967210
351.29617 1742.1244 -86.55407 4294967210
357.49149 1741.7426 -86.216484 4294967210
361.11816 1741.4292 -86.409599 4294967210
363.32529 1741.2773 -86.492592 4294967210
365.57114 1741.0917 -86.603271 4294967210
367.47577 1740.8859 -86.711952 4294967210
369.39978 1740.8281 -86.553284 4294967210
371.40634 1740.9926 -86.109352 4294967210
375.35526 1740.3417 -86.677483 4294967210
377.29626 1740.7568 -86.114395 4294967210
379.38611 1740.6913 -86.015076 4294967210
401.33008 1740.3507 -86.017784 4294967210
405.33401 1740.3064 -86.068001 4294967210
415.20001 1741.6682 -86.010963 4294967210
417.58496 1741.5765 -86.210854 4294967210
419.32281 1741.713 -86.361458 4294967210
423.16104 1741.6792 -86.751251 4294967210
305.44458 1745.8011 -86.540596 4294967210
307.27155 1745.6937 -86.444832 4294967210
309.47263 1745.5303 -86.441628 4294967210
311.34726 1745.3683 -86.49334 4294967210
313.44931 1745.1758 -86.559036 4294967210
315.54446 1744.9452 -86.538017 4294967210
321.79446 1744.3748 -86.646751 4294967210
323.49908 1744.2545 -86.532143 4294967210
327.35757 1744.0461 -86.616547 4294967210
329.78583 1743.7943 -86.686531 4294967210
331.45966 1743.7415 -86.486389 4294967210
335.47397 1743.4078 -86.462685 4294967210
339.18314 1743.1157 -86.461754 4294967210
415.22736 1744.2698 -86.142815 4294967210
417.19528 1744.4116 -86.362015 4294967210
419.7276 1744.2053 -86.629036 4294967210
421.22781 1744.4482 -86.864182 4294967210
277.3591 1747.9359 -86.350861 4294967210
279.56827 1747.7109 -86.563042 4294967210
281.32315 1747.6022 -86.532753 4294967210
299.33466 1746.3031 -86.556007 4294967210
411.46545 1747.803 -86.084183 4294967210
413.50568 1748.9119 -86.257759 4294967210
415.65045 1746.6368 -86.398003 4294967210
417.41156 1746.8793 -86.611038 4294967210
419.37463 1747.8701 -86.856964 4294967210
417.57751 1751.3749 -86.401512 4294967210
419.49057 1751.4086 -86.678619 4294967210
417.52478 1754.8274 -86.158279 4294967210
419.74533 1754.6331 -86.301094 4294967210
421.45157 1754.7719 -86.815414 4294967210
409.39856 1757.6515 -86.049133 4294967210
411.52988 1757.3063 -86.108032 4294967210
415.73248 1756.9152 -86.228264 4294967210
417.16562 1757.0594 -86.44413 4294967210
391.81631 1760.6215 -86.219536 4294967210
399.75461 1760.1039 -86.135864 4294967210
401.45654 1760.1057 -86.69532 4294967210
403.51172 1759.4937 -86.153709 4294967210
405.33371 1759.1174 -86.41671 4294967210
407.35306 1758.9956 -86.729019 4294967210
409.34167 1758.9128 -86.980339 4294967210
355.39484 1763.8376 -86.307159 4294967210
360.64352 1763.5903 -86.472885 4294967210
365.54028 1763.2697 -86.710823 4294967210
369.74155 1762.8047 -86.411766 4294967210
373.49411 1762.5295 -86.44371 4294967210
375.68802 1762.4609 -86.352493 4294967210
379.30804 1762.1797 -86.465202 4294967210
380.73502 1761.9941 -86.395485 4294967210
319.60559 1766.9175 -86.321693 4294967210
321.84015 1766.6619 -86.648567 4294967210
323.6796 1766.4022 -86.248398 4294967210
327.57559 1766.032 -86.549767 4294967210
329.19855 1765.8514 -86.534073 4294967210
347.51425 1764.494 -86.667572 4294967210
