# .PCD v0.7 - Point Cloud Data file format
VERSION 0.7
FIELDS x y z rgba
SIZE 4 4 4 4
TYPE F F F U
COUNT 1 1 1 1
WIDTH 1148
HEIGHT 1
VIEWPOINT 0 0 0 1 0 0 0
POINTS 1148
DATA ascii
259.45834 1732.1156 -642.50885 4294966654
261.34686 1732.0502 -642.48865 4294966654
263.26883 1731.8976 -642.47107 4294966654
265.42908 1732.0394 -642.39838 4294966654
267.4411 1732.2662 -642.34338 4294966654
269.4512 1732.2238 -642.30621 4294966654
271.35547 1732.4316 -642.20758 4294966654
273.56195 1732.3177 -642.28937 4294966654
275.32486 1732.3939 -642.27856 4294966654
153.10191 1736.9893 -642.16138 4294966654
155.24094 1735.918 -642.40778 4294966654
157.52158 1734.3062 -642.49097 4294966654
159.42995 1734.4905 -642.65765 4294966654
161.29314 1734.276 -642.86542 4294966654
163.39488 1734.3391 -642.84973 4294966654
165.37396 1734.0601 -642.91522 4294966654
223.52188 1736.5302 -642.76117 4294966654
227.75954 1734.0085 -642.68469 4294966654
229.38052 1736.6779 -642.63831 4294966654
249.41776 1735.6724 -642.58319 4294966654
251.57863 1736.8444 -642.61249 4294966654
253.41017 1734.5973 -642.52747 4294966654
255.34389 1734.5569 -642.53882 4294966654
257.62704 1734.6061 -642.53693 4294966654
259.33228 1734.6799 -642.49078 4294966654
261.4707 1734.6742 -642.466 4294966654
263.45624 1734.8119 -642.49042 4294966654
267.36343 1734.8567 -642.37396 4294966654
269.56781 1734.7792 -642.43201 4294966654
273.38065 1734.8112 -642.41486 4294966654
275.50342 1734.8599 -642.36407 4294966654
151.40645 1739.2137 -642.23303 4294966654
153.60808 1739.1033 -642.80493 4294966654
154.94412 1737.916 -642.86505 4294966654
229.43399 1739.2454 -642.8045 4294966654
237.39821 1739.392 -642.79193 4294966654
239.52765 1739.6086 -642.81519 4294966654
243.53896 1739.7013 -642.84003 4294966654
245.47554 1739.6179 -642.84796 4294966654
251.47238 1739.8556 -642.94958 4294966654
253.52924 1739.9247 -642.99969 4294966654
255.64822 1737.1793 -642.72278 4294966654
257.58902 1737.1902 -642.71906 4294966654
259.38126 1737.1893 -642.69116 4294966654
261.32938 1737.2695 -642.69189 4294966654
263.62018 1737.3687 -642.68304 4294966654
265.42291 1737.4313 -642.66565 4294966654
267.50681 1737.417 -642.63196 4294966654
269.52637 1737.6451 -642.65381 4294966654
271.45004 1737.6846 -642.66846 4294966654
273.56647 1737.6576 -642.68762 4294966654
275.50558 1737.86 -642.73987 4294966654
107.59725 1742.1252 -642.04889 4294966654
109.46416 1742.2444 -642.02863 4294966654
132.22606 1741.7311 -642.11292 4294966654
146.35446 1742.8052 -642.32098 4294966654
147.98479 1741.4512 -642.06146 4294966654
150.25133 1742.3074 -642.64325 4294966654
235.49066 1742.0759 -642.9585 4294966654
239.60777 1741.9871 -642.93823 4294966654
241.51357 1742.1458 -642.93005 4294966654
243.6142 1742.6232 -642.82129 4294966654
245.31068 1742.0909 -642.83649 4294966654
247.49544 1742.0389 -642.79633 4294966654
249.3703 1742.1372 -642.8999 4294966654
253.51755 1742.0541 -642.72424 4294966654
255.4265 1742.067 -642.7309 4294966654
259.5466 1742.1399 -642.70874 4294966654
263.69324 1740.0089 -642.99353 4294966654
265.49396 1741.1072 -642.70544 4294966654
267.66718 1741.387 -642.71167 4294966654
269.45197 1740.6611 -642.74237 4294966654
271.70596 1740.767 -642.70734 4294966654
273.4068 1741.9221 -642.6012 4294966654
275.47729 1740.6978 -642.81171 4294966654
111.37541 1744.6685 -642.06702 4294966654
115.25573 1744.7234 -642.00671 4294966654
117.40646 1744.833 -642.04486 4294966654
120.58902 1744.5719 -642.09247 4294966654
123.00365 1745.3354 -642.26135 4294966654
125.39453 1745.2936 -642.37946 4294966654
127.59884 1744.7372 -642.47656 4294966654
129.31989 1744.5828 -642.63171 4294966654
130.71368 1745.322 -642.87756 4294966654
131.8075 1744.4828 -642.80768 4294966654
133.28128 1745.3582 -642.9895 4294966654
134.03011 1743.1154 -642.56622 4294966654
135.29066 1745.6815 -642.9978 4294966654
136.41579 1743.2428 -642.56836 4294966654
138.616 1743.1206 -642.5141 4294966654
140.79027 1743.1725 -642.46167 4294966654
142.8768 1743.635 -642.5603 4294966654
144.84615 1744.3499 -642.73474 4294966654
146.68982 1745.1139 -642.94098 4294966654
148.22566 1743.7501 -642.69537 4294966654
149.69698 1744.4537 -642.9754 4294966654
219.29283 1743.8553 -642.88824 4294966654
221.39052 1745.6776 -642.60901 4294966654
223.66248 1744.655 -642.74548 4294966654
225.58379 1744.5906 -642.7066 4294966654
227.33466 1744.631 -642.66852 4294966654
229.66057 1745.178 -642.44379 4294966654
231.40984 1745.162 -642.40765 4294966654
233.56717 1744.5781 -642.58569 4294966654
235.5162 1744.5452 -642.56866 4294966654
237.48444 1744.5515 -642.52161 4294966654
239.56445 1744.5176 -642.49683 4294966654
241.48735 1744.1224 -642.7522 4294966654
243.39928 1744.9493 -642.13385 4294966654
245.40041 1743.8346 -642.51575 4294966654
247.49794 1743.7151 -642.43372 4294966654
251.59702 1743.2722 -642.37158 4294966654
253.3557 1743.2798 -642.33185 4294966654
255.59927 1743.2147 -642.33325 4294966654
257.54266 1743.2864 -642.30121 4294966654
261.55115 1743.1223 -642.29041 4294966654
263.55069 1743.1125 -642.24658 4294966654
265.45474 1743.2021 -642.33008 4294966654
267.33682 1743.153 -642.31042 4294966654
269.40402 1743.0039 -642.12823 4294966654
271.4845 1743.2292 -642.08075 4294966654
99.659821 1747.1587 -642.13226 4294966654
101.52325 1746.8451 -642.14423 4294966654
111.71589 1747.2264 -642.37256 4294966654
113.35458 1746.8965 -642.30859 4294966654
117.57313 1746.9606 -642.28442 4294966654
121.56361 1747.2814 -642.40363 4294966654
123.69923 1747.1932 -642.5155 4294966654
125.0115 1747.9738 -642.62903 4294966654
126.66894 1747.7892 -642.64972 4294966654
128.2495 1747.9602 -642.80353 4294966654
129.50409 1748.0618 -642.92303 4294966654
131.34383 1748.7021 -642.9903 4294966654
191.47867 1748.9771 -642.56091 4294966654
193.34909 1748.7574 -642.54907 4294966654
195.51399 1748.9951 -642.06903 4294966654
197.35529 1748.3236 -642.48138 4294966654
199.5625 1747.1971 -642.92847 4294966654
201.43372 1747.2059 -642.8609 4294966654
203.44705 1747.0936 -642.83667 4294966654
205.57071 1747.1042 -642.76355 4294966654
210.15945 1746.0458 -642.36053 4294966654
214.21329 1746.0479 -642.28131 4294966654
217.47183 1746.9552 -642.25366 4294966654
93.438446 1751.9556 -642.33154 4294966654
95.141594 1749.488 -642.10925 4294966654
97.616692 1749.5986 -642.32666 4294966654
99.388382 1749.7014 -642.45148 4294966654
101.62188 1749.7102 -642.55328 4294966654
103.52844 1749.7784 -642.61609 4294966654
105.45637 1749.6522 -642.64417 4294966654
107.53676 1749.7838 -642.68146 4294966654
111.61243 1749.8427 -642.80304 4294966654
113.35899 1749.984 -642.83051 4294966654
115.57326 1749.8369 -642.67047 4294966654
117.43829 1749.8735 -642.70709 4294966654
119.63906 1750.1107 -642.86877 4294966654
121.56075 1749.9304 -642.74786 4294966654
123.46825 1750.16 -642.92981 4294966654
125.65285 1750.6805 -642.47986 4294966654
127.73415 1750.1316 -642.60242 4294966654
129.46684 1750.6334 -642.64099 4294966654
130.19211 1749.1238 -642.93896 4294966654
131.07014 1750.5994 -642.63513 4294966654
132.82846 1751.8375 -642.03827 4294966654
133.22227 1749.4832 -642.85632 4294966654
134.74873 1751.2356 -642.35211 4294966654
136.31966 1751.212 -642.48651 4294966654
137.44543 1750.8032 -642.79932 4294966654
139.23962 1751.2891 -642.76044 4294966654
143.6965 1750.9613 -642.8374 4294966654
145.75488 1751.5751 -642.39001 4294966654
147.46107 1751.27 -642.44965 4294966654
148.69658 1750.9805 -642.56433 4294966654
150.03156 1750.8051 -642.53021 4294966654
151.63252 1750.8558 -642.40863 4294966654
154.3243 1750.6975 -642.82318 4294966654
162.96352 1751.6545 -642.23315 4294966654
167.49112 1751.3065 -642.28113 4294966654
187.43869 1749.0875 -642.83997 4294966654
91.509636 1752.1505 -642.01923 4294966654
93.510735 1753.911 -642.00482 4294966654
95.160194 1753.8999 -642.12292 4294966654
97.581665 1753.2939 -642.39191 4294966654
99.570183 1752.849 -642.62048 4294966654
101.39392 1753.0537 -642.67554 4294966654
103.32465 1754.0704 -642.59918 4294966654
105.47002 1752.7561 -642.68103 4294966654
107.58528 1753.3213 -642.51453 4294966654
109.64091 1753.4521 -642.35925 4294966654
111.56036 1753.3899 -642.29846 4294966654
113.39857 1752.7025 -642.44293 4294966654
115.63364 1753.2268 -642.2691 4294966654
117.42012 1752.08 -642.60181 4294966654
119.50754 1752.1279 -642.61096 4294966654
121.50418 1753.2173 -642.25085 4294966654
123.44141 1753.218 -642.27264 4294966654
129.39346 1753.0225 -642.26208 4294966654
137.62164 1752.1232 -642.1452 4294966654
140.82393 1752.3114 -642.31903 4294966654
142.31421 1752.1052 -642.34137 4294966654
101.58267 1755.2092 -642.17615 4294966654
103.35235 1755.1658 -642.20868 4294966654
105.51774 1755.1321 -642.09271 4294966654
245.37691 1727.8618 -641.05139 4294966655
249.34698 1727.7679 -641.07068 4294966655
261.56482 1727.9403 -641.5791 4294966655
263.34723 1727.8109 -641.63892 4294966655
265.35153 1727.729 -641.66089 4294966655
267.20871 1727.583 -641.65002 4294966655
271.37836 1726.6501 -641.20801 4294966655
273.10846 1727.7185 -641.70746 4294966655
275.45505 1727.6219 -641.7113 4294966655
189.2645 1730.9316 -641.65436 4294966655
191.45366 1730.7657 -641.52203 4294966655
193.48892 1730.8383 -641.64478 4294966655
195.41232 1730.6235 -641.53308 4294966655
197.43684 1730.5103 -641.53302 4294966655
199.38354 1730.3896 -641.82483 4294966655
203.9227 1730.5752 -641.27374 4294966655
206.67612 1730.8041 -641.64032 4294966655
209.34943 1730.5006 -641.02173 4294966655
212.83119 1730.8744 -641.10034 4294966655
217.52927 1730.2594 -641.24597 4294966655
221.47141 1730.337 -641.89453 4294966655
225.24562 1730.27 -641.828 4294966655
227.57585 1730.0138 -641.71027 4294966655
229.43677 1730.0322 -641.76526 4294966655
231.37889 1729.9398 -641.71375 4294966655
233.4245 1729.9001 -641.74908 4294966655
237.47565 1729.6945 -641.78375 4294966655
241.46246 1729.738 -641.92773 4294966655
243.32727 1728.8131 -641.56274 4294966655
247.1387 1729.5272 -641.98376 4294966655
251.46815 1728.5205 -641.48804 4294966655
253.3623 1728.4561 -641.49084 4294966655
255.50577 1728.4547 -641.51617 4294966655
257.29291 1728.4132 -641.54291 4294966655
259.24042 1728.0679 -641.51978 4294966655
155.37633 1733.1206 -641.39417 4294966655
157.40884 1733.0322 -641.4552 4294966655
159.36775 1732.8799 -641.41797 4294966655
161.31654 1733.0156 -641.73291 4294966655
163.44655 1732.8298 -641.75879 4294966655
167.65981 1731.8904 -641.13312 4294966655
169.40953 1731.7173 -641.19678 4294966655
171.7103 1731.5211 -641.19049 4294966655
175.63387 1731.3185 -641.34308 4294966655
179.34291 1731.1624 -641.38257 4294966655
181.35835 1731.2236 -641.67523 4294966655
183.51393 1731.1423 -641.68079 4294966655
185.54153 1731.0547 -641.64075 4294966655
201.51468 1731.2865 -641.85999 4294966655
215.52654 1731.3673 -641.953 4294966655
150.95624 1736.9409 -641.29974 4294966655
151.96417 1735.655 -641.15308 4294966655
153.504 1734.9116 -641.39813 4294966655
155.17929 1734.3267 -641.77612 4294966655
97.259949 1739.5826 -641.18744 4294966655
103.08329 1739.6063 -641.5835 4294966655
105.385 1738.2311 -641.03278 4294966655
107.34475 1739.7144 -641.56354 4294966655
109.33724 1739.6832 -641.57715 4294966655
111.39516 1739.5485 -641.56464 4294966655
113.36712 1739.6654 -641.63458 4294966655
115.24785 1739.51 -641.69952 4294966655
117.25777 1737.6721 -641.01141 4294966655
119.2935 1738.6831 -641.33484 4294966655
121.30538 1737.5743 -641.12823 4294966655
125.25861 1739.8672 -641.31427 4294966655
129.62962 1739.3739 -641.04834 4294966655
131.93617 1739.5548 -641.17175 4294966655
134.27759 1739.2461 -641.0545 4294966655
147.80052 1739.3357 -641.30432 4294966655
149.44348 1738.2797 -641.32404 4294966655
91.430367 1741.7378 -641.1076 4294966655
95.178726 1741.6322 -641.57458 4294966655
97.304802 1741.7227 -641.68341 4294966655
99.40731 1741.754 -641.75018 4294966655
101.28094 1741.9259 -641.97009 4294966655
111.43849 1742.1046 -641.98206 4294966655
113.23796 1742.1514 -641.92792 4294966655
121.30196 1741.2314 -641.68176 4294966655
123.37917 1741.6442 -641.75861 4294966655
125.86724 1742.4319 -641.99371 4294966655
127.82565 1741.2123 -641.74182 4294966655
130.29889 1741.4818 -641.94446 4294966655
133.56313 1740.9463 -641.85834 4294966655
135.38947 1741.0107 -641.88031 4294966655
137.56938 1740.7778 -641.72412 4294966655
139.90526 1740.5129 -641.46613 4294966655
142.26253 1740.8726 -641.52161 4294966655
144.41272 1741.8306 -641.92615 4294966655
146.11301 1740.4451 -641.49255 4294966655
149.35779 1740.1019 -641.92456 4294966655
275.55487 1742.9287 -641.70178 4294966655
91.417358 1744.4894 -641.11212 4294966655
93.217468 1744.2452 -641.39111 4294966655
95.428085 1744.7297 -641.5152 4294966655
97.38015 1744.63 -641.74805 4294966655
99.423737 1744.58 -641.88733 4294966655
245.44206 1744.9646 -641.94025 4294966655
247.38545 1745.0842 -641.59448 4294966655
249.31503 1744.8684 -641.61237 4294966655
251.55203 1744.778 -641.50494 4294966655
253.51996 1744.8119 -641.3493 4294966655
255.11395 1744.5524 -641.54388 4294966655
257.40207 1744.5879 -641.41248 4294966655
259.37244 1744.5656 -641.30432 4294966655
261.38354 1744.4626 -641.3125 4294966655
263.61606 1744.4426 -641.36292 4294966655
267.1546 1744.2831 -641.36725 4294966655
269.65387 1744.2469 -641.12256 4294966655
91.235962 1746.7551 -641.25232 4294966655
93.364326 1746.9287 -641.53711 4294966655
95.382195 1746.879 -641.74701 4294966655
97.547836 1746.8567 -641.92267 4294966655
199.1367 1748.6659 -641.99609 4294966655
201.49748 1748.598 -641.79742 4294966655
205.29269 1748.5244 -641.57111 4294966655
207.24319 1748.3091 -641.75232 4294966655
209.83923 1748.5647 -641.06488 4294966655
211.39209 1748.4028 -641.22266 4294966655
217.40317 1747.9939 -641.11554 4294966655
221.3445 1747.115 -641.63721 4294966655
223.38359 1746.7916 -641.70532 4294966655
225.51907 1746.7042 -641.6134 4294966655
227.58682 1746.7319 -641.43085 4294966655
229.29698 1746.6044 -641.49945 4294966655
231.21707 1746.576 -641.39117 4294966655
233.33296 1746.4226 -641.44421 4294966655
235.59386 1746.452 -641.20294 4294966655
237.44437 1746.34 -641.44232 4294966655
239.57309 1746.3345 -641.29242 4294966655
241.34966 1746.2045 -641.33295 4294966655
243.26685 1746.0488 -641.04382 4294966655
87.461014 1749.5046 -641.08331 4294966655
89.275543 1749.4148 -641.39301 4294966655
93.410698 1749.4061 -641.9314 4294966655
153.70613 1751.7684 -641.9751 4294966655
181.48933 1750.7017 -641.33185 4294966655
183.59993 1750.6858 -641.33453 4294966655
185.7133 1750.4465 -641.20081 4294966655
187.43669 1750.2386 -641.35699 4294966655
189.54401 1750.1085 -641.33221 4294966655
193.52406 1749.8184 -641.21997 4294966655
197.56911 1749.467 -641.10852 4294966655
85.530319 1753.4587 -641.18799 4294966655
89.445297 1752.6093 -641.97668 4294966655
91.363457 1753.925 -641.81885 4294966655
109.47179 1754.8606 -641.66809 4294966655
111.512 1754.6936 -641.66711 4294966655
113.24403 1754.661 -641.54425 4294966655
115.65984 1754.7231 -641.35535 4294966655
117.81824 1754.702 -641.29791 4294966655
119.63797 1754.6925 -641.24377 4294966655
123.32127 1754.4844 -641.35382 4294966655
125.67924 1754.3912 -641.33191 4294966655
127.82062 1752.9216 -641.80725 4294966655
129.54776 1754.3634 -641.28363 4294966655
130.85745 1752.7863 -641.78247 4294966655
134.2879 1752.7122 -641.39154 4294966655
135.94676 1752.5155 -641.61151 4294966655
139.31337 1752.7819 -641.71509 4294966655
140.68297 1753.1475 -641.47711 4294966655
141.8111 1752.9006 -641.74689 4294966655
143.58287 1752.8838 -641.08472 4294966655
149.174 1752.2323 -641.0033 4294966655
155.41234 1752.6764 -641.33521 4294966655
157.31938 1752.2084 -641.99152 4294966655
159.47653 1752.4022 -641.12329 4294966655
161.49895 1752.1211 -641.33032 4294966655
165.5397 1752.08 -641.1756 4294966655
89.446785 1755.1377 -641.23901 4294966655
91.432983 1755.402 -641.23767 4294966655
93.4142 1755.1168 -641.48737 4294966655
95.326477 1755.3865 -641.4082 4294966655
97.512749 1755.2828 -641.61554 4294966655
99.562981 1756.0518 -641.01202 4294966655
103.11958 1755.8459 -641.62042 4294966655
105.17771 1755.8461 -641.19275 4294966655
107.28104 1755.1533 -641.64435 4294966655
241.48523 1727.9221 -640.80298 4294966656
247.54102 1727.4971 -640.73083 4294966656
251.32001 1726.95 -640.1994 4294966656
253.55592 1727.1804 -640.56726 4294966656
255.52519 1727.0356 -640.53687 4294966656
257.32254 1726.9573 -640.5694 4294966656
261.49582 1726.6876 -640.71057 4294966656
263.44159 1726.6406 -640.85254 4294966656
266.04758 1726.1405 -640.6322 4294966656
267.44186 1726.4373 -640.953 4294966656
269.48764 1726.2229 -640.79669 4294966656
273.44131 1726.165 -640.86603 4294966656
275.56729 1726.0908 -640.85968 4294966656
175.50235 1730.9155 -640.11133 4294966656
177.29886 1730.8213 -640.14862 4294966656
179.3539 1730.6873 -640.06537 4294966656
181.53702 1730.557 -640.09052 4294966656
183.60014 1730.4313 -640.02686 4294966656
185.49258 1730.3365 -640.0271 4294966656
187.22023 1730.2611 -640.0769 4294966656
201.25427 1729.2919 -640.11401 4294966656
205.67824 1729.668 -640.33698 4294966656
207.59764 1729.7808 -640.55267 4294966656
215.49066 1729.8391 -640.3443 4294966656
219.44617 1729.17 -640.89478 4294966656
221.58388 1729.1056 -640.91663 4294966656
223.41116 1729.0641 -640.94525 4294966656
225.34785 1729.0222 -640.953 4294966656
227.53722 1728.8289 -640.83978 4294966656
229.35571 1728.8708 -640.94415 4294966656
231.52559 1728.7451 -640.89838 4294966656
233.41858 1728.5735 -640.82343 4294966656
235.3206 1728.5796 -640.93292 4294966656
237.5372 1728.3701 -640.90576 4294966656
239.42674 1728.2358 -640.90173 4294966656
152.90712 1733.8397 -640.10498 4294966656
154.32225 1733.5588 -640.77783 4294966656
169.52556 1731.3075 -640.06744 4294966656
171.64987 1731.1606 -640.07336 4294966656
111.46988 1736.6422 -640.29108 4294966656
113.59534 1736.3956 -640.35443 4294966656
115.41462 1736.5457 -640.3053 4294966656
117.47676 1736.3496 -640.23706 4294966656
121.36454 1736.5515 -640.51294 4294966656
149.36819 1736.7507 -640.53516 4294966656
152.02229 1734.6516 -640.51776 4294966656
89.311226 1739.8237 -640.23328 4294966656
93.232964 1739.6132 -640.79102 4294966656
95.573067 1738.4404 -640.47113 4294966656
97.554665 1738.3933 -640.61639 4294966656
99.359413 1738.449 -640.75891 4294966656
101.56604 1738.4347 -640.8277 4294966656
109.34837 1737.8671 -640.95404 4294966656
111.34875 1737.7015 -640.95636 4294966656
113.38861 1737.6727 -640.98474 4294966656
123.13419 1738.0172 -640.8421 4294966656
125.37882 1737.1193 -640.01801 4294966656
127.53204 1738.4237 -640.51923 4294966656
130.73358 1738.4856 -640.57678 4294966656
131.55141 1737.871 -640.13251 4294966656
133.18188 1737.7919 -640.07037 4294966656
136.36894 1738.9034 -640.8631 4294966656
138.60881 1738.4319 -640.46436 4294966656
144.11324 1739.2289 -640.79547 4294966656
146.10272 1738.3002 -640.51941 4294966656
147.88527 1737.5107 -640.47339 4294966656
85.088737 1741.5498 -640.10394 4294966656
87.223343 1741.6654 -640.48254 4294966656
89.256363 1741.6189 -640.66772 4294966656
85.390465 1744.4398 -640.21234 4294966656
87.422356 1744.3462 -640.5531 4294966656
89.271461 1744.3484 -640.85291 4294966656
264.94223 1744.9099 -640.10529 4294966656
267.48776 1744.7751 -640.08795 4294966656
269.59171 1744.5981 -640.13684 4294966656
273.38885 1744.0052 -640.89752 4294966656
275.54779 1744.1139 -640.00745 4294966656
85.331779 1746.8678 -640.31329 4294966656
87.533195 1746.8173 -640.70801 4294966656
211.48543 1748.9098 -640.05127 4294966656
227.41707 1747.5842 -640.04266 4294966656
229.29128 1747.4968 -640.01282 4294966656
241.46416 1746.6533 -640.1626 4294966656
243.241 1746.5085 -640.12848 4294966656
245.58994 1746.0682 -640.88916 4294966656
83.149536 1749.3381 -640.16895 4294966656
85.482292 1749.4591 -640.68927 4294966656
187.34071 1750.7422 -640.10364 4294966656
189.69287 1750.6147 -640.07269 4294966656
191.77028 1750.4633 -640.00763 4294966656
197.64133 1749.933 -640.10077 4294966656
205.35727 1749.3115 -640.01019 4294966656
209.52614 1749.0546 -640.00336 4294966656
81.39801 1753.1244 -640.22791 4294966656
83.192055 1754.3265 -640.71417 4294966656
127.51974 1754.9258 -640.17206 4294966656
129.35455 1754.7883 -640.19415 4294966656
130.76108 1754.0444 -640.75006 4294966656
132.61615 1753.5588 -640.57678 4294966656
137.61134 1753.3038 -640.75769 4294966656
139.87192 1753.6592 -640.22723 4294966656
141.56383 1753.397 -640.93994 4294966656
146.45016 1752.6711 -640.91827 4294966656
151.59741 1752.6682 -640.02533 4294966656
153.26469 1752.4348 -640.77234 4294966656
83.629608 1755.2119 -640.32074 4294966656
87.319778 1755.7345 -640.71912 4294966656
89.636589 1756.2968 -640.5661 4294966656
107.30882 1756.1436 -640.07581 4294966656
109.62772 1755.9021 -640.2027 4294966656
111.58278 1755.8348 -640.00037 4294966656
119.35219 1755.3837 -640.0647 4294966656
123.26238 1755.1852 -640.05585 4294966656
275.52338 1724.8201 -639.17242 4294966657
225.82909 1727.9647 -639.20703 4294966657
227.31531 1727.9268 -639.34296 4294966657
229.65485 1727.7517 -639.15228 4294966657
231.34904 1727.7197 -639.26953 4294966657
233.37999 1727.6141 -639.29425 4294966657
235.55301 1727.447 -639.18903 4294966657
237.50536 1727.3438 -639.3031 4294966657
239.51489 1727.1587 -639.24164 4294966657
241.46367 1727.0153 -639.30103 4294966657
243.39554 1726.7426 -639.33826 4294966657
245.42506 1726.5924 -639.31207 4294966657
247.34973 1726.5652 -639.15588 4294966657
249.32031 1726.4933 -639.25415 4294966657
253.52713 1726.2344 -639.21057 4294966657
259.50552 1725.8298 -639.1886 4294966657
261.444 1725.707 -639.26447 4294966657
263.21027 1725.568 -639.22192 4294966657
265.30521 1725.4559 -639.28632 4294966657
269.46045 1725.2007 -639.24237 4294966657
273.34354 1725.054 -639.44177 4294966657
191.59639 1730 -639.94531 4294966657
193.26361 1729.9283 -639.8595 4294966657
195.38885 1729.8103 -639.91498 4294966657
197.46584 1729.708 -639.99994 4294966657
203.30632 1729.0518 -639.37732 4294966657
207.50414 1729.0238 -639.75739 4294966657
208.76962 1729.2963 -639.36224 4294966657
217.34895 1728.3765 -639.27014 4294966657
219.55968 1728.4016 -639.29791 4294966657
221.38037 1728.2979 -639.39752 4294966657
223.40155 1728.1753 -639.36743 4294966657
153.96364 1733.0603 -639.51398 4294966657
155.26738 1732.4445 -639.98071 4294966657
157.47717 1732.2589 -639.90607 4294966657
159.17896 1732.197 -639.90234 4294966657
161.37912 1732.0299 -639.81641 4294966657
163.37952 1731.8573 -639.83453 4294966657
165.42244 1731.6779 -639.89075 4294966657
101.37485 1736.8931 -639.64557 4294966657
105.3345 1736.6234 -639.87054 4294966657
109.76876 1736.101 -639.7168 4294966657
111.98094 1735.6749 -639.06366 4294966657
115.29224 1735.5951 -639.20752 4294966657
117.5106 1735.4351 -639.11072 4294966657
119.44868 1735.3324 -639.06628 4294966657
121.37375 1735.4211 -639.46704 4294966657
123.6901 1735.3376 -639.50696 4294966657
139.01956 1736.7135 -639.16882 4294966657
146.41635 1736.5251 -639.44556 4294966657
148.24751 1735.9918 -639.58191 4294966657
150.35213 1735.1613 -639.81976 4294966657
151.66368 1734.1118 -639.58911 4294966657
87.19458 1739.7804 -639.85651 4294966657
89.44249 1738.2053 -639.34003 4294966657
91.444115 1737.9579 -639.53308 4294966657
93.313889 1737.2944 -639.22217 4294966657
95.426147 1737.0895 -639.28308 4294966657
97.526733 1737.1249 -639.58527 4294966657
99.489494 1737.049 -639.64978 4294966657
129.77748 1737.4443 -639.79089 4294966657
135.15132 1737.5299 -639.93085 4294966657
137.1149 1737.1033 -639.56409 4294966657
141.47751 1737.5879 -639.71167 4294966657
144.35907 1737.0375 -639.48407 4294966657
81.426094 1741.7465 -639.19159 4294966657
83.428574 1740.8279 -639.36218 4294966657
81.41922 1744.0973 -639.46228 4294966657
83.231377 1744.1558 -639.83557 4294966657
251.62526 1745.8572 -639.88239 4294966657
255.29251 1745.6417 -639.88007 4294966657
257.43771 1745.4795 -639.93091 4294966657
261.33136 1745.1909 -639.98785 4294966657
81.276169 1746.8231 -639.47919 4294966657
83.159851 1746.9215 -639.88873 4294966657
221.45064 1748.0978 -639.96277 4294966657
231.24426 1747.3829 -639.99066 4294966657
233.466 1747.2214 -639.98749 4294966657
235.41525 1747.0991 -639.95288 4294966657
245.77834 1746.3466 -639.94104 4294966657
247.30394 1746.1866 -639.99268 4294966657
249.2946 1746.038 -639.91309 4294966657
75.324272 1751.9786 -639.13672 4294966657
77.307861 1750.5817 -639.21936 4294966657
185.67963 1750.9059 -639.9989 4294966657
195.53578 1750.1874 -639.95575 4294966657
199.37468 1750.0044 -639.96564 4294966657
207.34128 1749.2462 -639.86829 4294966657
75.151512 1754.0597 -639.21442 4294966657
77.544495 1754.2225 -639.56805 4294966657
79.312386 1753.0837 -639.88672 4294966657
131.02858 1754.4934 -639.5874 4294966657
135.20949 1753.7524 -639.81561 4294966657
141.74979 1753.7386 -639.74689 4294966657
145.17094 1753.5577 -639.43225 4294966657
157.36768 1753.0819 -639.85901 4294966657
161.70474 1752.6882 -639.7923 4294966657
163.58534 1752.6661 -639.66217 4294966657
165.46765 1752.5608 -639.89899 4294966657
167.30745 1752.4246 -639.84119 4294966657
79.409004 1755.5895 -639.5191 4294966657
81.425735 1755.9781 -639.5152 4294966657
83.541443 1756.7114 -639.39288 4294966657
85.303253 1756.8303 -639.71136 4294966657
87.526794 1757.2308 -639.19104 4294966657
89.495499 1757.1831 -639.33173 4294966657
91.949669 1756.946 -639.47473 4294966657
93.447914 1756.7997 -639.66626 4294966657
95.311287 1756.649 -639.79578 4294966657
99.603477 1756.5759 -639.95508 4294966657
113.11776 1755.7936 -639.78564 4294966657
115.55871 1755.6711 -639.85596 4294966657
269.46957 1724.8325 -638.05872 4294966658
271.40964 1724.7125 -638.02625 4294966658
273.63547 1724.587 -638.03033 4294966658
275.21634 1724.4811 -638.01959 4294966658
223.31381 1727.7914 -638.05536 4294966658
237.46718 1726.9545 -638.05829 4294966658
241.51555 1726.616 -638.09991 4294966658
243.23581 1726.4684 -638.05811 4294966658
245.52106 1726.2898 -638.01581 4294966658
265.35028 1725.0828 -638.11591 4294966658
171.39383 1730.9673 -638.12921 4294966658
173.29936 1730.8593 -638.00323 4294966658
175.36235 1730.7354 -638.04309 4294966658
179.11238 1730.344 -638.13483 4294966658
181.4787 1730.3224 -638.0296 4294966658
185.40895 1729.9327 -638.15582 4294966658
187.32748 1729.8467 -638.21307 4294966658
189.50903 1729.7466 -638.17627 4294966658
191.56656 1729.566 -638.16522 4294966658
193.2079 1729.658 -638.10608 4294966658
197.3886 1729.4781 -638.78375 4294966658
199.24323 1729.3737 -638.81384 4294966658
201.41116 1729.2246 -638.90991 4294966658
205.19456 1728.9818 -638.67401 4294966658
210.99414 1729.3905 -638.78827 4294966658
152.30847 1733.3545 -638.21869 4294966658
155.22868 1732.5144 -638.15717 4294966658
159.17149 1731.7238 -638.11658 4294966658
161.24361 1731.6003 -638.0174 4294966658
165.33717 1731.2761 -638.0976 4294966658
105.19805 1735.8895 -638.58569 4294966658
109.56586 1735.4873 -638.01062 4294966658
111.64269 1735.3505 -638.05493 4294966658
115.43617 1735.1289 -638.02399 4294966658
125.13182 1735.562 -638.77576 4294966658
127.38522 1736.077 -638.54236 4294966658
129.85986 1735.9679 -638.23645 4294966658
131.83839 1736.5031 -638.84918 4294966658
134.05266 1736.3801 -638.80853 4294966658
135.80534 1736.2511 -638.71344 4294966658
139.97328 1735.886 -638.19 4294966658
143.02499 1735.8943 -638.27094 4294966658
147.04901 1735.3381 -638.48859 4294966658
148.53166 1734.8936 -638.52795 4294966658
151.01447 1734.0459 -638.89026 4294966658
85.428581 1738.5724 -638.70001 4294966658
87.467079 1738.2012 -638.89124 4294966658
79.235481 1741.7843 -638.64398 4294966658
77.19754 1744.2742 -638.57892 4294966658
257.47275 1745.9524 -638.0625 4294966658
259.4819 1745.8131 -638.0249 4294966658
261.63205 1745.6525 -638.03662 4294966658
263.39819 1745.4966 -638.27551 4294966658
267.29413 1745.0933 -638.74146 4294966658
269.56494 1745.042 -638.26746 4294966658
271.55804 1744.9231 -638.10052 4294966658
275.55392 1744.5939 -638.20947 4294966658
219.59073 1748.8397 -638.07355 4294966658
221.49736 1748.6967 -638.03601 4294966658
227.45753 1748.2716 -638.0954 4294966658
229.2933 1747.9935 -638.06085 4294966658
233.30896 1747.7009 -638.04883 4294966658
237.40695 1747.5276 -638.22839 4294966658
239.485 1747.3948 -638.18719 4294966658
241.47253 1747.1492 -638.09198 4294966658
243.44179 1746.963 -638.19818 4294966658
245.63528 1746.7911 -638.14471 4294966658
247.47762 1746.6559 -638.11017 4294966658
249.36778 1746.5205 -638.09589 4294966658
253.66176 1746.396 -638.07581 4294966658
255.39949 1746.1321 -638.01398 4294966658
71.636955 1751.8676 -638.4743 4294966658
195.29404 1750.6857 -638.08258 4294966658
203.55092 1750.0002 -638.19019 4294966658
215.39127 1749.1621 -638.19348 4294966658
65.544464 1754.7108 -638.07312 4294966658
67.494644 1754.6071 -638.11243 4294966658
69.290977 1754.7628 -638.36823 4294966658
73.469139 1754.9664 -638.97211 4294966658
132.7084 1754.5925 -638.03442 4294966658
137.66373 1754.13 -638.60858 4294966658
143.127 1753.9774 -638.19965 4294966658
145.32817 1754.2616 -638.1131 4294966658
146.84908 1753.5549 -638.32428 4294966658
67.482544 1755.8989 -638.00531 4294966658
71.287262 1756.1475 -638.38147 4294966658
73.671555 1756.976 -638.55017 4294966658
75.472481 1756.6724 -638.62823 4294966658
77.502594 1756.6138 -638.79572 4294966658
79.52803 1756.6489 -638.93231 4294966658
85.163399 1757.7299 -638.00439 4294966658
88.961067 1757.6807 -638.26782 4294966658
91.72197 1757.4873 -638.21558 4294966658
93.353149 1757.3885 -638.08197 4294966658
95.362968 1757.2018 -638.19299 4294966658
97.282013 1757.1091 -638.20215 4294966658
99.328545 1757.0131 -638.35071 4294966658
101.55193 1756.843 -638.97321 4294966658
103.31675 1756.7758 -638.74615 4294966658
105.66129 1756.5922 -638.89148 4294966658
107.35236 1756.4283 -638.99811 4294966658
109.62228 1756.3162 -638.63916 4294966658
111.5605 1756.4788 -638.09631 4294966658
113.48825 1756.3816 -638.12988 4294966658
117.36945 1755.9913 -638.15277 4294966658
119.23494 1756.0508 -638.32471 4294966658
121.54041 1755.7582 -638.03906 4294966658
123.21012 1755.7748 -638.24921 4294966658
125.42296 1755.4918 -638.16394 4294966658
127.38638 1755.3668 -638.1897 4294966658
129.29358 1755.2496 -638.12384 4294966658
225.69807 1727.6122 -637.97095 4294966659
227.37149 1727.5305 -637.99353 4294966659
229.29558 1727.4307 -637.99438 4294966659
247.42113 1726.1462 -637.90924 4294966659
249.17542 1726.0967 -637.96252 4294966659
251.46848 1725.9203 -637.97089 4294966659
253.52342 1725.777 -637.99084 4294966659
255.39897 1725.6744 -637.9848 4294966659
259.47076 1725.4236 -637.94177 4294966659
261.37378 1725.2999 -637.94501 4294966659
177.43004 1730.5903 -637.99469 4294966659
207.5266 1728.8069 -637.93628 4294966659
209.49515 1728.7109 -637.75604 4294966659
214.425 1728.9835 -637.65704 4294966659
217.24713 1728.2371 -637.70392 4294966659
219.54375 1728.0461 -637.93152 4294966659
149.87976 1733.995 -637.71655 4294966659
167.60301 1731.1052 -637.95477 4294966659
169.55827 1731.1549 -637.89728 4294966659
91.288506 1736.9674 -637.82135 4294966659
93.255188 1736.7512 -637.91925 4294966659
95.422913 1736.4248 -637.99036 4294966659
99.379868 1736.2549 -637.91522 4294966659
101.38395 1736.09 -637.82172 4294966659
107.58131 1735.6185 -637.92407 4294966659
113.51897 1735.1217 -637.98999 4294966659
119.18896 1734.9467 -637.97705 4294966659
121.57304 1734.7964 -637.95288 4294966659
123.69875 1734.6403 -637.94299 4294966659
125.3833 1735.0332 -637.47052 4294966659
133.09602 1735.5068 -637.61908 4294966659
135.04192 1735.1372 -637.03223 4294966659
137.67587 1735.6354 -637.88837 4294966659
141.451 1735.6123 -637.78699 4294966659
145.00032 1735.2975 -637.86456 4294966659
81.406441 1738.8604 -637.81189 4294966659
83.223175 1737.8575 -637.17157 4294966659
85.1744 1737.5952 -637.22797 4294966659
89.427376 1737.1996 -637.74646 4294966659
73.220642 1742.0596 -637.40338 4294966659
75.29998 1742.0703 -637.85089 4294966659
77.462097 1740.4589 -637.76355 4294966659
71.20121 1743.9991 -637.42175 4294966659
265.09879 1745.5309 -637.98004 4294966659
69.339554 1747.7944 -637.43091 4294966659
73.332306 1746.6787 -637.9024 4294966659
217.62885 1748.891 -637.79407 4294966659
223.45619 1748.5404 -637.98535 4294966659
231.37691 1747.8495 -637.98627 4294966659
63.324009 1751.436 -637.19141 4294966659
65.412323 1751.4357 -637.49298 4294966659
67.400703 1751.5721 -637.79388 4294966659
183.33998 1751.5649 -637.92883 4294966659
187.49789 1751.2133 -637.79236 4294966659
189.58771 1750.947 -637.8913 4294966659
193.5491 1750.6924 -637.86243 4294966659
205.4249 1749.8732 -637.91028 4294966659
207.10167 1749.7622 -637.90167 4294966659
209.62448 1749.6006 -637.83295 4294966659
213.62831 1749.1588 -637.91235 4294966659
59.418781 1754.637 -637.17572 4294966659
61.633373 1754.6328 -637.50867 4294966659
63.463894 1754.67 -637.74072 4294966659
135.35118 1754.5564 -637.14929 4294966659
140.3051 1754.1823 -637.98218 4294966659
149.99338 1753.3762 -637.93134 4294966659
153.54758 1753.6971 -637.43164 4294966659
155.51308 1753.515 -637.44104 4294966659
159.19141 1753.2191 -637.6145 4294966659
163.22726 1753.0531 -637.78253 4294966659
165.46533 1752.8706 -637.78552 4294966659
167.47972 1752.8226 -637.68408 4294966659
171.40935 1752.4918 -637.74841 4294966659
63.637188 1757.2463 -637.23462 4294966659
65.483376 1755.8749 -637.75403 4294966659
67.473999 1757.1686 -637.59521 4294966659
69.525467 1757.4246 -637.51025 4294966659
73.324265 1757.9851 -637.33936 4294966659
77.226913 1757.8632 -637.34076 4294966659
80.21257 1757.7078 -637.40027 4294966659
81.550636 1757.6884 -637.61206 4294966659
83.286369 1757.677 -637.85303 4294966659
115.59157 1756.1132 -637.99451 4294966659
87.452599 1736.8788 -636.21826 4294966660
91.382896 1736.6813 -636.0423 4294966660
95.460503 1736.2588 -636.01758 4294966660
97.456879 1736.0873 -636.15613 4294966660
99.658257 1735.7987 -636.0083 4294966660
103.30191 1735.5695 -636.0791 4294966660
105.172 1735.5233 -636.02344 4294966660
107.43597 1735.5446 -636.06732 4294966660
109.52867 1735.2295 -636.12701 4294966660
111.57767 1735.2035 -636.07843 4294966660
115.33132 1734.9191 -636.07123 4294966660
117.38868 1734.6753 -636.04608 4294966660
129.00822 1735.2174 -636.90173 4294966660
131.30246 1735.1254 -636.69025 4294966660
133.23688 1734.8651 -636.42761 4294966660
139.71806 1734.8644 -636.46252 4294966660
142.48398 1734.6709 -636.23822 4294966660
144.83699 1734.3066 -636.03796 4294966660
147.19023 1734.288 -636.85846 4294966660
77.628914 1738.9122 -636.65192 4294966660
85.072266 1737.2338 -636.05463 4294966660
65.140236 1741.658 -636.31854 4294966660
67.479263 1741.5873 -636.48566 4294966660
69.393211 1741.8772 -636.75342 4294966660
73.388794 1740.5839 -636.78809 4294966660
59.333672 1743.5795 -636.27484 4294966660
61.458199 1743.7629 -636.5379 4294966660
65.237839 1743.8534 -636.82739 4294966660
67.422691 1743.9114 -636.94238 4294966660
61.359253 1747.4961 -636.50702 4294966660
63.337967 1746.541 -636.66437 4294966660
65.132111 1746.6527 -636.85095 4294966660
57.267048 1751.4207 -636.18445 4294966660
61.301327 1751.1312 -636.82391 4294966660
53.623302 1754.7847 -636.11786 4294966660
55.283318 1754.576 -636.40991 4294966660
57.586929 1754.7444 -636.84619 4294966660
61.518692 1757.49 -636.88733 4294966660
65.404305 1757.5923 -636.99054 4294966660
91.668732 1757.9673 -636.00195 4294966660
95.331009 1757.5658 -636.09235 4294966660
71.386497 1758.1449 -636.96527 4294966660
75.351898 1758.4824 -636.25159 4294966660
76.922058 1758.4436 -636.04907 4294966660
83.254799 1758.2208 -636.06342 4294966660
85.123131 1758.205 -636.08966 4294966660
87.058586 1758.3367 -636.27942 4294966660
88.884239 1758.2281 -636.05951 4294966660
263.32202 1724.9594 -635.86334 4294966661
265.5571 1724.9099 -635.87872 4294966661
267.39331 1724.8101 -635.9881 4294966661
269.44553 1724.5823 -635.89862 4294966661
271.11359 1724.4722 -635.94312 4294966661
275.28049 1724.2886 -635.99146 4294966661
221.1834 1727.8215 -635.7486 4294966661
223.46246 1727.6262 -635.7207 4294966661
225.40443 1727.5615 -635.909 4294966661
227.6066 1727.4154 -635.85852 4294966661
229.4196 1727.1776 -635.92358 4294966661
231.32533 1727.0878 -635.97266 4294966661
235.52972 1726.8466 -635.81732 4294966661
239.15735 1726.5778 -635.84839 4294966661
241.51154 1726.5428 -635.86481 4294966661
243.36874 1726.3484 -635.90845 4294966661
249.20259 1725.9846 -635.82935 4294966661
251.56355 1725.6825 -635.81067 4294966661
253.34338 1725.674 -635.88574 4294966661
255.27078 1725.5692 -635.87567 4294966661
257.40695 1725.4208 -635.8446 4294966661
259.19553 1725.3344 -635.93347 4294966661
261.17648 1725.058 -635.94769 4294966661
177.29382 1730.8801 -635.414 4294966661
179.40053 1730.8044 -635.02527 4294966661
183.25191 1730.5131 -635.06689 4294966661
185.17184 1730.296 -635.66425 4294966661
187.39697 1730.193 -635.39893 4294966661
191.46603 1729.8898 -635.66846 4294966661
195.37465 1729.7145 -635.44226 4294966661
197.30003 1729.6299 -635.3092 4294966661
199.18018 1729.4866 -635.53613 4294966661
201.47389 1729.3552 -635.44952 4294966661
203.23172 1729.2352 -635.5296 4294966661
205.37616 1729.0879 -635.56866 4294966661
207.36687 1728.9506 -635.52325 4294966661
211.10828 1728.7026 -635.37494 4294966661
217.31334 1728.215 -635.38617 4294966661
219.36244 1728.0084 -635.59229 4294966661
148.89656 1733.6619 -635.75989 4294966661
150.85107 1733.3229 -635.68536 4294966661
153.17192 1732.8384 -635.65228 4294966661
155.30153 1732.2671 -635.57312 4294966661
163.43584 1731.7871 -635.40839 4294966661
167.50871 1731.5369 -635.27203 4294966661
171.50195 1731.2695 -635.32434 4294966661
113.43157 1735.0947 -635.99341 4294966661
121.77948 1734.5366 -635.90295 4294966661
123.73275 1734.4233 -635.99115 4294966661
126.87523 1734.8613 -635.79742 4294966661
131.18379 1734.621 -635.10651 4294966661
132.65732 1734.547 -635.02454 4294966661
134.10551 1734.5583 -635.63928 4294966661
135.33875 1734.4813 -635.21472 4294966661
137.11124 1734.663 -635.71454 4294966661
67.563217 1739.6602 -635.33038 4294966661
75.410805 1738.8748 -635.87469 4294966661
77.273331 1738.0389 -635.22821 4294966661
79.668648 1737.7571 -635.21747 4294966661
81.240852 1737.7086 -635.79486 4294966661
55.293152 1741.665 -635.04559 4294966661
57.02734 1741.6094 -635.32642 4294966661
59.531818 1740.564 -635.14905 4294966661
61.439556 1741.7477 -635.9306 4294966661
63.5588 1740.3766 -635.44965 4294966661
65.482948 1740.5504 -635.61475 4294966661
53.28083 1744.6526 -635.14575 4294966661
55.807014 1743.5254 -635.66187 4294966661
261.22269 1745.7152 -635.58856 4294966661
265.0965 1745.451 -635.51782 4294966661
269.95392 1745.0653 -635.23029 4294966661
275.50916 1744.6851 -635.27167 4294966661
55.569862 1746.8542 -635.44781 4294966661
217.42522 1748.8801 -635.49774 4294966661
219.54579 1748.7087 -635.0271 4294966661
225.28577 1748.323 -635.38 4294966661
227.63548 1748.1281 -635.18353 4294966661
231.15794 1747.8821 -635.2981 4294966661
233.38321 1747.6926 -635.03815 4294966661
235.41264 1747.5775 -635.47607 4294966661
237.29137 1747.447 -635.4895 4294966661
241.52249 1747.158 -635.39886 4294966661
245.59309 1746.8734 -635.50598 4294966661
247.54222 1746.7212 -635.36285 4294966661
249.13191 1746.6238 -635.56403 4294966661
251.62836 1746.4316 -635.30927 4294966661
255.44102 1746.1665 -635.34491 4294966661
257.35764 1746.0386 -635.56519 4294966661
51.557323 1750.974 -635.01697 4294966661
53.238876 1750.2947 -635.3009 4294966661
55.533504 1751.6691 -635.88361 4294966661
183.14331 1751.3716 -635.25488 4294966661
187.24767 1751.0261 -635.05157 4294966661
189.40324 1750.8644 -635.1051 4294966661
191.59373 1750.7125 -635.00818 4294966661
193.19206 1750.6609 -635.63251 4294966661
195.22203 1750.4662 -635.12714 4294966661
197.55829 1750.3077 -635.37189 4294966661
205.28224 1749.7218 -635.09314 4294966661
207.2608 1749.5737 -635.05121 4294966661
211.63118 1749.2268 -635.02277 4294966661
49.647118 1754.7775 -635.47424 4294966661
51.610741 1754.7981 -635.78528 4294966661
137.46895 1754.7039 -635.48706 4294966661
141.59317 1754.4156 -635.47955 4294966661
143.64462 1754.2465 -635.25397 4294966661
161.49217 1752.9623 -635.00952 4294966661
163.30632 1752.8712 -635.10938 4294966661
165.53082 1752.743 -635.17676 4294966661
169.55426 1752.4502 -635.31738 4294966661
47.478168 1756.7684 -635.01617 4294966661
49.504635 1757.8033 -635.14764 4294966661
51.590923 1756.6881 -635.52551 4294966661
53.676479 1756.1244 -635.93372 4294966661
55.309929 1757.2916 -635.91461 4294966661
93.566544 1757.6238 -635.61444 4294966661
96.847054 1757.4408 -635.76575 4294966661
99.014114 1757.2959 -635.64832 4294966661
105.75325 1756.7828 -635.63562 4294966661
109.79556 1756.4918 -635.25305 4294966661
111.57738 1756.3854 -635.01007 4294966661
115.23289 1756.2441 -635.6778 4294966661
117.31844 1756.0997 -635.49066 4294966661
125.18569 1755.5609 -635.64825 4294966661
127.41611 1755.3854 -635.25348 4294966661
129.23009 1755.2703 -635.50226 4294966661
131.51366 1755.0988 -635.08502 4294966661
133.41808 1755.0076 -635.59509 4294966661
55.581181 1758.1154 -635.56671 4294966661
57.242188 1758.4982 -635.396 4294966661
59.462601 1758.5348 -635.59863 4294966661
63.575813 1758.8474 -635.17554 4294966661
65.236237 1758.7308 -635.44305 4294966661
67.116371 1758.5679 -635.87067 4294966661
69.291656 1758.6307 -635.88245 4294966661
71.162201 1758.705 -635.78674 4294966661
72.941322 1758.7111 -635.22717 4294966661
73.318909 1758.593 -635.97186 4294966661
79.88369 1758.2621 -635.80688 4294966661
81.406509 1758.1797 -635.95599 4294966661
147.46111 1733.7405 -634.88806 4294966662
175.59396 1731.0602 -634.93085 4294966662
129.53375 1734.6991 -634.93994 4294966662
134.30145 1734.382 -634.44818 4294966662
138.70952 1734.381 -634.51282 4294966662
140.49197 1734.3658 -634.82782 4294966662
141.6846 1734.2284 -634.41168 4294966662
143.64799 1734.066 -634.02643 4294966662
61.526142 1739.5293 -634.44043 4294966662
69.470131 1739.0313 -634.92358 4294966662
73.548416 1738.45 -634.54187 4294966662
53.419128 1740.7025 -634.12592 4294966662
56.986301 1740.4978 -634.72424 4294966662
49.644714 1743.4766 -634.28149 4294966662
47.103645 1747.4641 -634.0437 4294966662
49.230598 1747.4436 -634.40771 4294966662
47.340157 1751.2384 -634.36481 4294966662
199.61259 1750.1799 -634.99084 4294966662
43.33593 1753.7108 -634.05804 4294966662
45.559258 1754.4441 -634.66638 4294966662
47.068958 1754.5658 -634.97833 4294966662
135.51195 1754.7977 -634.96478 4294966662
154.00238 1753.473 -634.9931 4294966662
157.50162 1753.2582 -634.89648 4294966662
159.52219 1753.0627 -634.9035 4294966662
43.267185 1757.0238 -634.34271 4294966662
45.460358 1757.0503 -634.71375 4294966662
47.571083 1757.835 -634.79956 4294966662
43.22192 1758.2087 -634.28259 4294966662
45.58075 1758.7598 -634.36127 4294966662
47.63369 1758.8267 -634.47443 4294966662
49.828918 1759.1798 -634.19598 4294966662
51.322895 1758.5906 -634.72791 4294966662
53.194214 1758.625 -634.85712 4294966662
61.311043 1759.3124 -634.10956 4294966662
65.102737 1759.2455 -634.422 4294966662
67.252068 1759.1483 -634.23364 4294966662
71.129044 1759.0837 -634.61584 4294966662
273.42395 1724.8873 -633.06464 4294966663
225.3008 1727.9634 -633.06689 4294966663
227.17 1727.848 -633.0473 4294966663
229.12416 1727.7661 -633.15375 4294966663
231.28708 1727.6312 -633.14453 4294966663
233.51862 1727.4636 -633.01056 4294966663
235.47789 1727.3423 -633.00336 4294966663
251.55072 1726.2328 -633.07733 4294966663
253.31223 1726.0841 -633.16504 4294966663
255.31027 1725.9685 -633.15265 4294966663
257.37021 1725.8549 -633.09283 4294966663
269.54288 1725.1364 -633.07349 4294966663
193.24638 1730.1685 -633.01611 4294966663
219.50826 1728.4454 -633.0423 4294966663
221.30104 1728.2683 -633.10138 4294966663
146.24704 1733.7765 -633.13153 4294966663
149.0795 1733.5061 -633.40277 4294966663
151.82629 1733.1617 -633.18304 4294966663
159.3214 1732.4209 -633.00098 4294966663
163.56487 1732.0729 -633.04895 4294966663
83.25235 1736.8536 -633.88824 4294966663
87.36396 1736.719 -633.7262 4294966663
89.310341 1736.6787 -633.69733 4294966663
91.374313 1736.627 -633.67719 4294966663
95.450836 1736.384 -633.60901 4294966663
97.25853 1736.2729 -633.46869 4294966663
99.414665 1736.1619 -633.31049 4294966663
101.26669 1736.0566 -633.39081 4294966663
105.17711 1735.8665 -633.48407 4294966663
107.44462 1735.7443 -633.54285 4294966663
109.39468 1735.5861 -633.73322 4294966663
111.41155 1735.4725 -633.58319 4294966663
113.44422 1735.4114 -633.14801 4294966663
115.42113 1735.1616 -633.59174 4294966663
117.51432 1735.0085 -633.59778 4294966663
121.65787 1734.7512 -633.4776 4294966663
123.71661 1734.6903 -633.151 4294966663
125.26582 1734.6212 -633.01691 4294966663
127.69165 1734.6639 -633.45868 4294966663
131.22067 1734.5138 -633.7207 4294966663
133.2784 1734.4303 -633.10345 4294966663
136.24435 1734.3571 -633.29651 4294966663
53.509388 1739.6696 -633.13574 4294966663
55.500435 1739.541 -633.51581 4294966663
59.112617 1739.2267 -633.90631 4294966663
65.150078 1738.8528 -633.74469 4294966663
75.472473 1737.7852 -633.02106 4294966663
77.253258 1737.4319 -633.3515 4294966663
79.28009 1737.3075 -633.7063 4294966663
81.24926 1737.0048 -633.85266 4294966663
47.191978 1742.0188 -633.25787 4294966663
49.765537 1741.7438 -633.80664 4294966663
51.312389 1740.2643 -633.43219 4294966663
43.125168 1745.9624 -633.16968 4294966663
45.093548 1743.7603 -633.30542 4294966663
46.709152 1743.7109 -633.81122 4294966663
265.11371 1745.2397 -633.12671 4294966663
45.181061 1746.1484 -633.62439 4294966663
247.31882 1746.5951 -633.12769 4294966663
41.569641 1751.0162 -633.07397 4294966663
43.523628 1750.9109 -633.50122 4294966663
45.497013 1750.9773 -633.98291 4294966663
41.371723 1753.8149 -633.65955 4294966663
149.61865 1753.6338 -633.04309 4294966663
153.60684 1753.3694 -633.11517 4294966663
39.294571 1756.0569 -633.40771 4294966663
93.301666 1757.5144 -633.23669 4294966663
95.307083 1757.355 -633.17474 4294966663
97.5961 1757.207 -633.15576 4294966663
101.29346 1756.9829 -633.12939 4294966663
103.10229 1756.9203 -633.00012 4294966663
115.47425 1756.0529 -633.02399 4294966663
41.380661 1758.4688 -633.80261 4294966663
51.324245 1759.6313 -633.2912 4294966663
52.780113 1759.4312 -633.78204 4294966663
54.937347 1759.4685 -633.7439 4294966663
57.07972 1759.3971 -633.97693 4294966663
59.113628 1759.4598 -633.93445 4294966663
69.522232 1759.2396 -633.7406 4294966663
75.516312 1758.9587 -633.92255 4294966663
79.683121 1758.5731 -633.63403 4294966663
83.314384 1758.3506 -633.47345 4294966663
87.451553 1758.0562 -633.42126 4294966663
275.39771 1724.7245 -632.99677 4294966664
239.28027 1727.135 -632.99634 4294966664
241.33969 1726.9993 -632.99921 4294966664
245.62148 1726.624 -632.98383 4294966664
247.09036 1726.5859 -632.98938 4294966664
261.39908 1725.629 -632.91852 4294966664
265.42703 1725.4127 -632.98407 4294966664
187.51576 1730.5664 -632.93811 4294966664
189.52141 1730.4302 -632.95117 4294966664
195.43953 1730.0466 -632.99164 4294966664
201.37669 1729.684 -632.95544 4294966664
203.52058 1729.5719 -632.80164 4294966664
205.38477 1729.4591 -632.97253 4294966664
207.54466 1729.3568 -632.95636 4294966664
211.32707 1729.0859 -632.89282 4294966664
223.42688 1728.1696 -632.96045 4294966664
153.55391 1732.7889 -632.98364 4294966664
157.47385 1732.5596 -632.93158 4294966664
175.45564 1731.3745 -632.87012 4294966664
103.49489 1736.0309 -632.92517 4294966664
129.42345 1734.6104 -632.84192 4294966664
140.33611 1734.2322 -632.27722 4294966664
57.153488 1738.8092 -632.10358 4294966664
43.237904 1742.214 -632.24353 4294966664
47.507515 1740.8518 -632.57153 4294966664
39.370327 1743.4395 -632.16998 4294966664
41.403374 1745.9862 -632.7663 4294966664
43.02478 1743.6343 -632.75781 4294966664
259.43964 1745.6604 -632.97992 4294966664
261.5564 1745.4982 -632.9848 4294966664
267.20782 1745.0857 -632.80475 4294966664
269.71399 1744.8959 -632.86316 4294966664
215.49553 1748.804 -632.91827 4294966664
219.65846 1748.5638 -632.84143 4294966664
223.40955 1748.2915 -632.95422 4294966664
225.45988 1748.1306 -632.87848 4294966664
227.54184 1747.9802 -632.92737 4294966664
229.43071 1747.8424 -632.88031 4294966664
