# .PCD v0.7 - Point Cloud Data file format
VERSION 0.7
FIELDS x y z rgba
SIZE 4 4 4 4
TYPE F F F U
COUNT 1 1 1 1
WIDTH 1303
HEIGHT 1
VIEWPOINT 0 0 0 1 0 0 0
POINTS 1303
DATA ascii
275.51862 4258.7954 -190.46599 34679
277.53769 4258.6938 -190.66827 34679
221.66942 4262.6597 -190.37549 34679
223.38583 4262.5469 -190.05869 34679
225.37593 4262.4116 -190.2444 34679
227.60994 4262.1567 -190.95747 34679
239.32199 4261.2788 -190.96964 34679
247.39046 4260.7266 -190.34821 34679
249.48859 4260.7192 -190.48944 34679
251.58372 4260.3804 -190.20491 34679
253.38681 4260.3369 -190.71838 34679
255.49011 4260.1372 -190.99591 34679
259.4494 4260.0933 -190.9763 34679
169.54413 4265.9629 -190.50339 34679
175.41252 4265.9346 -190.8681 34679
181.72311 4265.1934 -190.43645 34679
183.57623 4265.1411 -190.79494 34679
187.26207 4264.8125 -190.23413 34679
189.6465 4264.8218 -190.14349 34679
193.56047 4264.5469 -190.15349 34679
197.78456 4264.4219 -190.81122 34679
211.43393 4263.2959 -190.99216 34679
215.41769 4263 -190.90822 34679
161.45164 4266.564 -190.84169 34679
163.31477 4266.4424 -190.81963 34679
167.48518 4266.1763 -190.94345 34679
171.14569 4266.1011 -190.76338 34679
173.81058 4266.0366 -190.97102 34679
651.61011 4196.6938 -189.61336 34679
657.5683 4196.1816 -189.34979 34679
607.21771 4199.709 -189.67395 34679
609.28149 4199.5347 -189.61101 34679
611.5379 4199.3662 -189.77188 34679
613.49042 4199.207 -189.81854 34679
618.82495 4198.7715 -189.46234 34679
623.57166 4198.4692 -189.80656 34679
625.18347 4198.3545 -189.57939 34679
629.01544 4198.2002 -189.76282 34679
643.60211 4197.1592 -189.32593 34679
562.49713 4202.8325 -189.80478 34679
565.78369 4202.6406 -189.99007 34679
566.84918 4202.5645 -189.19499 34679
569.34216 4202.3618 -189.7341 34679
573.59576 4202.0571 -189.75658 34679
579.02222 4201.6592 -189.463 34679
589.53333 4200.9814 -189.68378 34679
594.57178 4200.5698 -189.54001 34679
599.28674 4200.2798 -189.42145 34679
523.15625 4205.8354 -189.57098 34679
527.00885 4205.3711 -189.59656 34679
529.73364 4205.2603 -189.28911 34679
537.40588 4204.6895 -189.7216 34679
541.22443 4204.2671 -189.66484 34679
543.76947 4204.0933 -189.59456 34679
547.42126 4203.9956 -189.58833 34679
551.53198 4203.6162 -189.7791 34679
552.89191 4203.522 -189.63737 34679
555.5871 4203.3613 -189.76076 34679
559.31787 4203.0557 -189.4808 34679
487.37283 4208.2637 -189.8439 34679
490.94897 4207.9429 -189.54987 34679
493.57474 4207.771 -189.43176 34679
496.56796 4207.5156 -189.58534 34679
501.32458 4207.2417 -189.82545 34679
503.41464 4207.2676 -189.74942 34679
505.48373 4207.0225 -189.83441 34679
507.42239 4206.8838 -189.57172 34679
511.86832 4206.5596 -189.5251 34679
515.39642 4206.3418 -189.72643 34679
437.14075 4211.7637 -189.62082 34679
440.49979 4211.6714 -189.25885 34679
451.24133 4211.0425 -189.62692 34679
455.49783 4210.75 -189.6424 34679
459.36545 4210.3535 -189.89955 34679
461.44855 4210.1304 -189.90173 34679
464.96472 4209.8623 -189.93462 34679
469.10944 4209.708 -189.78479 34679
473.19189 4209.2915 -189.67236 34679
405.56839 4214.1548 -189.49585 34679
411.47867 4213.7769 -189.56644 34679
415.20358 4213.6826 -189.55377 34679
418.034 4213.4111 -189.88095 34679
420.24631 4213.4912 -189.02679 34679
423.4231 4213.0137 -189.83829 34679
425.48233 4212.9502 -189.91786 34679
432.94446 4212.2988 -189.83444 34679
707.86334 4214.9951 -189.03017 34679
358.99243 4217.5698 -189.87976 34679
364.2908 4217.1343 -189.38423 34679
367.6459 4216.9438 -189.57918 34679
371.74921 4216.7168 -189.98344 34679
381.04407 4215.8574 -189.65044 34679
383.28281 4215.5737 -189.41351 34679
389.7085 4215.3032 -189.4626 34679
329.56537 4219.7754 -189.90672 34679
341.31134 4218.8784 -189.86931 34679
349.16467 4218.2886 -189.8488 34679
270.81818 4223.9961 -189.74353 34679
273.81036 4223.459 -189.93037 34679
283.25989 4223.0132 -189.87303 34679
288.60281 4222.585 -189.64949 34679
295.13867 4222.1626 -189.89458 34679
307.26025 4221.2163 -189.70465 34679
310.20276 4221.0688 -189.59955 34679
229.82553 4226.7236 -189.67285 34679
233.72093 4226.6724 -189.79654 34679
235.76321 4226.5532 -189.77776 34679
237.09282 4226.4204 -189.90715 34679
239.41612 4225.9854 -189.71715 34679
246.71593 4225.2759 -189.63187 34679
257.21783 4224.856 -189.20972 34679
262.38367 4224.7471 -189.33145 34679
265.38962 4224.499 -189.60431 34679
267.78363 4224.2139 -189.70723 34679
707.48517 4226.9272 -189.99608 34679
710.04181 4224.2598 -189.93588 34679
192.8067 4229.4399 -189.13908 34679
199.94786 4229.3228 -189.09943 34679
203.81001 4228.874 -189.72148 34679
208.80772 4228.4404 -189.50505 34679
212.2713 4228.1318 -189.82861 34679
217.52264 4227.8423 -189.64799 34679
221.76472 4227.4063 -189.93217 34679
225.19458 4227.103 -189.62987 34679
689.58783 4229.355 -189.24187 34679
691.5802 4228.749 -189.27728 34679
700.10004 4228.7119 -189.04576 34679
701.71216 4228.4258 -189.58186 34679
703.73193 4228.1221 -189.92815 34679
649.55261 4232.1777 -189.06935 34679
655.07678 4231.7588 -189.01141 34679
673.61835 4230.3286 -189.01741 34679
592.7309 4235.7666 -189.83337 34679
602.03082 4234.7832 -189.81468 34679
603.58405 4234.3647 -189.26215 34679
604.90887 4234.4185 -189.79855 34679
606.29718 4234.1655 -189.38501 34679
608.07123 4234.3135 -189.92537 34679
613.18591 4234.5513 -189.60947 34679
615.59576 4234.3867 -189.69807 34679
617.51013 4234.312 -189.78792 34679
621.08148 4234.0415 -189.62274 34679
625.31995 4233.8418 -189.51227 34679
627.39966 4233.894 -189.72647 34679
629.54718 4233.998 -189.58928 34679
561.48804 4238.3159 -189.7594 34679
565.5354 4238.0669 -189.70596 34679
569.24524 4237.834 -189.798 34679
573.27301 4237.5137 -189.72505 34679
577.28674 4237.1094 -189.68852 34679
581.52155 4236.9194 -189.68845 34679
583.54272 4236.8213 -189.7562 34679
513.7887 4241.8774 -189.76624 34679
515.65564 4241.7241 -189.66113 34679
517.31836 4241.5776 -189.77274 34679
519.37323 4241.3774 -189.66199 34679
521.70947 4241.3037 -189.47369 34679
525.42999 4241.0425 -189.65387 34679
529.54053 4240.7788 -189.6452 34679
533.80493 4240.4087 -189.96428 34679
537.61029 4240.1572 -189.94278 34679
539.17303 4240.0649 -189.73352 34679
541.58545 4239.8896 -189.86166 34679
543.23065 4239.7285 -189.72845 34679
545.42572 4239.5415 -189.77202 34679
549.40216 4239.1904 -189.74728 34679
553.30621 4239.0576 -189.59071 34679
473.60757 4244.748 -189.65187 34679
477.32999 4244.4888 -189.5387 34679
481.18573 4244.1885 -189.77115 34679
485.24976 4244.0571 -189.80627 34679
491.58813 4243.4907 -189.63921 34679
495.37769 4243.1733 -189.57578 34679
497.73163 4242.9653 -189.64737 34679
501.29001 4242.7129 -189.58717 34679
503.39584 4242.5957 -189.65086 34679
505.16968 4242.4829 -189.64078 34679
507.65536 4242.3223 -189.67982 34679
509.28177 4242.2427 -189.77614 34679
511.26935 4242.0972 -189.73643 34679
431.35858 4247.582 -189.65155 34679
433.47021 4247.481 -189.58939 34679
437.47128 4247.2358 -189.56284 34679
443.3085 4246.8623 -189.61006 34679
445.27332 4246.7407 -189.65872 34679
447.25995 4246.6104 -189.54265 34679
449.51611 4246.4834 -189.57379 34679
453.4422 4246.1909 -189.8287 34679
457.58081 4245.9941 -189.88245 34679
469.3772 4245.0391 -189.54079 34679
471.38425 4245.0742 -189.54514 34679
409.58755 4249.1357 -189.68912 34679
413.45798 4248.8657 -189.61629 34679
419.54376 4248.4463 -189.59404 34679
425.35172 4248.1768 -189.75856 34679
341.3663 4253.9014 -189.55669 34679
343.57562 4253.7817 -189.67395 34679
347.46866 4253.5181 -189.72595 34679
351.56268 4253.2026 -189.68019 34679
359.37543 4252.7144 -189.47455 34679
361.64111 4252.6006 -189.54942 34679
363.53647 4252.4565 -189.62846 34679
365.54242 4252.3291 -189.58296 34679
367.50116 4252.1626 -189.64848 34679
369.30725 4252.0288 -189.80511 34679
373.83191 4251.665 -189.84581 34679
377.44312 4251.4033 -189.58333 34679
379.35495 4251.2744 -189.62442 34679
381.67188 4251.2212 -189.68282 34679
298.08499 4256.9917 -189.45071 34679
307.70114 4256.4087 -189.76086 34679
309.49136 4256.3936 -189.65065 34679
317.89645 4255.5557 -189.85585 34679
319.40622 4255.4233 -189.68393 34679
321.06595 4255.3608 -189.71716 34679
323.78012 4255.1724 -189.65198 34679
329.39365 4254.7964 -189.66518 34679
339.57773 4254.084 -189.68602 34679
265.23541 4259.3066 -189.73322 34679
267.41107 4259.186 -189.74945 34679
269.32489 4259.0439 -189.63231 34679
271.20895 4258.9292 -189.528 34679
273.4212 4258.7905 -189.43303 34679
279.44708 4258.4395 -189.54474 34679
281.28986 4258.228 -189.49414 34679
287.25479 4257.6919 -189.63948 34679
289.76474 4257.5571 -189.72987 34679
293.63416 4257.3223 -189.64545 34679
217.30644 4262.8232 -189.42238 34679
225.30708 4262.3271 -189.6651 34679
227.60089 4262.1216 -189.66815 34679
231.13199 4261.6484 -189.68401 34679
233.41562 4261.5181 -189.75162 34679
241.50562 4260.9688 -189.54758 34679
243.49423 4260.8506 -189.55771 34679
253.53645 4260.1479 -189.62086 34679
173.97237 4265.5669 -189.75188 34679
177.33421 4265.3975 -189.7444 34679
181.49068 4265.1768 -189.44713 34679
185.35185 4264.9551 -189.43298 34679
195.36446 4264.1196 -189.58018 34679
201.21111 4263.748 -189.72395 34679
207.31789 4263.3872 -189.78024 34679
209.45035 4263.2241 -189.75598 34679
211.45164 4263.2173 -189.67619 34679
159.43347 4266.686 -189.61961 34679
163.48843 4266.3525 -189.8049 34679
165.27185 4266.0552 -189.89107 34679
666.70142 4195.7422 -188.37309 34679
684.1261 4194.8882 -188.35948 34679
686.62909 4194.6689 -188.7348 34679
632.55273 4198.1084 -188.7916 34679
644.7699 4197.1743 -188.56226 34679
561.18457 4202.9824 -188.76459 34679
530.6524 4205.2725 -188.69514 34679
557.59418 4203.6465 -188.06412 34679
487.58472 4208.7476 -188.04353 34679
500.12329 4207.7261 -188.65073 34679
503.31821 4207.7007 -188.03566 34679
522.05591 4206.1396 -188.46793 34679
447.88287 4211.4795 -188.92091 34679
449.16422 4211.6763 -188.30832 34679
455.68451 4211.1592 -188.09882 34679
463.66599 4210.5767 -188.11931 34679
465.36002 4210.4604 -188.04018 34679
471.27304 4210.0098 -188.09349 34679
475.02396 4209.7729 -188.06375 34679
477.8114 4209.3887 -188.07133 34679
706.92413 4211.979 -188.46111 34679
405.86243 4214.6353 -188.09421 34679
406.88525 4214.6797 -188.05457 34679
412.92148 4214.1919 -188.39777 34679
415.53217 4214.001 -188.50166 34679
417.45816 4213.9771 -188.28641 34679
421.12241 4213.6343 -188.41316 34679
423.55765 4213.4844 -188.39743 34679
425.1489 4213.3745 -188.50299 34679
427.23993 4213.1978 -188.39688 34679
431.62854 4212.8599 -188.87022 34679
433.38593 4212.6812 -188.73157 34679
435.17471 4212.6206 -188.33247 34679
442.99203 4212.0288 -188.20195 34679
364.10135 4217.7095 -188.13222 34679
365.7894 4217.5928 -188.10529 34679
367.44235 4217.5371 -188.01691 34679
368.76828 4217.2788 -188.63101 34679
371.32837 4217.3511 -188.25264 34679
373.95041 4216.98 -188.93358 34679
375.32614 4216.9917 -188.44705 34679
377.47885 4216.8521 -188.37669 34679
381.18854 4216.397 -188.13374 34679
385.05502 4215.4629 -188.90973 34679
391.38327 4215.8203 -188.14265 34679
707.18109 4217.2002 -188.42136 34679
325.62106 4220.6821 -188.08414 34679
329.44879 4220.3535 -188.45834 34679
333.22095 4220.0747 -188.61403 34679
335.16525 4220.2715 -188.12944 34679
337.69809 4219.9282 -188.41608 34679
339.70029 4219.748 -188.45975 34679
341.48285 4219.6597 -188.28905 34679
345.52823 4219.1045 -188.43066 34679
348.68478 4218.9736 -188.31377 34679
707.75708 4219.7334 -188.6521 34679
275.56857 4223.9814 -188.68239 34679
277.22784 4223.8315 -188.67548 34679
279.81863 4223.6523 -188.30524 34679
281.60333 4223.7261 -188.20541 34679
283.08374 4223.4946 -188.48064 34679
290.65671 4223.123 -188.16515 34679
292.62933 4222.6025 -188.98384 34679
294.60318 4222.7856 -188.19443 34679
297.43875 4222.5098 -188.55203 34679
299.71283 4222.3452 -188.6375 34679
301.51871 4222.3027 -188.49483 34679
303.11899 4222.1504 -188.55272 34679
305.23865 4222.0352 -188.5154 34679
311.74438 4221.4473 -188.14749 34679
313.91321 4221.3521 -188.23187 34679
708.56641 4223.4785 -188.64737 34679
237.2679 4226.7852 -188.81432 34679
239.44501 4226.6406 -188.51572 34679
245.13423 4225.9941 -188.10339 34679
251.46416 4225.7417 -188.50899 34679
255.15657 4225.519 -188.16914 34679
262.17075 4225.0938 -188.42447 34679
265.8429 4225.0024 -188.57448 34679
269.32623 4224.5869 -188.52486 34679
271.29462 4224.4604 -188.53725 34679
705.36591 4226.7793 -188.62344 34679
707.58185 4225.6948 -188.78976 34679
194.70854 4229.9189 -188.13766 34679
201.44707 4229.458 -188.64597 34679
207.30183 4228.8828 -188.7068 34679
209.75665 4228.6289 -188.74738 34679
211.6785 4228.6782 -188.36169 34679
214.08142 4228.3643 -188.83524 34679
223.0728 4227.8032 -188.62469 34679
227.42365 4227.498 -188.44038 34679
229.84976 4227.1807 -188.46533 34679
233.65579 4227.1343 -188.64877 34679
677.29907 4229.9976 -188.56744 34679
679.27814 4229.9214 -188.77315 34679
683.49799 4229.7183 -188.86174 34679
686.73737 4228.9785 -188.8378 34679
694.24677 4228.2583 -188.37126 34679
697.0293 4228.3159 -188.67613 34679
702.02185 4227.1313 -188.11559 34679
643.96411 4232.4341 -188.77438 34679
645.28436 4232.396 -188.92259 34679
653.41187 4231.8984 -188.96768 34679
659.3548 4231.415 -188.84915 34679
661.25848 4231.2402 -188.83905 34679
663.42084 4231.002 -188.44292 34679
667.51166 4230.8149 -188.18936 34679
669.37866 4230.6372 -188.02776 34679
671.7002 4230.4551 -188.80191 34679
673.25769 4230.1909 -188.00829 34679
675.4856 4230.1548 -188.86911 34679
589.36377 4235.8862 -188.50609 34679
591.00909 4235.5366 -188.78543 34679
593.32806 4235.0942 -188.45515 34679
595.24036 4235.1025 -188.75839 34679
598.34283 4234.8667 -188.90147 34679
600.27057 4234.5415 -188.76126 34679
602.32928 4233.7017 -188.06271 34679
609.69275 4233.7686 -188.44519 34679
612.19849 4233.7041 -188.56062 34679
615.38348 4234.0098 -188.16861 34679
619.59869 4233.8359 -188.38799 34679
623.37439 4233.6265 -188.02023 34679
625.2713 4233.4297 -188.0159 34679
627.30566 4233.3511 -188.0379 34679
547.29462 4238.9907 -188.43344 34679
551.53308 4238.6885 -188.47621 34679
555.30707 4238.4424 -188.51753 34679
559.3985 4238.1118 -188.47679 34679
563.35461 4237.8042 -188.44298 34679
567.44849 4237.5308 -188.43788 34679
571.53503 4237.2915 -188.4075 34679
575.63849 4236.9453 -188.4805 34679
577.48016 4236.7607 -188.42546 34679
585.43347 4236.4502 -188.48973 34679
587.65546 4236.0459 -188.63129 34679
507.53055 4241.9404 -188.4991 34679
509.51422 4241.6138 -188.1295 34679
511.42154 4241.6636 -188.51498 34679
513.46863 4241.5103 -188.55794 34679
515.53296 4241.3545 -188.46716 34679
517.24689 4241.1602 -188.40114 34679
523.37897 4240.6689 -188.43698 34679
527.58136 4240.4189 -188.51805 34679
533.67047 4240.0034 -188.48839 34679
537.37067 4239.811 -188.6035 34679
538.98065 4239.6602 -188.32031 34679
541.10822 4239.5942 -188.4176 34679
543.24719 4239.3496 -188.49493 34679
475.32483 4244.2515 -188.40929 34679
479.37222 4243.9331 -188.43192 34679
489.36545 4243.3486 -188.39101 34679
491.5733 4243.0796 -188.44037 34679
493.07385 4242.9912 -188.44637 34679
497.57077 4242.5918 -188.40704 34679
499.59451 4242.4561 -188.3828 34679
501.46805 4242.373 -188.50021 34679
503.40564 4242.188 -188.34892 34679
421.64011 4247.9116 -188.48915 34679
431.44043 4246.9585 -188.18884 34679
433.51028 4247.0498 -188.50626 34679
435.42291 4246.9268 -188.42931 34679
441.57297 4246.5796 -188.38539 34679
445.42789 4246.3662 -188.45201 34679
447.15753 4246.2314 -188.41016 34679
453.26602 4245.8135 -188.59724 34679
373.46057 4250.9048 -188.022 34679
375.47177 4250.7661 -188.00114 34679
377.31625 4250.7573 -188.09131 34679
379.44284 4250.6768 -188.19072 34679
381.69897 4250.7622 -188.49405 34679
383.35928 4250.7549 -188.41302 34679
407.69449 4248.8828 -188.6557 34679
409.49667 4248.7139 -188.47981 34679
411.41467 4248.6143 -188.50343 34679
413.4173 4248.4858 -188.4682 34679
415.48703 4248.3706 -188.48419 34679
417.5076 4248.3193 -188.29848 34679
337.02902 4253.9702 -188.86446 34679
339.38263 4253.3037 -188.07454 34679
343.41418 4253.1377 -188.23949 34679
345.55038 4253.0273 -188.28117 34679
347.28598 4252.8447 -188.13939 34679
349.53979 4252.7549 -188.27812 34679
355.35507 4252.6147 -188.67102 34679
357.54669 4252.4487 -188.43639 34679
359.54364 4252.3486 -188.46118 34679
365.34799 4251.9751 -188.51311 34679
367.12677 4251.8843 -188.70988 34679
369.45929 4251.2134 -188.00003 34679
287.26428 4256.9175 -188.14644 34679
289.22104 4256.9272 -188.27017 34679
291.42545 4256.6826 -188.0515 34679
293.4906 4256.708 -188.1926 34679
295.26437 4256.6475 -188.2047 34679
297.54468 4256.5635 -188.0743 34679
299.48895 4256.4751 -188.0909 34679
305.38699 4256.2046 -188.09247 34679
311.43469 4255.4399 -188.14267 34679
313.48898 4255.2681 -188.37004 34679
317.41296 4254.855 -188.18344 34679
319.44122 4254.8418 -188.31927 34679
321.34442 4254.7334 -188.28403 34679
327.27258 4254.6709 -188.49799 34679
333.5621 4254.3184 -188.5172 34679
253.34192 4259.5923 -188.16803 34679
255.23303 4259.397 -188.40186 34679
257.50275 4259.1753 -188.41159 34679
259.47629 4259.085 -188.48233 34679
263.3447 4258.8633 -188.42564 34679
265.42517 4258.7344 -188.4167 34679
267.32239 4258.6362 -188.38782 34679
269.61295 4258.4873 -188.30717 34679
271.41626 4258.502 -188.18199 34679
275.3284 4258.3394 -188.0789 34679
280.9722 4257.9624 -188.68314 34679
283.40689 4257.4961 -188.18478 34679
285.53073 4257.127 -188.19667 34679
205.44609 4262.8335 -188.44447 34679
207.44286 4262.8467 -188.66513 34679
211.37025 4262.6328 -188.43782 34679
213.45999 4262.4614 -188.25963 34679
219.3378 4262.2344 -188.10555 34679
223.373 4261.9956 -188.20631 34679
227.32494 4261.3306 -188.09113 34679
229.54601 4261.2383 -188.35243 34679
231.31602 4261.0752 -188.44231 34679
233.34921 4260.9023 -188.42371 34679
235.42645 4260.7583 -188.36649 34679
237.54121 4260.7861 -188.57475 34679
241.37848 4260.5796 -188.33974 34679
243.46135 4260.5771 -188.4595 34679
245.28638 4260.3296 -188.09392 34679
247.40659 4260.2769 -188.11374 34679
159.67349 4265.9854 -188.62384 34679
161.39137 4265.6743 -188.47322 34679
163.47342 4265.5117 -188.51804 34679
165.32343 4265.4258 -188.50046 34679
169.45219 4265.1606 -188.66466 34679
171.56567 4265.0059 -188.51776 34679
175.57281 4264.9961 -188.72646 34679
177.48557 4264.9106 -188.72018 34679
179.61423 4264.708 -188.63268 34679
183.23624 4264.5713 -188.38467 34679
185.44365 4264.416 -188.21695 34679
191.24118 4264.2065 -188.18896 34679
195.23543 4263.4907 -188.19939 34679
197.47896 4263.4927 -188.70596 34679
201.21986 4263.1553 -188.64194 34679
653.57452 4196.8315 -187.42279 34679
656.9447 4196.8169 -187.24205 34679
685.37579 4194.9331 -187.8902 34679
687.43909 4194.8369 -187.61295 34679
611.19427 4199.8994 -187.9733 34679
615.77521 4199.8115 -187.01106 34679
617.43835 4199.2168 -187.57832 34679
619.52875 4199.0542 -187.43593 34679
625.10266 4198.6709 -187.64224 34679
627.01819 4198.7534 -187.5376 34679
629.86615 4198.4878 -187.502 34679
643.58575 4197.4692 -187.86852 34679
647.59949 4197.2788 -187.83765 34679
648.88159 4197.3013 -187.47336 34679
567.67694 4202.9854 -187.60544 34679
571.38477 4202.7251 -187.77852 34679
577.52112 4202.29 -187.828 34679
585.42072 4201.6743 -187.9346 34679
591.73358 4201.2603 -187.77553 34679
597.19617 4200.918 -187.54471 34679
601.80011 4200.6108 -187.7058 34679
605.20935 4200.3672 -187.75793 34679
527.54413 4205.8823 -187.93834 34679
539.3717 4204.8096 -187.62933 34679
543.13306 4204.4678 -187.51578 34679
547.42554 4204.1216 -187.62582 34679
549.40259 4204.2627 -187.59859 34679
553.03845 4204.061 -187.81415 34679
559.55481 4203.5146 -187.91188 34679
562.8299 4203.3521 -187.49962 34679
565.06885 4203.1323 -187.61562 34679
705.1925 4204.2012 -187.09811 34679
489.77258 4208.6274 -187.75949 34679
495.80048 4208.1494 -187.80482 34679
501.1705 4207.8857 -187.84157 34679
507.17459 4207.4121 -187.85123 34679
509.24332 4207.2432 -187.75925 34679
517.45465 4206.5771 -187.91431 34679
523.70569 4206.1851 -187.98174 34679
525.54767 4206.0562 -187.92053 34679
705.12708 4206.8027 -187.29938 34679
461.99478 4211.1108 -187.36864 34679
467.80841 4210.3193 -187.9142 34679
480.98541 4209.2637 -187.72411 34679
485.10184 4209.1245 -187.60127 34679
705.64551 4209.3804 -187.62335 34679
418.77911 4214.0625 -187.88255 34679
422.12347 4213.9722 -187.51825 34679
435.61322 4213.1401 -187.28606 34679
704.85028 4212.7803 -187.05774 34679
378.68906 4216.9287 -187.86989 34679
386.75836 4216.0757 -187.48125 34679
389.47552 4215.8423 -187.73244 34679
705.02124 4215.335 -187.10643 34679
347.4577 4219.6479 -187.17026 34679
360.94897 4218.0298 -187.90161 34679
286.43961 4223.5088 -187.9566 34679
297.44269 4223.4692 -187.07716 34679
299.46497 4223.3491 -187.07092 34679
329.31287 4221.2017 -187.19815 34679
331.17685 4221.1475 -187.19147 34679
705.88147 4222.1655 -187.48523 34679
250.90784 4226.6509 -187.17642 34679
258.80228 4225.3086 -187.86081 34679
273.55389 4225.2432 -187.12672 34679
704.03088 4224.603 -187.19698 34679
705.66803 4225.6826 -187.88927 34679
706.13745 4224.0352 -187.48582 34679
204.8839 4229.8936 -187.45787 34679
209.15672 4229.4629 -187.45323 34679
215.48558 4228.9961 -187.77495 34679
216.92407 4229.3877 -187.27211 34679
219.75674 4228.605 -187.87938 34679
221.43721 4229.1523 -187.22516 34679
241.44168 4227.2808 -187.17229 34679
681.57684 4229.7344 -187.60016 34679
684.38733 4228.5737 -187.09497 34679
689.50323 4228.4585 -187.63434 34679
691.7605 4228.1353 -187.11177 34679
698.5498 4227.8896 -187.59891 34679
700.06134 4227.748 -187.84581 34679
193.83571 4230.853 -187.09335 34679
201.70424 4230.5254 -187.14145 34679
609.39008 4232.8901 -187.10904 34679
645.33685 4232.0864 -187.75613 34679
647.52582 4232.0024 -187.76761 34679
649.34656 4231.8867 -187.70349 34679
651.68842 4231.7798 -187.81386 34679
653.78528 4231.624 -187.79901 34679
655.71985 4231.4961 -187.78613 34679
671.57324 4230.4292 -187.76202 34679
675.2558 4230.0195 -187.92053 34679
589.24792 4234.7813 -187.52824 34679
591.5246 4234.5605 -187.42332 34679
593.1803 4234.0322 -187.03693 34679
594.72058 4234.4902 -187.66583 34679
596.64209 4234.3931 -187.88657 34679
598.64197 4233.979 -187.63766 34679
604.90369 4233.3091 -187.91833 34679
607.59851 4233.3442 -187.94978 34679
610.7558 4233.0195 -187.33691 34679
537.32648 4238.8242 -187.05835 34679
541.52161 4238.5942 -187.06511 34679
543.30615 4238.5474 -187.14415 34679
545.38727 4238.4077 -187.12779 34679
561.32654 4237.1001 -187.06601 34679
567.24921 4236.7417 -187.01973 34679
507.20801 4241.0825 -187.13155 34679
511.44833 4240.7681 -187.20313 34679
515.50922 4240.5449 -187.22891 34679
535.61993 4239.0361 -187.13174 34679
453.13162 4244.9224 -187.32944 34679
459.48526 4244.8428 -187.90562 34679
463.40897 4244.6826 -187.90739 34679
467.51895 4244.4634 -187.82913 34679
475.24384 4243.4028 -187.07632 34679
477.53918 4243.042 -187.00824 34679
479.38882 4243.4697 -187.70215 34679
481.40762 4242.6196 -187.06499 34679
483.28784 4243.063 -187.67819 34679
487.26874 4242.938 -187.64905 34679
409.54916 4247.6553 -187.10519 34679
411.29507 4247.5718 -187.09152 34679
413.30484 4247.5708 -187.14488 34679
415.35114 4247.2881 -187.01854 34679
417.29642 4247.3027 -187.09064 34679
419.41827 4247.2632 -187.24185 34679
421.44196 4246.8931 -187.12759 34679
423.44916 4247.3511 -187.84261 34679
427.38586 4247.0117 -187.80283 34679
433.32608 4245.9585 -187.14156 34679
439.38968 4245.6885 -187.07065 34679
441.43692 4245.6187 -187.07237 34679
449.47049 4245.2256 -187.21942 34679
451.24683 4245.1934 -187.37291 34679
455.62778 4245.0732 -187.78674 34679
371.38934 4250.8672 -187.81767 34679
381.24701 4249.7012 -187.09279 34679
383.51575 4249.7056 -187.20503 34679
313.66132 4253.5195 -187.03841 34679
317.30426 4253.4277 -187.07643 34679
319.58771 4253.2427 -187.03812 34679
323.19598 4253.5156 -187.20193 34679
325.27725 4253.8447 -187.33672 34679
327.67233 4253.4204 -187.14664 34679
329.43842 4253.3989 -187.17696 34679
331.47302 4253.4243 -187.25987 34679
333.58578 4253.3311 -187.30385 34679
335.42447 4253.0889 -187.28413 34679
337.42636 4253.3306 -187.7084 34679
341.47641 4253.022 -187.95393 34679
355.65179 4251.3872 -187.16158 34679
357.51047 4251.3945 -187.15633 34679
359.38437 4251.2852 -187.12337 34679
361.45346 4251.3662 -187.10608 34679
167.41075 4256.9385 -187.13141 34679
281.24173 4256.0073 -187.0228 34679
283.48816 4255.8276 -187.08807 34679
285.54681 4255.6997 -187.14693 34679
287.28125 4255.3677 -187.09868 34679
289.40912 4255.4917 -187.13641 34679
291.6084 4255.4106 -187.10695 34679
297.45523 4255.249 -187.09657 34679
301.49164 4256.0703 -187.67029 34679
309.38626 4255.374 -187.91379 34679
163.85132 4259.2651 -187.05847 34679
166.05699 4258.3882 -187.11653 34679
217.67908 4259.6357 -187.02936 34679
229.40562 4259.7666 -187.27606 34679
231.45969 4259.6162 -187.39043 34679
233.40268 4259.3462 -187.3363 34679
235.46765 4259.4697 -187.26181 34679
237.43309 4259.3193 -187.36433 34679
239.44025 4259.3223 -187.26765 34679
241.3201 4259.3501 -187.27304 34679
243.73479 4259.2373 -187.22572 34679
247.54214 4259.9712 -187.74173 34679
249.41283 4259.6724 -187.61237 34679
251.54305 4259.7021 -187.89778 34679
253.44374 4257.8657 -187.15453 34679
255.30353 4257.8765 -187.30981 34679
257.59903 4257.5664 -187.25684 34679
259.4744 4257.4531 -187.25607 34679
261.45078 4257.4097 -187.26076 34679
263.7467 4257.2139 -187.18864 34679
265.22137 4257.4736 -187.34221 34679
267.48956 4257.3359 -187.27882 34679
273.41833 4257.6357 -187.46774 34679
275.61023 4257.4341 -187.38809 34679
277.4079 4257.4395 -187.4767 34679
281.22812 4257.2505 -187.73573 34679
161.88402 4262.7671 -187.20146 34679
163.46843 4262.4419 -187.19701 34679
165.42281 4262.3257 -187.19571 34679
169.47998 4261.9868 -187.01331 34679
175.2791 4262.6587 -187.25703 34679
177.61855 4262.0718 -187.14905 34679
179.36172 4262.5483 -187.28813 34679
181.80145 4261.1924 -187.11868 34679
184.86967 4262.6763 -187.24857 34679
187.43634 4262.7217 -187.13489 34679
188.17036 4261.1626 -187.0182 34679
191.77425 4262.1309 -187.1387 34679
193.50276 4260.8745 -187.0471 34679
194.66905 4262.2314 -187.47485 34679
195.50972 4260.3818 -187.07213 34679
197.85109 4261.5059 -187.43883 34679
199.57726 4261.7754 -187.58115 34679
201.48355 4260.9873 -187.23299 34679
203.37973 4261.5098 -187.49484 34679
205.4874 4260.8765 -187.27621 34679
207.67148 4260.8711 -187.24881 34679
209.49928 4260.6641 -187.2635 34679
211.41444 4260.4478 -187.17625 34679
213.5941 4260.9883 -187.40935 34679
221.44501 4261.7476 -187.72766 34679
223.50812 4260.1094 -187.07626 34679
225.63881 4261.4624 -187.93848 34679
227.35005 4260.0352 -187.27594 34679
157.42659 4263.4731 -187.16469 34679
159.49529 4264.3145 -187.3905 34679
161.07852 4264.1055 -187.45251 34679
164.18521 4263.6841 -187.53284 34679
165.87724 4263.3286 -187.4707 34679
167.4613 4263.6787 -187.60095 34679
169.44464 4263.7368 -187.65094 34679
170.84406 4263.3784 -187.52737 34679
175.72511 4263.459 -187.55269 34679
177.55479 4263.3984 -187.45659 34679
179.20848 4263.7881 -187.62724 34679
181.39801 4263.4717 -187.51608 34679
182.81786 4263.3716 -187.65277 34679
185.90636 4263.2886 -187.41562 34679
187.25336 4264.1055 -187.87585 34679
190.15569 4263.7544 -187.6497 34679
193.05344 4263.4072 -187.94205 34679
661.12549 4196.751 -186.76125 34679
681.75659 4195.3306 -186.64088 34679
693.58429 4195.8618 -186.40276 34679
695.9566 4195.3999 -186.41014 34679
699.1944 4194.2456 -186.60289 34679
700.0545 4195.7749 -186.01845 34679
620.70618 4199.6445 -186.40668 34679
623.90637 4199.4048 -186.45885 34679
627.10071 4199.2822 -186.39491 34679
646.46191 4197.9624 -186.11018 34679
649.80054 4197.5273 -186.60126 34679
651.23859 4197.5435 -186.27864 34679
652.96252 4197.4824 -186.14737 34679
655.33453 4197.2222 -186.39572 34679
657.9458 4197.2593 -186.03712 34679
590.5849 4202.5361 -186.63445 34679
593.26984 4202.4219 -186.55673 34679
595.49066 4201.4434 -186.64775 34679
597.71161 4202.2607 -186.0127 34679
599.30847 4201.3252 -186.41959 34679
605.40082 4201.2642 -186.05389 34679
608.22491 4201.1309 -186.05095 34679
609.57684 4200.769 -186.37494 34679
704.14331 4202.1802 -186.35759 34679
541.45502 4205.3896 -186.36812 34679
545.63739 4205.3184 -186.01212 34679
548.99933 4205.124 -186.12732 34679
551.59528 4205.0879 -186.12968 34679
553.54352 4204.9531 -186.26601 34679
561.51556 4203.7324 -186.91849 34679
563.66559 4203.7461 -186.51028 34679
565.04224 4203.6143 -186.27925 34679
567.32147 4203.5044 -186.21626 34679
569.72931 4203.2871 -186.64412 34679
571.80975 4203.5098 -186.16075 34679
573.52655 4203.3716 -186.24602 34679
575.4964 4203.3315 -186.21466 34679
578.89453 4203.1538 -186.24205 34679
587.76776 4203.52 -186.07111 34679
702.93427 4204.6631 -186.18614 34679
507.39163 4208.499 -186.11507 34679
511.34628 4207.5825 -186.47607 34679
519.51331 4207.2915 -186.49425 34679
525.68298 4207.1177 -186.23311 34679
527.43445 4207.0781 -186.12305 34679
529.56 4206.7324 -186.27202 34679
533.41626 4206.1021 -186.22227 34679
702.51941 4207.3027 -186.10846 34679
467.31534 4211.501 -186.29401 34679
469.30573 4211.4639 -186.18903 34679
471.61884 4211.2412 -186.22493 34679
475.56488 4210.9507 -186.26926 34679
477.29672 4210.8047 -186.00911 34679
491.12265 4209.4468 -186.24329 34679
493.51486 4209.168 -186.29562 34679
497.52252 4209.0024 -186.27104 34679
501.47327 4209.0879 -186.08235 34679
703.40955 4209.8613 -186.41248 34679
704.58911 4210.9004 -186.97786 34679
423.36078 4214.8428 -186.47765 34679
425.34247 4214.835 -186.39343 34679
427.23096 4214.9556 -186.30728 34679
429.25516 4214.7881 -186.37842 34679
431.78094 4214.5938 -186.36638 34679
433.49615 4214.5107 -186.24284 34679
437.70358 4213.8315 -186.31293 34679
439.60867 4213.1699 -186.82761 34679
445.46973 4213.0591 -186.70479 34679
446.94113 4213.3169 -186.3345 34679
450.03345 4212.7041 -186.43672 34679
453.43893 4212.8486 -186.02011 34679
457.36459 4212.4585 -186.06708 34679
463.26746 4212.0615 -186.18745 34679
703.35834 4213.4248 -186.19543 34679
704.1601 4213.7266 -186.6035 34679
381.70975 4217.4243 -186.4269 34679
383.10263 4217.1943 -186.48248 34679
385.57205 4217.3262 -186.13069 34679
389.37531 4217.2207 -186.05315 34679
391.46991 4217.187 -186.0867 34679
393.4458 4217.3779 -186.03403 34679
402.58524 4215.8496 -186.77032 34679
409.31546 4215.6777 -186.38499 34679
411.65421 4215.165 -186.96277 34679
415.14032 4215.126 -186.76881 34679
421.33047 4215.1978 -186.18892 34679
703.38342 4217.4609 -186.06824 34679
343.23358 4220.834 -186.68774 34679
347.49872 4220.7407 -186.3199 34679
356.1214 4219.7202 -186.59926 34679
357.48889 4219.6538 -186.57413 34679
359.32419 4219.3481 -186.57045 34679
361.51205 4219.2314 -186.44661 34679
363.51065 4219 -186.21281 34679
365.48343 4218.9712 -186.26695 34679
367.42575 4218.8105 -186.33241 34679
371.38339 4218.7754 -186.30411 34679
373.35837 4218.9854 -186.0778 34679
375.58984 4218.5259 -186.20944 34679
377.39319 4218.3169 -186.29532 34679
379.48776 4218.4214 -186.0197 34679
703.40076 4220.458 -186.02904 34679
704.9281 4219.2065 -186.92314 34679
294.34451 4223.9761 -186.63635 34679
301.57272 4223.7007 -186.63092 34679
303.48898 4223.9014 -186.38278 34679
305.31436 4223.1899 -186.85703 34679
307.02115 4222.9824 -186.84872 34679
309.35748 4222.9468 -186.63281 34679
311.40314 4222.9653 -186.22127 34679
319.33832 4222.7793 -186.36816 34679
323.42099 4222.4609 -186.40094 34679
327.33017 4222.2104 -186.37144 34679
329.36978 4222.5474 -186.08464 34679
331.36533 4222.4497 -186.07982 34679
333.48657 4221.9561 -186.40045 34679
335.45944 4221.6128 -186.55124 34679
337.33643 4221.4355 -186.59032 34679
339.05353 4221.2222 -186.66911 34679
341.55673 4221.0313 -186.6438 34679
703.76471 4221.9131 -186.4075 34679
253.67825 4226.666 -186.90584 34679
255.15318 4226.5039 -186.90497 34679
257.48764 4226.1953 -186.78438 34679
260.08188 4226.4316 -186.65738 34679
261.56241 4226.5742 -186.63129 34679
265.44357 4226.7427 -186.6142 34679
267.50803 4226.2725 -186.79306 34679
269.63168 4226.499 -186.57397 34679
271.52426 4226.2041 -186.55084 34679
273.62302 4226.3271 -186.30272 34679
275.34265 4226.1343 -186.36157 34679
277.57397 4225.8262 -186.40808 34679
279.65442 4225.5376 -186.43883 34679
281.29987 4224.8809 -186.72655 34679
283.30505 4224.9102 -186.5928 34679
287.53229 4224.5039 -186.57001 34679
289.7847 4224.4048 -186.589 34679
291.57169 4224.3667 -186.50153 34679
295.52859 4224.1948 -186.40599 34679
297.41586 4224.6089 -186.09441 34679
299.45554 4224.6245 -186.09598 34679
305.40308 4224.396 -186.03586 34679
699.80054 4226.9546 -186.82866 34679
701.35486 4225.5107 -186.45961 34679
211.50186 4229.8091 -186.97092 34679
223.10161 4229.2905 -186.96007 34679
227.68037 4229.0005 -186.5334 34679
229.26125 4228.4507 -186.82368 34679
231.52419 4229.52 -186.33708 34679
233.31081 4229.4204 -186.35542 34679
235.45261 4229.1035 -186.51564 34679
237.40553 4228.9224 -186.41638 34679
239.33076 4228.022 -186.80537 34679
243.57329 4227.8975 -186.54282 34679
245.2778 4228.4185 -186.12187 34679
247.29785 4227.7622 -186.51666 34679
249.63831 4227.8125 -186.4071 34679
251.44585 4228.0947 -186.20494 34679
255.31514 4227.8843 -186.14561 34679
259.30743 4227.8311 -186.09872 34679
263.21832 4227.3511 -186.26633 34679
267.75333 4227.8081 -186.06328 34679
671.3833 4229.8022 -186.36908 34679
673.45459 4229.2944 -186.24884 34679
675.22791 4229.4307 -186.69264 34679
677.37012 4229.2593 -186.42242 34679
679.48547 4229.168 -186.42686 34679
687.31403 4227.4111 -186.04744 34679
693.24847 4227.6304 -186.35548 34679
695.0061 4227.1938 -186.06889 34679
696.70978 4227.6411 -186.90492 34679
698.26355 4227.3022 -186.57222 34679
189.39767 4232.0625 -186.62704 34679
191.09048 4232.7554 -186.23747 34679
192.37787 4231.4233 -186.80345 34679
195.31543 4231.9531 -186.13803 34679
196.4939 4231.6201 -186.50287 34679
199.13609 4232.1743 -186.18478 34679
201.47432 4232.103 -186.19069 34679
203.2202 4231.897 -186.20885 34679
205.19066 4231.9302 -186.07939 34679
206.23083 4231.293 -186.34633 34679
207.7032 4230.5566 -186.62282 34679
209.51657 4230.7314 -186.42204 34679
213.11977 4230.3647 -186.55151 34679
215.5988 4230.5845 -186.40695 34679
219.34296 4230.7769 -186.19261 34679
223.48456 4230.3599 -186.28758 34679
225.58284 4230.064 -186.14058 34679
321.54907 4232.8838 -186.06439 34679
325.51376 4232.8428 -186.04517 34679
327.44693 4232.9644 -186.02951 34679
445.42972 4232.9307 -186.11931 34679
588.66589 4232.814 -186.15123 34679
592.60223 4232.583 -186.0186 34679
597.5069 4232.4819 -186.40761 34679
600.258 4232.626 -186.83641 34679
602.89807 4231.5591 -186.44345 34679
605.07916 4231.6372 -186.48761 34679
606.48676 4232.2471 -186.87285 34679
608.39502 4231.7129 -186.38931 34679
609.5285 4232.2778 -186.46278 34679
610.23706 4232.167 -186.46472 34679
611.86005 4231.6182 -186.43793 34679
614.4436 4232.499 -186.81122 34679
617.32996 4232.8643 -186.5204 34679
621.44006 4232.8418 -186.73929 34679
625.31586 4232.4658 -186.57976 34679
627.48096 4232.626 -186.87929 34679
629.14709 4232.5186 -186.79716 34679
631.43469 4232.4126 -186.75089 34679
645.32208 4231.2979 -186.4991 34679
649.42108 4231.1533 -186.53223 34679
653.57483 4230.8745 -186.49071 34679
655.59985 4230.8784 -186.60005 34679
657.44867 4230.7603 -186.34244 34679
659.48383 4230.6733 -186.36728 34679
663.33032 4230.4697 -186.30342 34679
667.52771 4230.2891 -186.36797 34679
441.39737 4234.8608 -186.18016 34679
443.42831 4234.959 -186.17009 34679
447.14117 4235.0171 -186.12315 34679
449.33722 4234.9297 -186.10071 34679
451.61588 4234.7021 -186.08141 34679
561.50989 4235.7188 -186.063 34679
563.77509 4235.6118 -186.06194 34679
567.50397 4235.4346 -186.04416 34679
571.25653 4235.9858 -186.44777 34679
577.39764 4235.7256 -186.63905 34679
579.34894 4235.582 -186.48346 34679
581.43634 4235.3857 -186.37737 34679
585.9834 4234.4463 -186.96292 34679
590.55365 4233.5776 -186.48647 34679
591.73444 4233.6846 -186.55684 34679
594.96429 4233.2915 -186.644 34679
619.40149 4233.019 -186.77939 34679
203.13791 4238.959 -186.31317 34679
205.49527 4238.3735 -186.22018 34679
207.15746 4238.8926 -186.29504 34679
209.31477 4238.8242 -186.28284 34679
211.32492 4238.6709 -186.25963 34679
413.34271 4238.98 -186.10948 34679
421.4126 4237.9414 -186.10092 34679
439.27957 4237.0728 -186.08084 34679
441.63431 4236.8916 -186.09528 34679
443.53879 4236.9985 -186.07895 34679
445.50223 4237.0615 -186.06042 34679
449.36121 4237.1357 -186.02942 34679
451.77246 4237.0171 -186.02466 34679
453.63815 4236.9702 -186.01054 34679
511.63425 4238.9888 -186.08264 34679
527.42358 4238.9155 -186.45517 34679
529.42267 4238.0254 -186.08328 34679
531.36151 4237.9238 -186.11435 34679
533.50659 4237.8691 -186.16452 34679
535.60297 4237.8115 -186.25587 34679
539.38605 4237.7192 -186.25197 34679
541.51324 4237.4072 -186.17082 34679
543.61182 4237.3052 -186.23709 34679
545.94659 4237.1411 -186.19836 34679
547.55353 4237.7197 -186.65515 34679
549.50793 4237.5327 -186.60629 34679
551.54944 4237.6284 -186.75349 34679
553.3313 4237.5156 -186.7415 34679
557.2843 4237.2642 -186.83237 34679
559.54913 4237.1353 -186.88562 34679
565.52313 4236.7017 -186.94028 34679
569.64459 4236.5918 -186.93649 34679
573.48145 4236.1255 -186.70551 34679
349.59839 4240.7485 -186.49362 34679
417.3902 4239.02 -186.07466 34679
419.30429 4239.0923 -186.05621 34679
475.53989 4241.9648 -186.19676 34679
479.90683 4241.5771 -186.29691 34679
481.34537 4241.4282 -186.37039 34679
485.47192 4241.3286 -186.40323 34679
487.3269 4241.3398 -186.3103 34679
491.4877 4241.5229 -186.61855 34679
493.43585 4240.2051 -186.00691 34679
495.39728 4241.8433 -186.82466 34679
497.37772 4240.1299 -186.05614 34679
499.57687 4240.7695 -186.49475 34679
501.34366 4241.353 -186.9026 34679
503.54843 4240.6157 -186.57999 34679
505.4873 4241.0532 -186.95753 34679
507.4104 4239.7856 -186.27893 34679
509.25781 4240.7344 -186.98131 34679
513.44299 4240.2319 -186.83595 34679
515.60321 4239.2852 -186.29524 34679
517.41333 4239.9233 -186.74991 34679
519.5575 4239.7754 -186.74962 34679
521.46759 4239.624 -186.72824 34679
523.5282 4239.6504 -186.83856 34679
525.31232 4239.3403 -186.68047 34679
529.44824 4239.3149 -186.84314 34679
533.40277 4239.0815 -186.98445 34679
305.31125 4244.8955 -186.64105 34679
309.44327 4244.9688 -186.59641 34679
349.52853 4242.939 -186.43863 34679
369.4599 4242.9956 -186.24443 34679
373.47061 4242.999 -186.20085 34679
419.58875 4244.6797 -186.06226 34679
423.64633 4244.0112 -186.03114 34679
435.61465 4244.167 -186.2054 34679
437.51068 4244.0566 -186.21437 34679
439.30341 4244.0903 -186.24174 34679
441.46841 4244.1025 -186.27518 34679
443.65714 4244.1128 -186.30994 34679
447.49744 4244.0205 -186.37274 34679
451.43848 4243.8433 -186.52242 34679
453.49561 4242.8848 -186.28839 34679
455.45288 4243.3906 -186.53314 34679
465.35245 4242.2593 -186.12805 34679
467.50922 4242.7153 -186.34439 34679
469.39423 4242.667 -186.35123 34679
471.35306 4243.6069 -186.9917 34679
473.58212 4243.2944 -186.87146 34679
477.4422 4242.0088 -186.34731 34679
309.41827 4246.9692 -186.51434 34679
311.18073 4247.0679 -186.48926 34679
313.66727 4246.9136 -186.46471 34679
315.20251 4246.0918 -186.48039 34679
349.69781 4246.4824 -186.17624 34679
365.54333 4245.6987 -186.07678 34679
367.77753 4247.729 -186.10814 34679
369.53635 4245.606 -186.02135 34679
373.48642 4245.9541 -186.0345 34679
377.48932 4246.1694 -186.0475 34679
381.49869 4246.1079 -186.14607 34679
383.3479 4246.1489 -186.17264 34679
407.62207 4247.4404 -186.91669 34679
409.57535 4246.0781 -186.2878 34679
411.47775 4246.0596 -186.31639 34679
413.59598 4246.0913 -186.34721 34679
417.4801 4246.0117 -186.3568 34679
419.55655 4246.0088 -186.34872 34679
421.29712 4245.9658 -186.44916 34679
423.66592 4245.6201 -186.53918 34679
425.4451 4245.3447 -186.55867 34679
429.68686 4245.2734 -186.54494 34679
431.59457 4245.2119 -186.48801 34679
437.35471 4245.5684 -186.95064 34679
443.45816 4245.3843 -186.97362 34679
237.79477 4250.7368 -186.86218 34679
241.53773 4248.8276 -186.88925 34679
243.39761 4250.8203 -186.84459 34679
245.55371 4250.9478 -186.80695 34679
283.37265 4249.0962 -186.60844 34679
285.46637 4249.1445 -186.59721 34679
287.54156 4248.9648 -186.59613 34679
289.47638 4248.8838 -186.56793 34679
291.54257 4249.333 -186.50774 34679
293.33322 4249.0361 -186.50392 34679
295.34399 4249.4829 -186.46034 34679
297.73889 4248.7207 -186.52539 34679
303.50381 4249.5615 -186.4285 34679
305.28122 4249.4507 -186.41177 34679
307.61569 4249.7861 -186.3344 34679
309.58655 4249.6558 -186.30957 34679
311.58194 4249.646 -186.26775 34679
313.47601 4249.939 -186.20151 34679
315.33511 4249.7632 -186.18845 34679
317.45462 4249.936 -186.15962 34679
321.63379 4250.0049 -186.12929 34679
323.59839 4250.0557 -186.15431 34679
325.23022 4250.1494 -186.30901 34679
327.56741 4250.6719 -186.19116 34679
329.88263 4250.8203 -186.38776 34679
331.45389 4250.1938 -186.1292 34679
333.67502 4250.7598 -186.3584 34679
335.48679 4250.1016 -186.19983 34679
339.49048 4250.165 -186.32217 34679
341.43219 4249.9258 -186.35011 34679
345.4938 4249.1401 -186.2793 34679
347.40387 4248.1328 -186.00433 34679
349.56784 4250.1138 -186.48079 34679
351.43253 4248.0581 -186.20358 34679
353.56308 4250.0791 -186.54205 34679
357.6362 4248.0498 -186.03127 34679
359.48425 4249.3398 -186.28949 34679
361.52866 4249.1724 -186.38507 34679
363.62622 4248.8062 -186.32704 34679
365.26208 4249.4229 -186.52628 34679
367.38455 4249.8608 -186.80035 34679
369.57742 4248.8828 -186.59781 34679
373.41006 4248.0332 -186.33321 34679
375.46906 4248.7217 -186.60013 34679
377.53851 4248.6084 -186.56793 34679
379.457 4249.3286 -186.93307 34679
381.44269 4248.1143 -186.45892 34679
383.54169 4248.0767 -186.48015 34679
207.32129 4252.7915 -186.994 34679
209.28458 4253.0513 -186.98608 34679
211.36757 4253.0962 -186.99377 34679
229.3831 4253.0767 -186.82495 34679
233.53125 4252.9927 -186.79156 34679
235.62604 4252.8232 -186.7894 34679
237.45023 4253.0132 -186.77037 34679
239.41852 4253.0474 -186.75873 34679
241.37843 4253.0864 -186.72542 34679
243.25339 4253.8457 -186.64804 34679
245.66299 4253.2212 -186.67366 34679
247.50438 4253.5088 -186.62605 34679
249.54622 4253.4673 -186.59433 34679
273.29623 4251.6885 -186.52902 34679
279.55081 4251.6841 -186.44836 34679
281.48132 4252.1577 -186.3929 34679
283.81699 4251.2388 -186.46672 34679
285.49429 4251.9321 -186.36775 34679
287.64087 4251.8633 -186.31329 34679
289.3754 4252.1553 -186.38165 34679
291.76648 4252.0352 -186.22211 34679
293.54199 4252.2847 -186.35036 34679
295.64713 4252.0859 -186.33266 34679
297.72293 4252.7529 -186.44838 34679
299.81784 4252.667 -186.4554 34679
301.60727 4252.6582 -186.44661 34679
305.35745 4252.8477 -186.534 34679
307.62241 4253.0688 -186.64069 34679
309.50742 4252.7642 -186.62495 34679
311.56012 4253.0654 -186.70634 34679
315.39682 4252.1865 -186.61545 34679
321.24664 4252.4702 -186.70306 34679
323.85901 4252.1904 -186.69302 34679
325.4343 4252.0933 -186.6595 34679
327.56998 4252.1748 -186.68919 34679
333.76987 4251.9922 -186.64026 34679
337.42355 4251.8706 -186.86528 34679
341.44293 4251.686 -186.95947 34679
343.5499 4251.5313 -186.91872 34679
347.57202 4251.3745 -186.92685 34679
351.14746 4251.2729 -186.99908 34679
207.64766 4254.7275 -186.93564 34679
209.43594 4255.1357 -186.92993 34679
211.72662 4254.8735 -186.92189 34679
213.39656 4255.7544 -186.84964 34679
215.6377 4255.4946 -186.86812 34679
223.59698 4255.6533 -186.68997 34679
225.61174 4255.6128 -186.68465 34679
227.57367 4255.6421 -186.66783 34679
229.41927 4255.7778 -186.61353 34679
233.50186 4255.9258 -186.52017 34679
235.18398 4255.9365 -186.51115 34679
237.62341 4255.5298 -186.5352 34679
239.60078 4256.0972 -186.48935 34679
241.25777 4256.1787 -186.64146 34679
243.66214 4256.0762 -186.60504 34679
247.73643 4256.5303 -186.64323 34679
251.68832 4256.7402 -186.78305 34679
253.50281 4256.7974 -186.85896 34679
255.64069 4256.6284 -186.8958 34679
259.54517 4254.1699 -186.40085 34679
261.3204 4256.2905 -186.83005 34679
263.45734 4255.1094 -186.65689 34679
265.65543 4255.8149 -186.75584 34679
267.39444 4255.2676 -186.6824 34679
269.57416 4256.2412 -186.85631 34679
271.64413 4255.231 -186.67012 34679
273.47131 4255.3906 -186.70105 34679
275.48715 4255.4561 -186.69604 34679
277.49908 4255.5059 -186.73325 34679
279.54764 4256.1089 -186.95496 34679
281.72437 4254.7178 -186.70151 34679
283.66602 4254.8306 -186.79062 34679
285.77295 4254.1265 -186.6622 34679
287.71609 4254.1387 -186.68344 34679
289.22345 4254.2671 -186.7039 34679
291.72598 4254.27 -186.6537 34679
295.59528 4254.3345 -186.47546 34679
299.61362 4254.228 -186.70476 34679
301.39832 4254.2969 -186.78499 34679
303.74994 4254.0479 -186.65659 34679
307.55017 4254.1187 -186.92206 34679
161.4445 4259.3306 -186.99609 34679
167.70161 4259.6484 -186.95979 34679
169.44173 4259.6978 -186.87985 34679
173.47461 4259.7681 -186.81346 34679
175.58134 4259.854 -186.81509 34679
177.47766 4259.9409 -186.82825 34679
183.26685 4259.5938 -186.90683 34679
187.65442 4257.7412 -186.96535 34679
193.43103 4257.8247 -186.87386 34679
195.83237 4257.439 -186.84352 34679
197.60898 4258.7129 -186.8443 34679
201.37169 4257.9761 -186.78755 34679
211.96483 4258.1147 -186.67418 34679
213.31169 4257.998 -186.78815 34679
215.73499 4258.77 -186.89565 34679
219.70073 4259.2861 -186.94682 34679
221.43649 4259.6597 -186.92781 34679
223.638 4258.6978 -186.87317 34679
225.57661 4258.8604 -186.95007 34679
227.72447 4258.6289 -186.98666 34679
229.49538 4258.6465 -186.99989 34679
231.4016 4258.1504 -186.92752 34679
233.63928 4258.1592 -186.91293 34679
235.2794 4258.3237 -186.96143 34679
237.88399 4258.1084 -186.9348 34679
241.41089 4258.1235 -186.94757 34679
243.58762 4258.252 -186.97121 34679
245.46179 4257.7261 -186.87631 34679
247.49246 4258.2759 -186.86253 34679
249.54811 4257.4102 -186.7356 34679
158.65085 4261.2139 -186.89037 34679
171.6274 4260.02 -186.81592 34679
179.31277 4260.0645 -186.8488 34679
185.0481 4260.1318 -186.92302 34679
189.59512 4261.5122 -186.95973 34679
199.51076 4260.1372 -186.95912 34679
671.25287 4196.3237 -185.21854 34679
681.40564 4196.1631 -185.32651 34679
682.06726 4195.7046 -185.86682 34679
686.93878 4196.5264 -185.00253 34679
688.78406 4196.4536 -185.94075 34679
697.71118 4196.0342 -185.88026 34679
629.49603 4199.6577 -185.51558 34679
635.26282 4199.6323 -185.2079 34679
643.05048 4199.1016 -185.31129 34679
645.91785 4199.0581 -185.16107 34679
647.3595 4198.9165 -185.11359 34679
651.52551 4198.4492 -185.00647 34679
667.02966 4197.5439 -185.17194 34679
685.29468 4197.0591 -185.05183 34679
691.03558 4197.6567 -185.33128 34679
693.28381 4197.2383 -185.2999 34679
695.19861 4197.1885 -185.33142 34679
699.19928 4197.708 -185.27615 34679
700.19989 4199.5483 -185.14082 34679
701.66235 4198.6768 -185.55135 34679
703.63348 4198.627 -185.85271 34679
600.36676 4202.7295 -185.47862 34679
602.95844 4201.4551 -185.95654 34679
609.52057 4202.4521 -185.05103 34679
611.44354 4202.4023 -185.01042 34679
613.27448 4200.8853 -185.88551 34679
615.7597 4201.0483 -185.50909 34679
617.45349 4200.5313 -185.8004 34679
619.45007 4200.7842 -185.43765 34679
623.28625 4200.5596 -185.3705 34679
627.55823 4200.4878 -185.30017 34679
701.42096 4201.8604 -185.4881 34679
555.47711 4205.1553 -185.91483 34679
557.29706 4205.2671 -185.68347 34679
561.22394 4204.7246 -185.57816 34679
563.52911 4204.9893 -185.33508 34679
567.26825 4204.6875 -185.30518 34679
569.26721 4204.7827 -185.23839 34679
571.2796 4204.6563 -185.28355 34679
575.37476 4204.5596 -185.28929 34679
578.30408 4205.6021 -185.1787 34679
581.06885 4204.6826 -185.56775 34679
591.16791 4204.2534 -185.17867 34679
595.71002 4203.145 -185.49182 34679
602.91962 4203.104 -185.24405 34679
699.00537 4203.7051 -185.03993 34679
700.64508 4205.9102 -185.48589 34679
701.047 4204.0298 -185.5157 34679
505.57593 4208.7725 -185.80975 34679
515.53406 4208.5479 -185.69823 34679
519.49762 4208.4683 -185.60088 34679
521.4649 4207.6631 -185.97443 34679
523.38605 4207.8975 -185.76715 34679
525.20294 4208.5615 -185.3756 34679
527.34253 4208.2905 -185.40169 34679
529.45221 4208.0776 -185.26047 34679
533.55908 4207.8774 -185.04233 34679
535.41522 4206.957 -185.47263 34679
539.24579 4206.7661 -185.45036 34679
541.54376 4206.5977 -185.38095 34679
