# .PCD v0.7 - Point Cloud Data file format
VERSION 0.7
FIELDS x y z rgba
SIZE 4 4 4 4
TYPE F F F U
COUNT 1 1 1 1
WIDTH 1147
HEIGHT 1
VIEWPOINT 0 0 0 1 0 0 0
POINTS 1147
DATA ascii
641.42975 4002.5371 -226.32198 4294967070
669.7522 4002.7048 -226.4037 4294967070
672.34393 4002.614 -226.49287 4294967070
674.46655 4002.6799 -226.34457 4294967070
678.39502 4006.5271 -226.53897 4294967070
678.60211 4010.335 -226.60361 4294967070
678.67041 4015.1997 -226.59485 4294967070
659.42688 4024.5576 -226.93106 4294967070
667.16968 4024.6338 -226.59747 4294967070
669.86047 4024.7495 -226.65999 4294967070
672.20435 4024.7925 -226.68123 4294967070
675.34003 4024.1013 -226.4126 4294967070
641.2027 4029.4839 -226.97751 4294967070
641.32715 4034.4041 -226.68182 4294967070
641.17798 4037.1414 -226.19925 4294967070
641.65619 4003.1685 -225.38347 4294967071
645.31317 4003.3318 -225.10326 4294967071
646.90729 4003.3889 -225.181 4294967071
649.39197 4003.5029 -225.68248 4294967071
643.88684 4025.6082 -225.21706 4294967071
647.49292 4024.8977 -225.63165 4294967071
653.85693 4024.5303 -225.13879 4294967071
654.95648 4024.5039 -225.35109 4294967071
639.40051 4028.3618 -225.00681 4294967071
640.7832 4027.0469 -225.10934 4294967071
639.04828 4031.6375 -225.42967 4294967071
637.60474 4002.9553 -224.37422 4294967072
643.2395 4003.387 -224.99776 4294967072
650.98456 4003.6348 -224.82664 4294967072
657.21246 4003.5623 -224.87483 4294967072
659.49048 4003.3882 -224.90169 4294967072
667.50793 4002.8718 -224.91306 4294967072
670.37158 4002.7791 -224.27353 4294967072
673.89105 4003.1948 -224.45634 4294967072
676.82458 4005.614 -224.41722 4294967072
677.37604 4007.5432 -224.31387 4294967072
677.36011 4010.4785 -224.58134 4294967072
665.88135 4024.6069 -224.99457 4294967072
667.59039 4024.6567 -224.88179 4294967072
670.53595 4024.7458 -224.6402 4294967072
674.21503 4024.302 -224.50099 4294967072
637.13696 4031.875 -224.00424 4294967072
638.72333 4029.7913 -224.92464 4294967072
637.72375 4034.2188 -224.08429 4294967072
635.6192 4002.3101 -223.26126 4294967073
636.67639 4003.573 -223.20447 4294967073
639.64307 4003.7417 -223.47247 4294967073
640.67505 4003.7583 -223.66199 4294967073
643.67108 4003.7307 -223.71606 4294967073
645.15106 4003.7585 -223.12776 4294967073
647.46289 4003.8362 -223.231 4294967073
657.93793 4003.3894 -223.35191 4294967073
668.42316 4002.7896 -223.01312 4294967073
676.06818 4005.6614 -223.00188 4294967073
643.53131 4025.2144 -223.65643 4294967073
644.81519 4024.8887 -223.66789 4294967073
647.17102 4024.6501 -223.40929 4294967073
648.85693 4024.5786 -223.38708 4294967073
651.00647 4024.5559 -223.00061 4294967073
637.21143 4028.3989 -223.23294 4294967073
638.36279 4027.6951 -223.84683 4294967073
639.30414 4026.5337 -223.15665 4294967073
637.10236 4029.6252 -223.93063 4294967073
635.59802 4003.5417 -222.6152 4294967074
639.90332 4004.0811 -222.42236 4294967074
649.35419 4003.8386 -222.61423 4294967074
652.69678 4003.75 -222.50171 4294967074
661.35858 4003.0398 -222.77725 4294967074
665.47131 4002.8645 -222.69376 4294967074
670.77985 4002.9207 -222.13095 4294967074
672.3775 4003.3098 -222.47188 4294967074
675.9444 4007.3423 -222.22331 4294967074
676.05701 4012.4028 -222.49902 4294967074
676.30811 4017.876 -222.15242 4294967074
676.04865 4021.9788 -222.39163 4294967074
653.25885 4024.5981 -222.03822 4294967074
663.68439 4024.5647 -222.88396 4294967074
665.75183 4024.6536 -222.76524 4294967074
668.66498 4024.8408 -222.53058 4294967074
670.78088 4024.7686 -222.24074 4294967074
672.1239 4024.4072 -222.36513 4294967074
635.35278 4030.7192 -222.52991 4294967074
633.20026 4002.6702 -221.71045 4294967075
640.61829 4004.2769 -221.92532 4294967075
642.98547 4004.2068 -221.36771 4294967075
639.05713 4025.8665 -221.69963 4294967075
644.77686 4024.7842 -221.21338 4294967075
647.50909 4024.7654 -221.67024 4294967075
651.29327 4024.6843 -221.10368 4294967075
635.67694 4027.9001 -221.73273 4294967075
637.39813 4026.324 -221.08594 4294967075
635.55042 4041.9199 -221.91656 4294967075
636.70575 4004.6228 -220.84906 4294967076
653.60284 4003.8203 -220.99431 4294967076
655.13055 4003.6846 -220.82108 4294967076
657.31116 4003.4353 -220.52933 4294967076
659.52771 4003.1345 -220.73885 4294967076
662.84558 4002.8088 -220.56833 4294967076
666.78387 4002.7017 -220.68643 4294967076
671.0708 4003.1877 -220.76892 4294967076
673.22894 4004.3682 -220.78249 4294967076
674.89856 4007.6606 -220.75 4294967076
674.70886 4010.7153 -220.66985 4294967076
675.50482 4020.6758 -220.65599 4294967076
649.10297 4024.7524 -220.85828 4294967076
653.40033 4024.6455 -220.8878 4294967076
666.24725 4024.8643 -220.49464 4294967076
668.34479 4024.8167 -220.16919 4294967076
670.36218 4024.573 -220.15877 4294967076
671.81702 4024.2341 -220.31841 4294967076
674.24011 4023.2744 -220.814 4294967076
633.44855 4028.2471 -220.29013 4294967076
631.31421 4031.4456 -220.03668 4294967076
632.59064 4031.8552 -220.80365 4294967076
633.27264 4034.4795 -220.97681 4294967076
633.33722 4036.8174 -220.70493 4294967076
632.97375 4039.1382 -220.32433 4294967076
627.45825 4001.7031 -219.04564 4294967077
633.04742 4004.5374 -219.26749 4294967077
635.10059 4004.8237 -219.12787 4294967077
637.02722 4004.8347 -219.65817 4294967077
638.35474 4004.8496 -219.55634 4294967077
642.02539 4004.4839 -219.3969 4294967077
645.16132 4004.3479 -219.2605 4294967077
655.56775 4003.7358 -219.29257 4294967077
661.43091 4002.8237 -219.16449 4294967077
637.35956 4025.7485 -219.17044 4294967077
640.79895 4025.114 -219.60097 4294967077
643.01709 4025.0374 -219.30867 4294967077
649.52264 4024.8926 -219.07394 4294967077
634.88654 4026.3132 -219.11249 4294967077
631.3197 4034.6519 -219.66307 4294967077
631.34155 4038.6919 -219.36217 4294967077
627.35278 4003.2429 -218.40309 4294967078
631.21741 4004.2122 -218.946 4294967078
647.73199 4004.345 -218.97224 4294967078
653.24139 4004.0889 -218.67986 4294967078
659.28571 4003.1052 -218.90128 4294967078
665.99988 4002.6357 -218.17561 4294967078
668.54218 4003.05 -218.26985 4294967078
672.047 4004.2922 -218.92439 4294967078
673.05487 4007.062 -218.39291 4294967078
673.13501 4010.2964 -218.54027 4294967078
673.34381 4012.5942 -218.66417 4294967078
673.41498 4015.1614 -218.3851 4294967078
674.17621 4019.9319 -218.40944 4294967078
673.69684 4021.8567 -218.58015 4294967078
646.84125 4024.9951 -218.58525 4294967078
653.12671 4024.781 -218.74525 4294967078
663.5899 4024.7825 -218.68768 4294967078
666.43481 4024.8406 -218.61305 4294967078
668.6405 4024.6975 -218.36298 4294967078
670.55609 4024.304 -218.27483 4294967078
672.8609 4023.1667 -218.82104 4294967078
629.78284 4028.6873 -218.16765 4294967078
631.40924 4027.9741 -218.69165 4294967078
628.81677 4031.7307 -218.54471 4294967078
629.06915 4029.7173 -218.17136 4294967078
629.05115 4034.6052 -218.36557 4294967078
629.52948 4036.5193 -218.51477 4294967078
629.22778 4039.0662 -218.09918 4294967078
625.11041 4001.9048 -217.75479 4294967079
625.63336 4003.9302 -217.31677 4294967079
657.53674 4003.4111 -217.02756 4294967079
671.13257 4004.8662 -217.04126 4294967079
628.97528 4005.0193 -217.22281 4294967079
634.68256 4005.2266 -217.61047 4294967079
639.5575 4005.0591 -217.01074 4294967079
636.88257 4025.5891 -217.43808 4294967079
639.11908 4025.2537 -217.49162 4294967079
641.01105 4025.2241 -217.37389 4294967079
643.95966 4025.1594 -217.6268 4294967079
631.51434 4026.9153 -217.33005 4294967079
626.86475 4031.7341 -217.42929 4294967079
627.66187 4034.8411 -217.60468 4294967079
627.29956 4036.8674 -217.17569 4294967079
627.67389 4038.7368 -217.22643 4294967079
622.7226 4001.6389 -216.7887 4294967080
622.97705 4003.5564 -216.47168 4294967080
641.28613 4004.8765 -216.87808 4294967080
643.49133 4004.7554 -216.81053 4294967080
649.30682 4004.6279 -216.82327 4294967080
650.88855 4004.5017 -216.93718 4294967080
654.78204 4003.9805 -216.57133 4294967080
659.06012 4003.1626 -216.79758 4294967080
662.38403 4002.6323 -216.65015 4294967080
666.05847 4002.7114 -216.31494 4294967080
668.5343 4003.5129 -216.43692 4294967080
671.88184 4007.6233 -216.84941 4294967080
671.65155 4010.1936 -216.63539 4294967080
672.41992 4018.0349 -216.51561 4294967080
672.4184 4021.9797 -216.67055 4294967080
647.47198 4025.1257 -216.88074 4294967080
651.45923 4024.9529 -216.99715 4294967080
661.64362 4024.8105 -216.77145 4294967080
664.35938 4024.9211 -216.57339 4294967080
668.37585 4024.5469 -216.20027 4294967080
669.60852 4024.1899 -216.21523 4294967080
671.43256 4023.3667 -216.86398 4294967080
627.26532 4028.4163 -216.40898 4294967080
629.1701 4027.7644 -216.9868 4294967080
624.89825 4031.0386 -216.31442 4294967080
625.41254 4036.7273 -216.18074 4294967080
644.13281 4004.9333 -215.25348 4294967081
647.10724 4004.9036 -215.10635 4294967081
621.66626 4005.1182 -215.07687 4294967081
623.64258 4005.3008 -215.54797 4294967081
627.29974 4005.8557 -215.55702 4294967081
633.41284 4005.7854 -215.52388 4294967081
634.95868 4005.7705 -215.21828 4294967081
633.49011 4025.8831 -215.89752 4294967081
634.70148 4025.6541 -215.47539 4294967081
637.19672 4025.4409 -215.84462 4294967081
641.71057 4025.4795 -215.07918 4294967081
666.91229 4024.6636 -215.58501 4294967081
625.5766 4028.2561 -215.26257 4294967081
628.93011 4026.9578 -215.26659 4294967081
623.25885 4034.259 -215.3102 4294967081
651.09351 4004.5823 -214.90495 4294967082
653.5097 4004.2158 -214.71924 4294967082
655.47937 4003.8833 -214.83058 4294967082
657.15204 4003.5867 -214.23738 4294967082
667.02203 4003.5242 -214.31305 4294967082
668.73077 4004.6406 -214.61336 4294967082
625.38715 4006.3157 -214.43611 4294967082
637.62958 4005.5649 -214.92064 4294967082
640.94067 4005.3147 -214.7213 4294967082
669.87469 4007.5366 -214.28622 4294967082
669.71411 4010.4419 -214.39058 4294967082
669.99963 4012.6111 -214.61279 4294967082
670.30243 4014.9609 -214.69052 4294967082
670.81317 4017.6323 -214.64233 4294967082
670.74805 4022.1897 -214.60506 4294967082
671.02777 4021.0933 -214.28238 4294967082
639.41937 4025.5313 -214.77629 4294967082
666.48456 4024.5239 -214.31169 4294967082
669.83319 4023.387 -214.75456 4294967082
623.51868 4028.6636 -214.44489 4294967082
620.67456 4030.8328 -214.13731 4294967082
621.73206 4029.6458 -214.0979 4294967082
623.23627 4038.7166 -214.95139 4294967082
622.86108 4044.4224 -214.69368 4294967082
655.82294 4003.8296 -213.09773 4294967083
664.23535 4002.7141 -213.9877 4294967083
617.50214 4005.4963 -213.4265 4294967083
619.50122 4005.3752 -213.99855 4294967083
623.09552 4006.6816 -213.31503 4294967083
633.20642 4006.1973 -213.17825 4294967083
645.66571 4005.1765 -213.03679 4294967083
634.90491 4025.7739 -213.23727 4294967083
637.31439 4025.6882 -213.25748 4294967083
665.0387 4024.6436 -213.93437 4294967083
621.31012 4028.8359 -213.33842 4294967083
623.29907 4027.6748 -213.04213 4294967083
625.27167 4027.3494 -213.26865 4294967083
627.0014 4027.1067 -213.81178 4294967083
630.88232 4026.1704 -213.65401 4294967083
619.26141 4030.7915 -213.24773 4294967083
619.00366 4034.3643 -213.42203 4294967083
651.20667 4004.563 -212.97002 4294967084
613.80804 4005.1624 -212.27571 4294967084
635.41528 4006.0183 -212.99899 4294967084
637.67841 4005.8484 -212.88458 4294967084
641.60431 4005.509 -212.92201 4294967084
642.68848 4005.4648 -212.33153 4294967084
647.46735 4005.0232 -212.85968 4294967084
667.94049 4005.5107 -212.55588 4294967084
668.12726 4006.6904 -212.33795 4294967084
668.24921 4010.1897 -212.52217 4294967084
668.1748 4012.6907 -212.56137 4294967084
669.1167 4019.1565 -212.51714 4294967084
639.59863 4025.6892 -212.83717 4294967084
660.89789 4024.929 -212.64696 4294967084
666.22644 4024.198 -212.43713 4294967084
668.50885 4023.4033 -212.5618 4294967084
619.54187 4028.9827 -212.57684 4294967084
625.49396 4027.2004 -212.43382 4294967084
626.927 4026.9004 -212.10873 4294967084
617.21661 4031.0808 -212.48129 4294967084
615.03217 4034.1582 -212.00543 4294967084
617.26776 4033.624 -212.83249 4294967084
659.95654 4003.0398 -211.88428 4294967085
662.2486 4003.1157 -211.67096 4294967085
665.7066 4004.0566 -211.27623 4294967085
613.37732 4006.3687 -211.31981 4294967085
615.3197 4006.7173 -211.37819 4294967085
619.31226 4007.0737 -211.89148 4294967085
620.99628 4007.0315 -211.88799 4294967085
639.94696 4005.7781 -211.38242 4294967085
643.41742 4005.459 -211.16827 4294967085
667.11279 4006.8867 -211.18929 4294967085
639.76459 4025.8054 -211.04866 4294967085
662.55811 4024.7764 -211.68611 4294967085
664.86224 4024.5837 -211.74437 4294967085
617.7536 4028.9944 -211.80391 4294967085
619.54761 4027.9346 -211.1427 4294967085
621.32684 4027.6577 -211.25345 4294967085
622.43927 4027.4861 -211.39861 4294967085
628.82422 4026.5244 -211.69441 4294967085
630.82776 4026.2888 -211.7574 4294967085
635.07867 4026.0068 -211.05803 4294967085
615.2168 4030.405 -211.40317 4294967085
617.16266 4029.4475 -211.79172 4294967085
613.41412 4033.5535 -211.51253 4294967085
655.71808 4003.6533 -210.24075 4294967086
663.6366 4003.7434 -210.6144 4294967086
611.12091 4006.5146 -210.50096 4294967086
617.06592 4007.4443 -210.38298 4294967086
633.14203 4006.4021 -210.72794 4294967086
636.87219 4006.0857 -210.74942 4294967086
667.31134 4017.9233 -210.91594 4294967086
666.90155 4021.7773 -210.25394 4294967086
637.24121 4025.9109 -210.74638 4294967086
666.46661 4023.396 -210.55394 4294967086
616.48853 4028.5647 -210.36163 4294967086
622.75861 4027.3252 -210.52936 4294967086
633.20715 4026.1875 -210.87984 4294967086
611.64386 4030.5525 -210.01961 4294967086
612.75891 4031.6064 -210.86656 4294967086
613.13824 4030.3186 -210.47064 4294967086
611.06769 4033.7878 -210.58638 4294967086
609.54419 4036.1086 -210.06807 4294967086
611.48114 4036.405 -210.65532 4294967086
607.31995 4006.9197 -209.43846 4294967087
611.42114 4007.6086 -209.12781 4294967087
615.11395 4007.5859 -209.75125 4294967087
641.44482 4005.699 -209.16359 4294967087
665.59808 4007.0154 -209.51152 4294967087
664.16522 4024.3052 -209.96176 4294967087
665.64832 4023.082 -209.0217 4294967087
615.53467 4028.6172 -209.84912 4294967087
617.0246 4027.9888 -209.15678 4294967087
619.08771 4027.7312 -209.72498 4294967087
620.69263 4027.5281 -209.99222 4294967087
624.63208 4027.1316 -209.37169 4294967087
629.53882 4026.7507 -209.22449 4294967087
609.19299 4031.1838 -209.39246 4294967087
613.64001 4029.0449 -209.51749 4294967087
605.25964 4033.7761 -209.05493 4294967087
606.98242 4033.5393 -209.39626 4294967087
609.4068 4032.9924 -209.96596 4294967087
605.53674 4036.3408 -209.10056 4294967087
607.31781 4036.6602 -209.45233 4294967087
656.29834 4003.583 -208.1429 4294967088
601.58307 4007.2869 -208.49559 4294967088
635.47675 4006.2542 -208.88564 4294967088
638.74768 4005.9766 -208.30116 4294967088
613.4068 4008.2112 -208.23476 4294967088
617.12103 4008.1255 -208.291 4294967088
665.48065 4018.771 -208.77045 4294967088
665.20471 4022.0864 -208.24043 4294967088
657.20837 4025.2219 -208.61847 4294967088
661.40802 4024.7808 -208.89441 4294967088
618.98584 4027.4219 -208.02907 4294967088
603.46869 4031.772 -208.13187 4294967088
605.4541 4031.1582 -208.35626 4294967088
607.36951 4030.3267 -208.36177 4294967088
610.0835 4029.5098 -208.5087 4294967088
599.49579 4033.6951 -208.0401 4294967088
601.68304 4033.6406 -208.26035 4294967088
603.13098 4033.6543 -208.57239 4294967088
601.46655 4036.1135 -208.50517 4294967088
603.25159 4036.3992 -208.72255 4294967088
657.99225 4003.814 -207.81342 4294967089
661.95264 4004.5125 -207.89201 4294967089
569.5509 4006.7942 -207.82373 4294967089
571.44275 4007.114 -207.53891 4294967089
573.04218 4005.7332 -207.51291 4294967089
575.27307 4006.8384 -207.54634 4294967089
577.06024 4006.0417 -207.70395 4294967089
581.7019 4006.4443 -207.83902 4294967089
583.48218 4007.4695 -207.34761 4294967089
587.57263 4006.5205 -207.60175 4294967089
595.02521 4007.4534 -207.74524 4294967089
619.16199 4007.9548 -207.76643 4294967089
633.50366 4006.4338 -207.08751 4294967089
637.68164 4006.0649 -207.03804 4294967089
663.83649 4006.6768 -207.80394 4294967089
554.87494 4009.8857 -207.00714 4294967089
555.47058 4008.6448 -207.13927 4294967089
558.27887 4008.7852 -207.08197 4294967089
559.68213 4008.2493 -207.33533 4294967089
562.0329 4008.2183 -207.32191 4294967089
570.02942 4009.2241 -207.08015 4294967089
573.26288 4009.0227 -207.14011 4294967089
577.54395 4008.3901 -207.14807 4294967089
599.16333 4008.3479 -207.42773 4294967089
609.41516 4008.1799 -207.59763 4294967089
610.89587 4008.25 -207.91983 4294967089
663.79913 4017.6199 -207.37593 4294967089
611.13074 4028.8105 -207.40269 4294967089
613.33984 4028.5205 -207.8269 4294967089
614.7215 4028.2119 -207.76578 4294967089
616.47052 4027.9265 -207.7659 4294967089
620.96436 4027.2295 -207.72562 4294967089
623.43311 4027.2849 -207.37247 4294967089
625.29675 4027.2463 -207.09453 4294967089
601.8089 4031.9683 -207.78331 4294967089
603.35657 4030.3235 -207.03671 4294967089
607.50073 4029.4072 -207.20804 4294967089
593.00818 4035.8704 -207.34438 4294967089
624.9621 4007.27 -206.48885 4294967090
661.88745 4005.8372 -206.63133 4294967090
547.78229 4010.9529 -206.41182 4294967090
552.09052 4009.7639 -206.83098 4294967090
556.76117 4010.6548 -206.68474 4294967090
557.44092 4009.9827 -206.91048 4294967090
562.93292 4010.1917 -206.51151 4294967090
566.04016 4009.2324 -206.99704 4294967090
567.25781 4009.865 -206.71472 4294967090
571.66669 4010.0732 -206.51427 4294967090
572.79596 4010.2283 -206.29712 4294967090
575.07623 4009.5139 -206.60551 4294967090
579.29822 4009.2708 -206.5833 4294967090
581.40924 4009.1101 -206.59354 4294967090
585.65973 4009.0835 -206.27438 4294967090
587.44965 4008.7742 -206.41347 4294967090
589.42072 4008.6357 -206.46022 4294967090
593.47284 4008.4668 -206.80701 4294967090
597.98718 4008.5564 -206.90857 4294967090
603.59473 4008.5872 -206.98752 4294967090
550.85022 4011.2346 -206.38278 4294967090
555.18964 4011.4358 -206.34317 4294967090
663.9845 4022.6936 -206.80371 4294967090
653.62323 4025.6023 -206.2505 4294967090
663.99384 4023.2231 -206.93253 4294967090
609.2243 4028.7664 -206.00014 4294967090
611.22559 4028.4849 -206.05251 4294967090
613.35687 4028.2395 -206.02249 4294967090
626.98907 4027.1707 -206.78729 4294967090
597.56158 4030.7327 -206.01408 4294967090
599.71826 4030.9253 -206.5829 4294967090
601.66626 4030.7463 -206.94777 4294967090
605.47339 4029.5889 -206.7872 4294967090
584.86542 4033.7769 -206.39499 4294967090
587.56567 4033.6138 -206.35719 4294967090
589.19897 4033.9021 -206.54535 4294967090
590.70605 4032.4795 -206.04922 4294967090
593.1637 4033.1189 -206.75421 4294967090
575.31488 4035.6863 -206.30539 4294967090
577.34235 4035.4951 -206.43008 4294967090
589.41125 4035.6804 -206.88535 4294967090
659.00989 4004.7786 -205.75653 4294967091
619.36755 4007.8323 -205.09175 4294967091
639.56873 4005.8215 -205.02129 4294967091
525.71802 4010.9841 -205.14394 4294967091
529.17371 4009.5146 -205.15518 4294967091
531.55054 4010.228 -205.29303 4294967091
533.01929 4010.6208 -205.39424 4294967091
535.71143 4010.9856 -205.43204 4294967091
565.49927 4010.8191 -205.94958 4294967091
569.29614 4010.7734 -205.95435 4294967091
580.08258 4010.4077 -205.43004 4294967091
583.28497 4010.0088 -205.27696 4294967091
591.13531 4009.5547 -205.27248 4294967091
595.48254 4009.5535 -205.58949 4294967091
599.25311 4009.304 -205.67975 4294967091
605.34857 4009.0735 -205.23894 4294967091
607.43298 4008.7788 -205.87938 4294967091
611.21265 4008.7495 -205.75084 4294967091
613.50415 4008.5393 -205.31743 4294967091
615.1413 4008.386 -205.8445 4294967091
661.61902 4010.0334 -205.66649 4294967091
443.58658 4013.7319 -205.03941 4294967091
445.53903 4013.6221 -205.07466 4294967091
449.41144 4013.8696 -205.07895 4294967091
451.37317 4013.8728 -205.26929 4294967091
453.69247 4013.6621 -205.32195 4294967091
455.83881 4013.7581 -205.3811 4294967091
472.99283 4011.7585 -205.3774 4294967091
475.66699 4011.6353 -205.56372 4294967091
477.4567 4011.8186 -205.69748 4294967091
479.60443 4012.8088 -205.55585 4294967091
481.45761 4012.1426 -205.82617 4294967091
547.51508 4011.9951 -205.59761 4294967091
549.63409 4012 -205.9938 4294967091
553.45435 4012.2021 -205.40952 4294967091
559.76459 4011.4441 -205.63512 4294967091
561.46954 4011.1448 -205.87984 4294967091
438.48834 4016.1228 -205.21281 4294967091
440.95074 4015.9978 -205.21872 4294967091
451.36838 4015.8787 -205.01669 4294967091
453.75986 4015.9243 -205.21677 4294967091
457.18814 4015.9697 -205.12421 4294967091
459.45816 4014.1504 -205.4391 4294967091
461.42081 4014.551 -205.5146 4294967091
462.57867 4016.6047 -205.12106 4294967091
465.85382 4016.2073 -205.34082 4294967091
466.06781 4014.8538 -205.55861 4294967091
471.42737 4014.6458 -205.47353 4294967091
472.85968 4014.7517 -205.20982 4294967091
475.74875 4014.009 -205.52448 4294967091
479.31525 4015.3057 -205.03691 4294967091
481.43884 4015.3269 -205.15434 4294967091
486.12653 4014.2866 -205.31322 4294967091
439.18875 4017.1978 -205.15646 4294967091
662.52271 4023.8728 -205.90912 4294967091
615.04071 4027.98 -205.89288 4294967091
616.56226 4027.7346 -205.92409 4294967091
618.97736 4027.5811 -205.48882 4294967091
595.25604 4030.7722 -205.53494 4294967091
599.47607 4029.9412 -205.16187 4294967091
601.59961 4029.6731 -205.32329 4294967091
603.50073 4029.4292 -205.4574 4294967091
606.88037 4029.022 -205.87175 4294967091
572.98663 4034.0881 -205.39851 4294967091
575.61237 4033.8591 -205.57903 4294967091
579.30078 4033.7581 -205.89105 4294967091
581.61505 4032.2717 -205.10158 4294967091
541.58972 4037.7622 -205.21858 4294967091
543.42462 4037.9473 -205.22125 4294967091
545.2312 4037.8501 -205.25093 4294967091
548.98206 4037.6262 -205.33171 4294967091
551.53314 4037.5718 -205.53166 4294967091
553.50256 4036.6321 -205.21724 4294967091
555.51489 4036.729 -205.31128 4294967091
557.32104 4035.564 -205.1246 4294967091
571.39166 4035.752 -205.92163 4294967091
523.38031 4040.0347 -205.05617 4294967091
525.29773 4039.8679 -205.13583 4294967091
526.57782 4040.2952 -205.20708 4294967091
529.4892 4039.9626 -205.21902 4294967091
533.16901 4040.1465 -205.36604 4294967091
537.30646 4039.8723 -205.46954 4294967091
539.40515 4039.1226 -205.36166 4294967091
541.68939 4040.2512 -205.49106 4294967091
545.48431 4040.1667 -205.5089 4294967091
548.95117 4040.2527 -205.48422 4294967091
521.07196 4042.2986 -205.03333 4294967091
523.87219 4042.7278 -205.17065 4294967091
525.52826 4042.4888 -205.23454 4294967091
529.50635 4042.79 -205.3009 4294967091
533.53589 4042.1616 -205.38596 4294967091
520.1391 4044.7856 -205.07098 4294967091
654.69873 4004.2832 -204.67174 4294967092
655.73547 4004.3303 -204.49057 4294967092
633.19904 4006.447 -204.65239 4294967092
635.73645 4006.2026 -204.72571 4294967092
637.26276 4006.0571 -204.92439 4294967092
657.58258 4005.2527 -204.08727 4294967092
659.62201 4006.6909 -204.40845 4294967092
529.56104 4010.3264 -204.61124 4294967092
581.71082 4010.8345 -204.18077 4294967092
587.56018 4010.3752 -204.13058 4294967092
599.95374 4009.6594 -204.23694 4294967092
603.63074 4009.4663 -204.06013 4294967092
538.06769 4011.7097 -204.61742 4294967092
539.12085 4011.4502 -204.21693 4294967092
543.41516 4011.2573 -204.94313 4294967092
552.85919 4012.7698 -204.03256 4294967092
555.82239 4012.4951 -204.3307 4294967092
559.39496 4012.2708 -204.05978 4294967092
563.28632 4012.054 -204.25969 4294967092
568.0011 4011.6582 -204.39355 4294967092
569.26636 4011.8076 -204.31786 4294967092
571.50812 4011.6809 -204.18311 4294967092
575.10187 4011.2866 -204.10742 4294967092
577.41431 4011.0979 -204.00046 4294967092
444.03064 4016.259 -204.98094 4294967092
445.84979 4016.4478 -204.91159 4294967092
447.10202 4016.5742 -204.86446 4294967092
473.26794 4016.531 -204.57735 4294967092
475.66006 4015.7231 -204.98169 4294967092
481.46921 4016.2898 -204.39464 4294967092
483.1517 4015.2029 -204.9408 4294967092
489.06747 4015.1357 -204.56668 4294967092
491.73566 4015.3843 -204.4126 4294967092
493.44257 4014.9985 -204.60069 4294967092
438.20541 4019.6133 -204.09735 4294967092
441.12152 4019.3779 -204.06737 4294967092
443.8606 4017.7935 -204.66969 4294967092
445.38986 4018.6399 -204.14586 4294967092
447.0972 4017.3057 -204.64665 4294967092
449.44522 4017.2158 -204.65335 4294967092
451.21268 4017.2458 -204.60272 4294967092
453.73105 4017.0139 -204.73262 4294967092
457.30786 4017.3281 -204.65266 4294967092
459.24838 4017.1433 -204.74159 4294967092
463.39493 4017.7954 -204.35973 4294967092
467.61279 4017.1436 -204.91563 4294967092
469.66083 4017.2205 -204.6828 4294967092
662.21564 4022.262 -204.97435 4294967092
647.03839 4025.9753 -204.67389 4294967092
658.78705 4024.7163 -204.86244 4294967092
659.3869 4024.281 -204.03069 4294967092
661.17041 4023.8989 -204.94084 4294967092
621.33899 4027.5134 -204.9718 4294967092
641.30682 4026.1045 -204.84911 4294967092
585.46326 4031.7424 -204.91862 4294967092
587.55585 4031.4385 -204.86806 4294967092
591.5697 4031.0603 -204.98964 4294967092
599.50244 4029.4138 -204.05151 4294967092
603.26349 4029.1057 -204.22667 4294967092
549.38953 4034.6416 -204.3186 4294967092
553.1972 4034.687 -204.53282 4294967092
555.58636 4034.5015 -204.57111 4294967092
559.67426 4034.4851 -204.72021 4294967092
560.86951 4034.449 -204.76442 4294967092
571.24567 4032.5195 -204.08139 4294967092
573.77289 4032.5505 -204.41872 4294967092
575.47052 4032.6914 -204.82985 4294967092
577.45148 4032.3035 -204.74501 4294967092
579.44586 4032.2744 -204.9357 4294967092
517.75189 4037.9758 -204.15834 4294967092
521.15692 4037.7419 -204.43196 4294967092
523.90247 4037.7793 -204.46286 4294967092
526.88275 4037.7756 -204.77341 4294967092
527.10425 4036.4192 -204.00945 4294967092
529.41284 4037.9014 -204.79173 4294967092
531.35138 4037.0789 -204.5137 4294967092
533.57556 4036.3174 -204.25841 4294967092
535.32123 4037.0732 -204.6492 4294967092
536.91925 4037.7358 -204.98175 4294967092
537.12878 4036.3572 -204.40598 4294967092
541.57227 4036.0845 -204.53505 4294967092
543.37195 4035.9158 -204.58775 4294967092
545.50409 4035.8237 -204.69928 4294967092
547.66022 4035.9236 -204.88539 4294967092
551.37616 4035.6587 -204.93614 4294967092
497.5354 4039.8008 -204.1532 4294967092
500.98184 4039.8438 -204.1524 4294967092
503.63425 4039.8723 -204.43701 4294967092
505.58676 4039.8289 -204.38574 4294967092
509.45563 4039.6331 -204.6046 4294967092
511.59644 4039.1602 -204.33478 4294967092
513.47369 4039.5505 -204.67941 4294967092
515.41718 4038.9753 -204.45924 4294967092
517.39148 4039.7773 -204.82097 4294967092
519.52753 4039.3186 -204.8054 4294967092
521.02588 4039.8223 -204.91872 4294967092
457.6478 4043.7307 -204.25607 4294967092
460.93497 4043.8037 -204.38005 4294967092
463.3512 4043.7949 -204.39636 4294967092
465.52933 4043.5674 -204.34836 4294967092
469.90891 4043.4561 -204.46614 4294967092
473.32568 4043.8342 -204.61481 4294967092
475.00693 4043.7275 -204.45219 4294967092
477.12576 4042.124 -204.11784 4294967092
481.5379 4042.1521 -204.46654 4294967092
485.80612 4041.9309 -204.62877 4294967092
487.13641 4041.6648 -204.57306 4294967092
489.43005 4041.8938 -204.60919 4294967092
493.08344 4041.9121 -204.66893 4294967092
500.9903 4041.9114 -204.78815 4294967092
503.86148 4041.7322 -204.79195 4294967092
505.50253 4042.0339 -204.83754 4294967092
507.5802 4042.1348 -204.86852 4294967092
509.16245 4042.3218 -204.88448 4294967092
511.59842 4041.9885 -204.89526 4294967092
513.42682 4042.1533 -204.90903 4294967092
515.46436 4042.365 -204.91856 4294967092
517.13348 4042.4346 -204.93475 4294967092
437.24438 4045.6404 -204.21698 4294967092
439.33871 4045.7498 -204.39035 4294967092
441.40222 4045.8992 -204.4052 4294967092
443.66925 4045.8574 -204.3622 4294967092
447.94861 4046.0327 -204.37057 4294967092
451.45221 4044.0911 -204.03334 4294967092
455.16232 4044.853 -204.39162 4294967092
457.60202 4045.8926 -204.59714 4294967092
459.43021 4045.7078 -204.59363 4294967092
461.22122 4046.075 -204.57918 4294967092
463.21368 4046.4167 -204.5742 4294967092
467.33844 4045.1919 -204.53256 4294967092
469.96811 4046.5947 -204.62747 4294967092
471.62082 4045.2136 -204.62433 4294967092
475.03204 4046.3618 -204.67488 4294967092
479.3363 4044.2356 -204.69162 4294967092
504.06143 4044.6372 -204.85509 4294967092
507.13376 4044.8389 -204.86707 4294967092
511.84372 4044.7307 -204.88715 4294967092
513.46307 4044.6736 -204.92038 4294967092
515.7572 4044.7205 -204.95825 4294967092
649.91986 4004.4607 -203.8559 4294967093
651.56744 4004.3516 -203.83693 4294967093
620.32959 4007.6726 -203.11046 4294967093
621.20514 4007.5637 -203.05611 4294967093
585.45563 4010.4597 -203.88844 4294967093
589.52979 4010.1677 -203.71898 4294967093
593.15564 4010.2217 -203.9157 4294967093
597.00861 4010.1348 -203.5448 4294967093
601.27173 4009.7532 -203.6647 4294967093
607.20605 4009.1184 -203.45116 4294967093
609.36139 4008.9358 -203.42686 4294967093
531.40686 4011.6853 -203.46445 4294967093
543.14655 4012.2993 -203.77092 4294967093
545.61322 4012.7725 -203.82549 4294967093
551.18353 4012.8933 -203.65512 4294967093
483.28815 4016.624 -203.87199 4294967093
485.43378 4016.8784 -203.14734 4294967093
487.38779 4016.7583 -203.35495 4294967093
489.48306 4016.3733 -203.36852 4294967093
491.30392 4016.3945 -203.18788 4294967093
495.33804 4015.7505 -203.55402 4294967093
497.41208 4015.3533 -203.91591 4294967093
518.93152 4014.9146 -203.62593 4294967093
522.68738 4014.332 -203.31938 4294967093
444.2941 4019.5239 -203.45874 4294967093
447.46835 4019.0354 -203.60161 4294967093
449.4761 4018.9094 -203.5239 4294967093
451.37378 4018.6567 -203.68661 4294967093
455.12103 4018.7212 -203.81995 4294967093
459.23938 4018.6399 -203.52493 4294967093
461.27393 4018.625 -203.3804 4294967093
465.27225 4018.5627 -203.06612 4294967093
468.26776 4018.3083 -203.24428 4294967093
471.42322 4018.0894 -203.50337 4294967093
473.35199 4017.8542 -203.09592 4294967093
475.2016 4017.4363 -203.50244 4294967093
477.41681 4017.1392 -203.7805 4294967093
479.31253 4017.5139 -203.0782 4294967093
481.58493 4017.2954 -203.21056 4294967093
660.27692 4021.8523 -203.4185 4294967093
652.0448 4025.8833 -203.70763 4294967093
656.7489 4024.9072 -203.52428 4294967093
660.79834 4023.1414 -203.66202 4294967093
605.15448 4028.8599 -203.85144 4294967093
606.9306 4028.5879 -203.96663 4294967093
609.07092 4028.4761 -203.9803 4294967093
611.20837 4028.4207 -203.50708 4294967093
613.43127 4028.2813 -203.53474 4294967093
615.84637 4028.1626 -203.00456 4294967093
617.17279 4028.0308 -203.07344 4294967093
575.26837 4031.4084 -203.08308 4294967093
579.04242 4031.0081 -203.23828 4294967093
581.68311 4031.0562 -203.38728 4294967093
583.09961 4030.8621 -203.0863 4294967093
585.20288 4030.6707 -203.27286 4294967093
587.21295 4030.5564 -203.14044 4294967093
591.09521 4030.3228 -203.69308 4294967093
597.06866 4029.5278 -203.56932 4294967093
533.20978 4034.9795 -203.13202 4294967093
537.5368 4034.6404 -203.11359 4294967093
541.69385 4034.394 -203.41949 4294967093
543.15552 4034.4297 -203.47469 4294967093
545.76221 4034.5876 -203.94366 4294967093
549.17267 4033.5747 -203.23215 4294967093
551.51355 4033.3086 -203.17287 4294967093
555.44617 4033.1729 -203.38516 4294967093
561.35535 4032.7468 -203.42688 4294967093
501.15463 4037.908 -203.0217 4294967093
505.68387 4037.489 -203.09294 4294967093
511.61856 4036.9331 -203.16019 4294967093
513.53662 4036.916 -203.29248 4294967093
519.29382 4036.1265 -203.25247 4294967093
521.33795 4035.9858 -203.34126 4294967093
523.55511 4036.1165 -203.50797 4294967093
531.50812 4035.2627 -203.33257 4294967093
535.33063 4035.04 -203.37259 4294967093
475.12375 4040.5627 -203.31477 4294967093
479.3996 4040.4526 -203.58873 4294967093
483.10846 4040.2932 -203.8231 4294967093
485.73041 4039.2251 -203.35141 4294967093
489.64059 4039.8215 -203.81873 4294967093
493.39825 4039.1018 -203.4856 4294967093
499.44135 4038.356 -203.26994 4294967093
504.01053 4038.3818 -203.6091 4294967093
507.70923 4038.354 -203.82362 4294967093
439.60889 4043.9155 -203.65419 4294967093
447.52719 4043.9185 -203.66254 4294967093
453.39789 4042.3284 -203.27489 4294967093
455.52945 4042.291 -203.369 4294967093
457.46088 4042.4404 -203.5513 4294967093
459.29932 4042.0615 -203.49966 4294967093
461.02188 4041.9905 -203.52299 4294967093
463.71872 4041.9224 -203.60716 4294967093
467.38974 4041.7698 -203.79163 4294967093
471.69006 4041.8274 -203.89081 4294967093
475.23242 4041.8945 -203.99428 4294967093
437.36377 4044.0242 -203.65736 4294967093
445.58197 4044.1106 -203.83719 4294967093
651.69397 4004.7703 -202.02882 4294967094
653.26007 4004.7751 -202.40381 4294967094
634.65436 4006.2439 -202.1441 4294967094
639.4234 4005.7622 -202.91956 4294967094
593.3877 4010.3596 -202.04672 4294967094
611.34625 4008.748 -202.90184 4294967094
613.64484 4008.5281 -202.90802 4294967094
617.4079 4008.0613 -202.45648 4294967094
658.04694 4008.825 -202.43416 4294967094
526.41791 4013.1912 -202.10251 4294967094
534.05402 4012.7363 -202.91531 4294967094
547.13208 4013.3486 -202.1097 4294967094
549.7121 4013.3293 -202.29747 4294967094
551.27252 4013.293 -202.04517 4294967094
552.86609 4013.0974 -202.13177 4294967094
555.46863 4012.9404 -202.03691 4294967094
559.52252 4012.752 -202.20781 4294967094
560.85065 4012.6555 -202.67369 4294967094
563.33746 4012.543 -202.508 4294967094
569.40582 4012.2346 -202.16917 4294967094
571.83215 4011.9927 -202.07475 4294967094
493.31253 4016.8657 -202.08675 4294967094
496.14676 4016.1445 -202.42213 4294967094
517.31958 4015.2683 -202.34593 4294967094
519.59296 4015.1423 -202.29381 4294967094
447.18134 4019.9143 -202.03595 4294967094
449.29602 4019.6619 -202.17111 4294967094
463.41296 4019.0334 -202.20825 4294967094
465.73224 4018.8811 -202.30537 4294967094
658.17834 4019.3369 -202.02478 4294967094
437.63907 4020.8687 -202.20587 4294967094
441.0087 4020.6201 -202.02737 4294967094
654.43665 4025.166 -202.68237 4294967094
655.93359 4024.7947 -202.11217 4294967094
659.62891 4023.239 -202.67274 4294967094
619.44 4027.8171 -202.83806 4294967094
625.32391 4027.2979 -202.90878 4294967094
641.22339 4026.2959 -202.79094 4294967094
643.61841 4026.3325 -202.49202 4294967094
645.7995 4026.3647 -202.09328 4294967094
588.4845 4030.3433 -202.96611 4294967094
593.44531 4029.4885 -202.06194 4294967094
545.54095 4033.7046 -202.85217 4294967094
547.41949 4033.1536 -202.0363 4294967094
503.95288 4037.2024 -202.60754 4294967094
507.24774 4037.0171 -202.8177 4294967094
509.23019 4036.8032 -202.82561 4294967094
515.16986 4036.3757 -202.93495 4294967094
526.8811 4035.2764 -202.96239 4294967094
529.47998 4035.0994 -202.94743 4294967094
455.24442 4040.8308 -202.03125 4294967094
457.67651 4040.7759 -202.28714 4294967094
461.34326 4040.7827 -202.64604 4294967094
463.8096 4040.6208 -202.69324 4294967094
465.17307 4040.1355 -202.32451 4294967094
467.26227 4040.4663 -202.78525 4294967094
470.14001 4040.0664 -202.67435 4294967094
471.68774 4040.2478 -202.91496 4294967094
481.25885 4039.1174 -202.76178 4294967094
483.3577 4038.5779 -202.33041 4294967094
486.9393 4038.5513 -202.72302 4294967094
489.76691 4038.5342 -202.88141 4294967094
491.50684 4038.3455 -202.78384 4294967094
495.23074 4038.2795 -202.94583 4294967094
437.5676 4042.6553 -202.71536 4294967094
441.01102 4042.7649 -202.84041 4294967094
443.63776 4042.4363 -202.73512 4294967094
445.51431 4042.4233 -202.77077 4294967094
447.22144 4042.5757 -202.96465 4294967094
449.63568 4042.1392 -202.80463 4294967094
452.09015 4041.8308 -202.69771 4294967094
645.95978 4004.8789 -201.90836 4294967095
654.92047 4006.4077 -201.16437 4294967095
585.40485 4010.8984 -201.70699 4294967095
587.2547 4010.6172 -201.81473 4294967095
589.64594 4010.4492 -201.65802 4294967095
591.15955 4010.4905 -201.78375 4294967095
595.07935 4010.1873 -201.42871 4294967095
597.93201 4010.0361 -201.87498 4294967095
603.3512 4009.439 -201.27493 4294967095
605.80408 4009.1917 -201.21889 4294967095
607.30353 4009.0557 -201.02115 4294967095
611.71228 4008.7515 -201.22305 4294967095
529.64673 4012.8586 -201.28226 4294967095
565.41382 4012.4053 -201.91145 4294967095
577.20355 4011.488 -201.60104 4294967095
579.78937 4011.3281 -201.85545 4294967095
583.28223 4011.072 -201.88945 4294967095
509.23312 4015.9419 -201.90489 4294967095
512.33508 4015.7395 -201.7122 4294967095
514.89178 4015.6118 -201.61247 4294967095
467.73172 4018.8767 -201.9023 4294967095
473.35107 4018.5894 -201.92564 4294967095
475.31067 4018.2622 -201.84154 4294967095
479.41647 4018.0095 -201.98767 4294967095
483.50989 4017.7051 -201.98993 4294967095
489.77206 4017.1013 -201.87256 4294967095
439.20084 4020.865 -201.84735 4294967095
443.91608 4020.3469 -201.98883 4294967095
444.73962 4020.2227 -201.95456 4294967095
657.90814 4022.4688 -201.48782 4294967095
649.96259 4025.8804 -201.53482 4294967095
654.00043 4025.2102 -201.69943 4294967095
599.2713 4028.991 -201.41385 4294967095
601.49768 4028.8589 -201.85114 4294967095
603.09399 4028.8059 -201.80397 4294967095
605.17285 4028.7695 -201.56924 4294967095
607.29773 4028.7551 -201.48601 4294967095
625.39325 4027.3582 -201.103 4294967095
647.76245 4026.2573 -201.79619 4294967095
570.95844 4031.3276 -201.69269 4294967095
573.34412 4031.0986 -201.93512 4294967095
575.2619 4031.0181 -201.8152 4294967095
581.16351 4030.6228 -201.79114 4294967095
584.8858 4030.2212 -201.67058 4294967095
587.37146 4030.0322 -201.90207 4294967095
589.20392 4029.9651 -201.86287 4294967095
591.33551 4029.6235 -201.80476 4294967095
597.14172 4029.1099 -201.88376 4294967095
520.95337 4034.9546 -201.55676 4294967095
522.99487 4034.9043 -201.59152 4294967095
525.78766 4034.6262 -201.47453 4294967095
529.61713 4034.4673 -201.80002 4294967095
537.84076 4033.7998 -201.45012 4294967095
539.36084 4033.5908 -201.67737 4294967095
541.40674 4033.6003 -201.66988 4294967095
543.31873 4033.4465 -201.72406 4294967095
545.11804 4033.3152 -201.82141 4294967095
549.09796 4032.9712 -201.81514 4294967095
553.16626 4032.613 -201.85588 4294967095
555.5932 4032.4617 -201.88499 4294967095
557.38574 4032.3567 -201.95517 4294967095
484.06659 4037.6069 -201.00148 4294967095
487.93579 4037.4417 -201.2793 4294967095
491.07498 4037.2869 -201.35745 4294967095
493.0687 4037.3213 -201.36003 4294967095
495.56781 4037.0813 -201.25888 4294967095
499.31189 4037.0076 -201.93082 4294967095
501.7674 4036.6255 -201.36172 4294967095
503.45883 4036.3755 -201.12306 4294967095
505.69177 4036.1606 -201.1353 4294967095
506.87476 4036.1335 -201.31256 4294967095
509.41779 4035.9209 -201.32355 4294967095
513.5481 4035.532 -201.55186 4294967095
517.43793 4035.3884 -201.49045 4294967095
451.0329 4040.7275 -201.09154 4294967095
459.59985 4039.8555 -201.23648 4294967095
463.3075 4039.5796 -201.12852 4294967095
465.46631 4039.4097 -201.13936 4294967095
469.49854 4038.9932 -201.26294 4294967095
473.35458 4039.177 -201.78008 4294967095
475.35364 4039.0442 -201.75084 4294967095
477.24521 4038.9714 -201.88333 4294967095
479.22079 4038.2375 -201.07912 4294967095
437.38647 4041.5303 -201.1855 4294967095
439.55563 4041.5691 -201.34499 4294967095
444.9162 4041.2466 -201.16302 4294967095
447.3028 4041.1084 -201.23412 4294967095
623.4978 4007.2986 -200.77708 4294967096
635.42975 4006.106 -200.54463 4294967096
637.55829 4005.8765 -200.79539 4294967096
641.7876 4005.2451 -200.09671 4294967096
648.22778 4005.0562 -200.48341 4294967096
601.38318 4009.6089 -200.95653 4294967096
609.54492 4008.8999 -200.98529 4294967096
615.25 4008.3374 -200.81271 4294967096
655.73743 4008.988 -200.62105 4294967096
558.24933 4012.7451 -200.31355 4294967096
497.82227 4016.5422 -200.53773 4294967096
501.51538 4016.5137 -200.02757 4294967096
507.715 4016.3079 -200.03432 4294967096
453.24158 4019.8689 -200.69304 4294967096
455.32153 4019.8286 -200.77132 4294967096
457.42816 4019.7576 -200.1133 4294967096
459.46555 4019.6943 -200.86522 4294967096
461.49814 4019.6345 -200.10487 4294967096
463.57904 4019.4937 -200.14052 4294967096
471.82202 4018.9246 -200.32393 4294967096
473.45782 4018.792 -200.00325 4294967096
477.38202 4018.6199 -200.17073 4294967096
481.30649 4018.4209 -200.1613 4294967096
487.38318 4017.7935 -200.00827 4294967096
439.75333 4021.0337 -200.21385 4294967096
444.23749 4020.7869 -200.03688 4294967096
447.11865 4020.1982 -200.92812 4294967096
449.70547 4020.145 -200.534 4294967096
655.86169 4022.002 -200.25027 4294967096
651.66119 4025.3342 -200.29568 4294967096
617.328 4028.2217 -200.97931 4294967096
629.64423 4027.1555 -200.99962 4294967096
631.39441 4027.0891 -200.66731 4294967096
635.30621 4026.8625 -200.51337 4294967096
639.79065 4026.8477 -200.01682 4294967096
641.90039 4026.7239 -200.0329 4294967096
559.58026 4031.7715 -200.03622 4294967096
531.5271 4033.8811 -200.05171 4294967096
533.56171 4033.8833 -200.09525 4294967096
535.37878 4033.6851 -200.0278 4294967096
541.14673 4033.1079 -200.15475 4294967096
549.3324 4032.5417 -200.09363 4294967096
555.62756 4032.1699 -200.02216 4294967096
484.98712 4037.2896 -200.07951 4294967096
489.5419 4036.9956 -200.06862 4294967096
515.52161 4035.2107 -200.10643 4294967096
449.77621 4040.3992 -200.03952 4294967096
625.34698 4007.1174 -199.11771 4294967097
645.65515 4005.3022 -199.0545 4294967097
651.4903 4006.552 -199.04628 4294967097
653.73578 4007.6016 -199.75293 4294967097
583.29816 4010.9875 -199.58463 4294967097
587.45935 4010.5823 -199.32066 4294967097
591.04041 4010.1936 -199.3031 4294967097
593.38885 4010.0901 -199.73064 4294967097
595.26654 4009.8752 -199.27777 4294967097
603.41321 4009.2698 -199.16481 4294967097
539.13629 4013.7678 -199.36417 4294967097
551.85376 4013.1572 -199.53664 4294967097
555.72302 4012.8284 -199.20802 4294967097
559.65503 4012.5642 -199.19469 4294967097
562.78882 4012.3728 -199.43576 4294967097
569.27393 4011.948 -199.13145 4294967097
572.05511 4011.7349 -199.18979 4294967097
574.15186 4011.5681 -199.16461 4294967097
577.7868 4011.272 -199.05319 4294967097
494.73026 4016.9443 -199.118 4294967097
499.164 4016.4648 -199.78262 4294967097
512.23145 4016.0044 -199.80887 4294967097
515.45935 4015.7036 -199.72525 4294967097
516.75635 4015.582 -199.82106 4294967097
519.5462 4015.396 -199.8042 4294967097
521.43024 4015.1536 -199.58261 4294967097
465.07919 4019.3762 -199.78423 4294967097
467.98016 4019.1826 -199.82138 4294967097
469.50864 4019.0613 -199.58684 4294967097
475.19928 4018.7043 -199.93689 4294967097
485.4794 4017.9729 -199.95288 4294967097
489.47549 4017.5039 -199.79884 4294967097
491.81525 4017.3757 -199.93121 4294967097
653.67731 4017.605 -199.39905 4294967097
437.59161 4021.2334 -199.91187 4294967097
441.00345 4020.9402 -199.61783 4294967097
653.94727 4021.595 -199.15013 4294967097
647.43134 4025.8694 -199.74812 4294967097
649.89111 4025.4878 -199.86403 4294967097
653.65607 4023.2212 -199.15526 4294967097
603.57343 4028.978 -199.00095 4294967097
605.48987 4028.9795 -199.03596 4294967097
643.76862 4026.5176 -199.72827 4294967097
575.15417 4030.7493 -199.85081 4294967097
577.4671 4030.5645 -199.89351 4294967097
581.44812 4030.4084 -199.56645 4294967097
587.20746 4029.9321 -199.57156 4294967097
589.71643 4029.7183 -199.5679 4294967097
591.31079 4029.5996 -199.44717 4294967097
599.21008 4029.0791 -199.26042 4294967097
609.56714 4029.0156 -199.02516 4294967097
520.03461 4034.7205 -199.7121 4294967097
525.91046 4034.218 -199.94479 4294967097
539.03015 4033.2146 -199.94731 4294967097
543.34637 4033.0129 -199.82567 4294967097
545.00037 4033.0508 -199.89635 4294967097
547.21429 4032.8406 -199.86494 4294967097
551.66193 4032.4817 -199.88173 4294967097
553.56696 4032.313 -199.97046 4294967097
557.16522 4032.0681 -199.8483 4294967097
477.50272 4037.9429 -199.69908 4294967097
481.48828 4037.5396 -199.86292 4294967097
493.13339 4036.8638 -199.81816 4294967097
496.08267 4036.6711 -199.95154 4294967097
497.55038 4036.3533 -199.76559 4294967097
499.60498 4036.2163 -199.82544 4294967097
507.28632 4035.7473 -199.96387 4294967097
439.38031 4040.9556 -199.79611 4294967097
441.37085 4040.9719 -199.86861 4294967097
443.52728 4040.6826 -199.43716 4294967097
447.0181 4040.4856 -199.43092 4294967097
453.53107 4039.9146 -199.83003 4294967097
455.67581 4039.7976 -199.65761 4294967097
456.65045 4039.6387 -199.22342 4294967097
461.50882 4039.324 -199.94487 4294967097
463.27158 4039.1655 -199.78578 4294967097
465.51547 4038.999 -199.9839 4294967097
467.50659 4038.8291 -199.89578 4294967097
471.49088 4038.3879 -199.8177 4294967097
473.55017 4038.4324 -199.9556 4294967097
475.0101 4038.322 -199.81018 4294967097
437.38873 4041.0308 -199.77663 4294967097
631.0722 4006.5259 -198.7113 4294967098
633.50824 4006.2534 -198.9408 4294967098
645.84576 4005.4714 -198.1571 4294967098
649.5658 4005.8027 -198.71068 4294967098
589.22858 4010.2856 -198.77478 4294967098
600.96881 4009.4172 -198.79472 4294967098
605.43744 4009.0552 -198.82996 4294967098
606.99554 4008.9666 -198.8494 4294967098
609.38849 4008.8538 -198.91823 4294967098
611.40796 4008.6897 -198.7088 4294967098
617.31775 4008.0029 -198.63188 4294967098
549.36462 4013.2903 -198.87219 4294967098
553.06787 4013.0132 -198.90869 4294967098
567.21539 4012.0491 -198.69965 4294967098
651.46588 4012.2944 -198.19569 4294967098
535.00464 4014.166 -198.94374 4294967098
451.35229 4019.9307 -198.64255 4294967098
651.9859 4021.4231 -198.11008 4294967098
649.2807 4024.8 -198.14915 4294967098
651.27118 4023.5862 -198.04851 4294967098
613.39301 4028.9204 -198.81943 4294967098
619.40344 4028.2764 -198.8064 4294967098
625.07672 4027.7083 -198.17009 4294967098
627.22736 4027.5435 -198.4635 4294967098
629.86615 4027.5527 -198.03258 4294967098
631.72418 4027.4458 -198.20241 4294967098
521.63995 4034.6943 -198.04791 4294967098
485.90884 4037.1208 -198.44263 4294967098
459.49634 4039.1545 -198.23843 4294967098
621.19788 4007.6028 -197.86292 4294967099
635.50989 4005.8669 -197.92918 4294967099
640.02972 4005.3896 -197.78767 4294967099
641.92957 4005.3657 -197.6703 4294967099
649.33966 4007.5886 -197.1463 4294967099
587.7511 4010.3347 -197.2757 4294967099
603.47729 4008.9773 -197.07564 4294967099
553.51257 4012.8713 -197.10419 4294967099
572.28406 4011.6172 -197.08954 4294967099
577.71008 4011.1987 -197.09897 4294967099
579.52209 4011.1023 -197.14978 4294967099
495.48087 4016.8164 -197.12866 4294967099
499.32492 4016.4995 -197.22076 4294967099
501.28885 4016.4705 -197.03673 4294967099
503.47562 4016.312 -197.47401 4294967099
515.14429 4015.6357 -197.07719 4294967099
516.89404 4015.4705 -197.05409 4294967099
519.91919 4015.2229 -197.80415 4294967099
533.6283 4014.124 -197.05479 4294967099
535.74744 4014.1809 -197.38017 4294967099
453.24173 4019.8474 -197.19022 4294967099
457.32159 4019.675 -197.11047 4294967099
459.40552 4019.4492 -197.10118 4294967099
461.90973 4019.3823 -197.81201 4294967099
463.57034 4019.1987 -197.16451 4294967099
465.38455 4019.093 -197.39821 4294967099
469.77908 4018.7097 -197.00165 4294967099
473.6409 4018.4695 -197.28647 4294967099
475.42059 4018.4084 -197.48735 4294967099
479.13626 4018.188 -197.50482 4294967099
481.16217 4017.9915 -197.26967 4294967099
485.75073 4017.7554 -197.61359 4294967099
493.28143 4017.0635 -197.33649 4294967099
649.62915 4017.2595 -197.19205 4294967099
439.22101 4020.9976 -197.48239 4294967099
441.68521 4020.7085 -197.26979 4294967099
447.58273 4020.0691 -197.16733 4294967099
449.66672 4020.0618 -197.12573 4294967099
649.72156 4022.8918 -197.13997 4294967099
645.43903 4025.9478 -197.97447 4294967099
633.55853 4027.4543 -197.89137 4294967099
635.54993 4027.3376 -197.0538 4294967099
637.60962 4027.3689 -197.02168 4294967099
640.06781 4027.0862 -197.03822 4294967099
641.89417 4026.782 -197.18762 4294967099
643.84705 4026.4866 -197.9277 4294967099
565.84973 4031.7837 -197.38074 4294967099
567.3847 4031.7607 -197.08031 4294967099
585.11481 4030.6167 -197.11147 4294967099
589.59186 4030.0835 -197.21483 4294967099
519.77319 4034.9307 -197.49266 4294967099
525.54553 4034.4673 -197.78525 4294967099
529.97809 4034.2224 -197.84853 4294967099
533.53339 4033.9348 -197.57802 4294967099
537.5564 4033.4897 -197.82547 4294967099
539.39691 4033.4507 -197.23917 4294967099
541.16888 4033.2742 -197.18359 4294967099
545.0564 4033.1406 -197.37488 4294967099
547.38727 4032.9055 -197.97475 4294967099
549.0069 4032.8865 -197.28056 4294967099
