# .PCD v0.7 - Point Cloud Data file format
VERSION 0.7
FIELDS x y z rgba
SIZE 4 4 4 4
TYPE F F F U
COUNT 1 1 1 1
WIDTH 1148
HEIGHT 1
VIEWPOINT 0 0 0 1 0 0 0
POINTS 1148
DATA ascii
353.67459 3999.7722 -745.43634 4294966551
355.289 3999.5847 -745.92883 4294966551
361.60217 3999.2673 -745.53973 4294966551
363.47708 3999.1506 -745.58405 4294966551
365.49594 3999.0117 -745.6825 4294966551
303.29898 4003.7092 -745.80481 4294966551
305.58829 4003.1108 -745.88776 4294966551
307.44193 4003.0322 -745.96686 4294966551
309.3244 4002.9548 -745.44696 4294966551
311.45215 4002.7693 -745.82404 4294966551
313.24554 4002.6519 -745.79846 4294966551
315.52676 4002.5039 -745.6272 4294966551
316.93842 4002.4016 -745.59509 4294966551
319.19058 4002.1833 -745.78363 4294966551
247.28096 4007.9663 -745.83826 4294966551
249.4888 4007.634 -745.91278 4294966551
273.56653 4005.3655 -745.2879 4294966551
278.23788 4006.2507 -745.35834 4294966551
279.20303 4006.2305 -745.22003 4294966551
280.4816 4007.2126 -745.73492 4294966551
297.15253 4005.907 -745.54102 4294966551
298.74875 4005.071 -745.6626 4294966551
219.48581 4010.7959 -745.24023 4294966551
221.44789 4010.5774 -745.38397 4294966551
223.57635 4010.3625 -745.41919 4294966551
225.4185 4010.1636 -745.66589 4294966551
227.46333 4010.0127 -745.79272 4294966551
230.25377 4009.6711 -745.54584 4294966551
231.31787 4009.6025 -745.74323 4294966551
233.40121 4009.4124 -745.99847 4294966551
235.06358 4009.2288 -745.96124 4294966551
238.14313 4008.8982 -745.73248 4294966551
243.42096 4008.4231 -745.94995 4294966551
202.04933 4013.1069 -745.35815 4294966551
203.31644 4013.0454 -745.39636 4294966551
205.90755 4013.1069 -745.69373 4294966551
207.83337 4012.7158 -745.6579 4294966551
208.86551 4011.9644 -745.12726 4294966551
209.56361 4012.5981 -745.97534 4294966551
213.38049 4011.3979 -745.047 4294966551
215.71164 4011.1794 -745.164 4294966551
217.34961 4011.0056 -745.19666 4294966551
195.13055 4015.1111 -745.22357 4294966551
197.64626 4014.1563 -745.30737 4294966551
413.64114 4019.0254 -745.39984 4294966551
425.33853 4018.4448 -745.1745 4294966551
429.50293 4018.1514 -745.08923 4294966551
431.35141 4018.0454 -745.1593 4294966551
433.29282 4017.9121 -745.12927 4294966551
435.75317 4017.7297 -745.04895 4294966551
363.6593 4022.7361 -745.02795 4294966551
389.5972 4020.8264 -745.02698 4294966551
393.39548 4020.5615 -745.1991 4294966551
319.64365 4025.9275 -745.39917 4294966551
321.57916 4025.7854 -745.40649 4294966551
325.43375 4025.479 -745.3114 4294966551
327.46756 4025.3088 -745.06421 4294966551
329.42355 4025.1497 -745.08398 4294966551
331.25873 4025.021 -745.29858 4294966551
333.21085 4024.8748 -745.0354 4294966551
337.30289 4024.6326 -745.22589 4294966551
345.42825 4024.063 -745.26428 4294966551
349.48511 4023.7825 -745.07916 4294966551
277.62625 4028.9978 -745.25909 4294966551
282.19806 4027.7007 -745.22742 4294966551
292.11292 4026.8359 -745.33142 4294966551
294.09448 4027.2356 -745.28339 4294966551
299.44446 4027.3452 -745.12848 4294966551
301.35275 4027.2178 -745.48987 4294966551
303.228 4027.054 -745.15857 4294966551
305.55164 4026.8811 -745.12238 4294966551
307.73712 4026.7407 -745.13165 4294966551
311.55664 4026.5037 -745.57617 4294966551
315.34641 4026.2363 -745.68829 4294966551
249.74065 4031.1785 -745.85968 4294966551
251.26488 4031.0596 -745.93701 4294966551
253.4744 4030.9043 -745.79016 4294966551
255.45354 4030.7773 -745.81647 4294966551
259.08438 4030.5774 -745.72247 4294966551
267.42236 4029.8215 -745.58923 4294966551
269.71521 4029.6238 -745.92773 4294966551
275.21994 4029.1394 -745.93884 4294966551
205.23253 4033.8257 -745.0108 4294966551
207.78705 4033.6125 -745.30713 4294966551
211.69521 4033.4443 -745.02423 4294966551
213.22133 4033.249 -745.375 4294966551
219.30399 4032.7292 -745.80811 4294966551
229.32816 4032.6777 -745.87848 4294966551
231.41577 4032.446 -745.91888 4294966551
233.42659 4032.3267 -745.74445 4294966551
235.12952 4032.1812 -745.96112 4294966551
238.07324 4032.104 -745.48413 4294966551
299.54193 4004.5227 -744.96075 4294966552
301.00714 4004.0903 -744.94049 4294966552
258.68555 4007.0181 -744.06989 4294966552
280.26089 4006.2778 -744.5708 4294966552
281.72369 4006.844 -744.52344 4294966552
294.84229 4006.4275 -744.67749 4294966552
219.00676 4010.5527 -744.15649 4294966552
221.01797 4010.3416 -744.24823 4294966552
223.4355 4009.8708 -744.17096 4294966552
226.99837 4009.5518 -744.42963 4294966552
229.77223 4009.5564 -744.46075 4294966552
231.08884 4009.3848 -744.25946 4294966552
234.99725 4009.0586 -744.19733 4294966552
237.28551 4008.8416 -744.17029 4294966552
241.07455 4008.3638 -744.11896 4294966552
198.87015 4012.679 -744.69629 4294966552
211.10089 4011.5972 -744.96655 4294966552
212.88046 4011.1282 -744.02911 4294966552
191.2607 4015.9419 -744.39172 4294966552
192.75192 4015.0803 -744.60919 4294966552
193.24773 4015.6228 -744.94611 4294966552
194.99435 4014.4644 -744.75507 4294966552
409.78427 4019.2034 -744.51947 4294966552
411.99774 4019.106 -744.80072 4294966552
415.03217 4018.9075 -744.42822 4294966552
417.3707 4018.6687 -744.60828 4294966552
391.53549 4020.6663 -744.99066 4294966552
395.17447 4020.4436 -744.92877 4294966552
397.60568 4020.2986 -744.95203 4294966552
323.73538 4025.5872 -744.94409 4294966552
353.51837 4023.4663 -744.96765 4294966552
297.61572 4027.2747 -744.61334 4294966552
313.34927 4026.3452 -744.99719 4294966552
203.19775 4033.9309 -744.86127 4294966552
205.05473 4034.207 -744.08856 4294966552
221.09474 4033.2937 -744.19226 4294966552
225.61935 4033.1384 -744.2182 4294966552
434.90213 3994.3418 -743.08478 4294966553
375.36975 3998.6978 -743.09869 4294966553
379.36243 3998.459 -743.11005 4294966553
409.69443 3996.4333 -743.0708 4294966553
341.24448 4001.1553 -743.01904 4294966553
351.40173 4000.3079 -743.15796 4294966553
361.52631 3999.7144 -743.10852 4294966553
371.3006 3999.0176 -743.06201 4294966553
297.52151 4004.9878 -743.52454 4294966553
299.65717 4004.365 -743.51025 4294966553
303.14722 4003.8513 -743.05676 4294966553
305.73651 4003.6577 -743.05341 4294966553
311.5498 4003.2354 -743.11755 4294966553
315.56265 4002.873 -743.06903 4294966553
323.22522 4002.3445 -743.09326 4294966553
327.22952 4002.0984 -743.0722 4294966553
245.36971 4007.9661 -743.87256 4294966553
249.54994 4007.5181 -743.88293 4294966553
251.45497 4007.4187 -743.75885 4294966553
255.27095 4007.2097 -743.92133 4294966553
257.38202 4007.166 -743.6535 4294966553
261.15829 4006.917 -743.7157 4294966553
263.35165 4006.7224 -743.77435 4294966553
265.06305 4006.5559 -743.72498 4294966553
267.62192 4006.3403 -743.40216 4294966553
271.89493 4005.8433 -743.44312 4294966553
276.85547 4005.9097 -743.31647 4294966553
279.18011 4005.9167 -743.64166 4294966553
295.56586 4005.5552 -743.84332 4294966553
215.3643 4010.8789 -743.97662 4294966553
239.52264 4008.5034 -743.9848 4294966553
243.31546 4008.3674 -743.85162 4294966553
194.33395 4013.2979 -743.49109 4294966553
195.31546 4013.0371 -743.64526 4294966553
200.9109 4012.1265 -743.8609 4294966553
188.49167 4016.2473 -743.45667 4294966553
190.58997 4014.6475 -743.32037 4294966553
413.43478 4019.0764 -743.05182 4294966553
429.69202 4018.0576 -743.5116 4294966553
435.3067 4017.6243 -743.04706 4294966553
319.75858 4025.8298 -743.25452 4294966553
331.49399 4024.9241 -743.01373 4294966553
341.18774 4024.2607 -743.14575 4294966553
277.40005 4028.9429 -743.11884 4294966553
280.09198 4028.5249 -743.19324 4294966553
285.48788 4027.5322 -743.51337 4294966553
290.98645 4027.2932 -743.03967 4294966553
293.34271 4027.4045 -743.12439 4294966553
295.61469 4027.3459 -743.8009 4294966553
301.57062 4027.1008 -743.13434 4294966553
241.51877 4031.8154 -743.53259 4294966553
243.57501 4031.5566 -743.19269 4294966553
245.12991 4031.4324 -743.71667 4294966553
249.4447 4031.0391 -743.18866 4294966553
253.48741 4030.7478 -743.01501 4294966553
203.13191 4034.4478 -743.71887 4294966553
209.62589 4034.2283 -743.78772 4294966553
215.34402 4033.729 -743.74054 4294966553
223.25929 4033.1799 -743.9823 4294966553
227.40433 4033.0303 -743.82062 4294966553
229.41319 4032.9009 -743.90271 4294966553
231.52231 4032.6975 -743.52277 4294966553
233.11995 4032.5676 -743.63666 4294966553
235.15327 4032.3591 -743.30719 4294966553
239.65906 4032.0305 -743.34363 4294966553
417.4245 3995.8152 -742.91913 4294966554
421.71838 3995.5215 -742.75677 4294966554
427.59824 3995.0063 -742.98615 4294966554
431.41595 3994.6677 -742.97113 4294966554
433.45508 3994.49 -742.96625 4294966554
415.33627 3996.0039 -742.85229 4294966554
333.42789 4001.729 -742.93274 4294966554
339.16583 4001.3152 -742.896 4294966554
343.43906 4001.05 -742.79333 4294966554
345.3248 4000.8516 -742.94763 4294966554
349.24429 4000.4778 -742.96552 4294966554
355.5708 4000.0063 -742.97125 4294966554
359.24243 3999.8103 -742.96533 4294966554
363.58249 3999.5649 -742.89587 4294966554
365.5661 3999.5359 -742.87097 4294966554
367.34726 3999.3689 -742.98926 4294966554
369.49579 3999.2585 -742.91315 4294966554
301.46796 4003.9016 -742.95203 4294966554
308.07849 4003.5234 -742.86938 4294966554
317.3208 4002.8076 -742.98871 4294966554
319.17151 4002.6619 -742.99591 4294966554
321.57199 4002.4758 -742.99139 4294966554
281.47366 4006.2866 -742.42053 4294966554
293.99854 4005.7126 -742.81769 4294966554
295.14035 4005.2891 -742.40448 4294966554
215.02911 4010.8384 -742.09094 4294966554
217.27484 4010.6731 -742.01056 4294966554
220.68355 4010.2151 -742.0498 4294966554
197.02795 4011.9116 -742.35913 4294966554
198.99478 4011.667 -742.25482 4294966554
207.4987 4011.3191 -742.77789 4294966554
211.08206 4011.2156 -742.94275 4294966554
185.73769 4016.9585 -742.24829 4294966554
427.34225 4018.1663 -742.87598 4294966554
433.36169 4017.7412 -742.96753 4294966554
365.59674 4022.4919 -742.92999 4294966554
371.50729 4022.0615 -742.91626 4294966554
391.1709 4020.658 -742.98865 4294966554
393.43463 4020.4922 -742.95349 4294966554
395.42801 4020.344 -742.75098 4294966554
399.35049 4020.0808 -742.86456 4294966554
335.55841 4024.6592 -742.95874 4294966554
283.08566 4028.2297 -742.45819 4294966554
299.42078 4027.2473 -742.89032 4294966554
303.33575 4026.9604 -742.85065 4294966554
315.56998 4026.0977 -742.90753 4294966554
247.77658 4031.1189 -742.67126 4294966554
251.21658 4030.9028 -742.94287 4294966554
367.32913 3999.7639 -741.01367 4294966555
298.87152 4004.6819 -741.35773 4294966555
305.37573 4004.0625 -741.09296 4294966555
250.98386 4007.9087 -741.4101 4294966555
253.08131 4007.834 -741.17609 4294966555
257.31949 4007.6592 -741.0788 4294966555
260.99756 4007.4353 -741.06372 4294966555
273.74814 4006.2256 -741.0871 4294966555
213.56783 4010.9785 -741.83612 4294966555
223.599 4010.0596 -741.6485 4294966555
227.71545 4009.8513 -741.47937 4294966555
229.39589 4009.656 -741.91638 4294966555
231.3311 4009.6084 -741.55023 4294966555
232.98746 4009.4541 -741.79248 4294966555
235.04147 4009.3779 -741.42114 4294966555
237.08963 4009.1921 -741.5863 4294966555
239.40067 4009.0803 -741.40387 4294966555
241.54425 4008.9238 -741.28632 4294966555
243.58815 4008.7183 -741.3125 4294966555
187.21297 4013.8225 -741.01477 4294966555
188.96272 4013.6042 -741.59076 4294966555
193.8293 4012.6052 -741.76965 4294966555
183.60722 4015.9321 -741.0047 4294966555
184.72232 4015.7522 -741.45581 4294966555
187.62987 4014.4602 -741.98645 4294966555
285.36545 4028.2185 -741.01477 4294966555
288.85709 4027.5771 -741.36615 4294966555
241.2807 4031.5579 -741.01428 4294966555
202.85124 4034.8411 -741.81732 4294966555
205.95346 4034.7573 -741.27649 4294966555
211.59145 4034.3594 -741.6062 4294966555
215.73718 4033.8892 -741.5174 4294966555
223.01414 4033.1479 -741.46887 4294966555
231.43336 4032.5076 -741.19189 4294966555
419.42609 3995.949 -740.92676 4294966556
423.26669 3995.6814 -740.93402 4294966556
429.4104 3995.231 -740.8443 4294966556
435.1835 3994.6511 -740.9184 4294966556
379.38412 3998.8667 -740.85992 4294966556
407.55447 3996.9182 -740.87811 4294966556
411.7164 3996.5789 -740.93866 4294966556
344.92682 4001.2629 -740.85651 4294966556
347.70755 4001.075 -740.75116 4294966556
359.67072 4000.2449 -740.53198 4294966556
363.56223 4000.0403 -740.75378 4294966556
369.36288 3999.6985 -740.7373 4294966556
373.41391 3999.3557 -740.80316 4294966556
303.47025 4004.261 -740.80646 4294966556
307.82971 4003.8892 -740.8349 4294966556
313.11185 4003.4492 -740.95526 4294966556
319.18738 4003.0537 -740.9303 4294966556
323.54919 4002.7593 -740.71527 4294966556
331.69623 4002.1995 -740.87109 4294966556
255.5329 4007.8066 -740.75464 4294966556
259.02414 4007.6001 -740.95178 4294966556
267.34052 4006.9089 -740.88721 4294966556
271.68445 4006.4067 -740.91724 4294966556
277.88931 4006.144 -740.62805 4294966556
279.26111 4005.9453 -740.87622 4294966556
293.84918 4005.5117 -740.95752 4294966556
296.15112 4005.0959 -740.9375 4294966556
193.19194 4012.5271 -740.7536 4294966556
194.8636 4012.0989 -740.80518 4294966556
196.9642 4011.8193 -740.91003 4294966556
198.90697 4011.7332 -740.59143 4294966556
185.80591 4014.3477 -740.97198 4294966556
181.409 4017.1506 -740.32819 4294966556
401.52982 4019.7471 -740.73633 4294966556
409.52408 4019.1863 -740.75018 4294966556
411.55957 4019.0417 -740.75964 4294966556
413.17175 4018.9336 -740.74152 4294966556
415.60107 4018.8093 -740.93982 4294966556
417.36942 4018.6577 -740.58148 4294966556
423.3457 4018.228 -740.49048 4294966556
425.20453 4018.106 -740.72498 4294966556
429.40137 4017.8323 -740.67285 4294966556
431.69131 4017.667 -740.672 4294966556
435.21692 4017.4255 -740.70105 4294966556
363.5 4022.4495 -740.76453 4294966556
367.57742 4022.1689 -740.75024 4294966556
369.63077 4021.9744 -740.51648 4294966556
373.37949 4021.7214 -740.78845 4294966556
377.56754 4021.4119 -740.66626 4294966556
387.3476 4020.7883 -740.88452 4294966556
389.34888 4020.708 -740.93317 4294966556
391.19418 4020.5581 -740.69299 4294966556
393.60635 4020.3723 -740.83392 4294966556
333.29379 4024.6396 -740.77258 4294966556
335.45087 4024.5249 -740.7489 4294966556
339.26779 4024.2559 -740.92938 4294966556
345.5329 4023.7341 -740.65076 4294966556
281.84735 4028.4763 -740.70154 4294966556
283.32141 4028.366 -740.66315 4294966556
291.72287 4027.6536 -740.40918 4294966556
295.38922 4027.3535 -740.8056 4294966556
297.42575 4027.2607 -740.89288 4294966556
309.87769 4026.3669 -740.59192 4294966556
311.69006 4026.2549 -740.93781 4294966556
239.53941 4031.6416 -740.34674 4294966556
243.48862 4031.364 -740.83771 4294966556
225.66879 4032.9124 -740.92682 4294966556
229.57439 4032.647 -740.93243 4294966556
233.60704 4032.2708 -740.62103 4294966556
421.48914 3996.0908 -739.0058 4294966557
221.037 4010.96 -739.1004 4294966557
223.38541 4010.7537 -739.07349 4294966557
227.22507 4010.4473 -739.09137 4294966557
239.01463 4009.6802 -739.02704 4294966557
246.25352 4008.7776 -739.70514 4294966557
185.32796 4013.624 -739.26367 4294966557
186.6196 4013.5391 -739.90021 4294966557
191.91258 4012.6584 -739.37415 4294966557
211.53065 4011.4023 -739.43781 4294966557
213.2729 4011.2878 -739.48022 4294966557
217.26579 4011.2065 -739.03363 4294966557
181.16728 4015.9683 -739.72961 4294966557
183.69293 4014.3384 -739.67444 4294966557
423.43152 3995.9824 -738.71948 4294966558
425.32062 3995.8379 -738.73846 4294966558
427.6886 3995.6445 -738.67004 4294966558
433.13138 3995.1008 -738.90869 4294966558
435.33578 3994.9375 -738.77069 4294966558
405.35733 3997.4187 -738.58429 4294966558
407.51413 3997.2537 -738.73682 4294966558
409.69128 3997.0527 -738.67102 4294966558
411.5965 3996.8665 -738.50476 4294966558
415.49451 3996.459 -738.6438 4294966558
417.3331 3996.3123 -738.8844 4294966558
419.68182 3996.2053 -738.659 4294966558
343.41476 4001.6951 -738.85016 4294966558
344.6907 4001.7449 -738.80249 4294966558
347.40527 4001.686 -738.47565 4294966558
361.53961 4000.3508 -738.79199 4294966558
363.36304 4000.2825 -738.69983 4294966558
365.47095 4000.2029 -738.63904 4294966558
369.12338 3999.9575 -738.80664 4294966558
373.24771 3999.6572 -738.50336 4294966558
301.42105 4004.8091 -738.89203 4294966558
305.71542 4004.4666 -738.82257 4294966558
309.45093 4004.1365 -738.71442 4294966558
317.74301 4003.6023 -738.72876 4294966558
319.40454 4003.5173 -738.71521 4294966558
323.3689 4003.1289 -738.85986 4294966558
325.45026 4002.9624 -738.8526 4294966558
329.2294 4002.6631 -738.90527 4294966558
263.01138 4007.7969 -738.74786 4294966558
265.30685 4007.6294 -738.72491 4294966558
269.62128 4007.2705 -738.77014 4294966558
273.34055 4006.9041 -738.77209 4294966558
275.19299 4006.7764 -738.58173 4294966558
277.82977 4006.55 -738.75085 4294966558
281.52829 4006.2979 -738.77478 4294966558
292.81094 4005.8896 -738.81787 4294966558
295.53998 4005.2734 -738.82666 4294966558
296.97012 4005.1555 -738.81274 4294966558
225.54027 4010.6372 -738.83264 4294966558
229.86111 4010.3198 -738.75226 4294966558
231.28056 4010.1982 -738.94189 4294966558
235.02415 4009.9712 -738.98553 4294966558
241.16415 4009.5964 -738.68799 4294966558
243.10616 4009.3667 -738.60883 4294966558
251.7094 4008.3223 -738.70117 4294966558
253.46504 4008.1362 -738.8056 4294966558
184.76366 4013.3884 -738.17316 4294966558
190.91103 4012.7349 -738.07013 4294966558
215.58864 4011.2954 -738.96198 4294966558
179.13879 4015.9094 -738.40442 4294966558
180.87979 4014.6042 -738.31152 4294966558
397.40454 4019.9502 -738.29169 4294966558
399.34305 4019.7959 -738.33203 4294966558
401.39923 4019.6204 -738.19629 4294966558
411.36777 4019.0059 -738.39624 4294966558
413.10922 4018.8596 -738.38794 4294966558
415.59702 4018.6372 -738.15076 4294966558
417.37817 4018.5315 -738.1225 4294966558
419.06128 4018.4651 -738.63385 4294966558
421.43988 4018.2998 -738.20844 4294966558
423.52444 4018.1377 -738.10797 4294966558
425.41861 4017.991 -738.36102 4294966558
427.50391 4017.8171 -738.1947 4294966558
429.21027 4017.6868 -738.05768 4294966558
431.36258 4017.5442 -738.27753 4294966558
435.55978 4017.2441 -738.0351 4294966558
359.34302 4022.6414 -738.33289 4294966558
365.57828 4022.166 -738.0769 4294966558
371.2244 4021.7144 -738.203 4294966558
373.44794 4021.5315 -738.18347 4294966558
375.41452 4021.4133 -738.29791 4294966558
379.59528 4021.1504 -738.11145 4294966558
381.49435 4021.052 -738.18396 4294966558
387.25766 4020.7324 -738.28406 4294966558
389.40585 4020.5776 -738.22058 4294966558
391.40115 4020.4177 -738.03717 4294966558
395.44522 4020.0872 -738.05872 4294966558
315.24799 4025.938 -738.7442 4294966558
331.495 4024.7065 -738.12592 4294966558
333.18985 4024.5713 -738.14191 4294966558
335.23834 4024.4338 -738.1308 4294966558
337.32553 4024.2832 -738.32935 4294966558
341.45544 4023.9441 -738.12646 4294966558
343.54245 4023.7891 -738.17578 4294966558
345.24606 4023.6633 -738.05743 4294966558
349.41006 4023.3953 -738.19196 4294966558
277.35028 4028.7214 -738.63379 4294966558
279.38995 4028.5759 -738.69128 4294966558
283.06613 4028.3086 -738.78015 4294966558
285.47086 4028.0942 -738.60303 4294966558
287.43628 4027.9397 -738.7666 4294966558
291.71707 4027.5679 -738.15387 4294966558
299.50784 4027.0217 -738.28418 4294966558
301.30603 4026.8967 -738.36127 4294966558
303.28018 4026.7556 -738.15704 4294966558
307.73523 4026.4268 -738.19501 4294966558
309.50427 4026.2749 -738.01886 4294966558
313.1734 4026.0439 -738.02551 4294966558
241.52771 4031.323 -738.59998 4294966558
245.19344 4031.0627 -738.95068 4294966558
249.42444 4030.7224 -738.8869 4294966558
251.43916 4030.677 -738.81976 4294966558
253.06847 4030.5559 -738.87817 4294966558
255.22888 4030.3572 -738.49695 4294966558
261.21893 4029.9265 -738.82983 4294966558
203.21638 4034.8406 -738.96722 4294966558
215.71803 4033.6382 -738.76593 4294966558
219.56731 4033.3347 -738.90271 4294966558
223.17995 4033.0034 -738.90338 4294966558
225.43025 4032.8149 -738.96362 4294966558
227.39684 4032.6599 -738.7088 4294966558
231.57425 4032.3245 -738.8446 4294966558
286.73441 4006.8879 -737.09875 4294966559
182.78925 4013.7502 -737.88666 4294966559
186.19856 4012.9529 -737.95447 4294966559
221.30263 4011.2976 -737.17786 4294966559
177.39635 4016.3203 -737.6795 4294966559
179.42612 4014.9414 -737.57813 4294966559
180.63432 4014.2922 -737.18433 4294966559
369.71262 4021.8315 -737.96228 4294966559
377.8299 4021.2419 -737.91675 4294966559
385.4704 4020.825 -737.96326 4294966559
347.35611 4023.4995 -737.59039 4294966559
351.62048 4023.2671 -737.82416 4294966559
248.19923 4030.8013 -737.875 4294966559
205.19437 4034.6545 -737.11993 4294966559
429.74124 3995.8257 -736.03607 4294966560
435.39975 3995.3 -736.125 4294966560
405.40253 3997.7039 -736.03595 4294966560
407.2735 3997.5715 -736.26086 4294966560
417.40125 3996.6213 -736.12103 4294966560
419.07367 3996.5305 -736.17188 4294966560
423.36996 3996.3418 -736.13763 4294966560
363.55237 4000.6555 -736.10614 4294966560
367.56467 4000.4658 -736.08191 4294966560
373.35559 3999.9597 -736.16608 4294966560
265.59454 4007.9895 -736.75891 4294966560
275.13232 4007.3181 -736.10181 4294966560
277.87885 4007.2234 -736.13666 4294966560
285.26779 4006.731 -736.05414 4294966560
289.04163 4006.541 -736.00385 4294966560
297.29501 4005.6731 -736.52954 4294966560
227.04906 4010.9949 -736.65698 4294966560
229.68768 4010.7566 -736.86133 4294966560
233.42671 4010.5449 -736.81177 4294966560
237.69653 4010.2703 -736.6413 4294966560
239.41656 4010.1248 -736.76434 4294966560
241.5174 4010.0613 -736.33832 4294966560
243.35538 4009.8853 -736.37421 4294966560
245.62259 4009.5586 -736.57166 4294966560
250.22803 4008.8115 -736.89502 4294966560
255.32527 4008.5574 -736.73621 4294966560
257.27808 4008.4468 -736.60431 4294966560
261.71381 4008.406 -736.13397 4294966560
267.65698 4008.0195 -736.03925 4294966560
182.84077 4013.5029 -736.01196 4294966560
184.81168 4013.1006 -736.06329 4294966560
186.03767 4012.9846 -736.10852 4294966560
223.41589 4011.2378 -736.85016 4294966560
225.58679 4011.0923 -736.7403 4294966560
175.73938 4016.1843 -736.62958 4294966560
417.11014 4018.5547 -736.08173 4294966560
356.65451 4022.9907 -736.01514 4294966560
243.0489 4031.0593 -736.1767 4294966560
201.65152 4034.9214 -736.72845 4294966560
209.51747 4034.2031 -736.92303 4294966560
213.71397 4033.7781 -736.38318 4294966560
215.18266 4033.5225 -736.82202 4294966560
217.36334 4033.3706 -736.70551 4294966560
221.71895 4033.0249 -736.80597 4294966560
225.45918 4032.6787 -736.65863 4294966560
227.77687 4032.4609 -736.12744 4294966560
229.25105 4032.3457 -736.5481 4294966560
231.15443 4032.1433 -736.42932 4294966560
199.67674 4035.1328 -736.72949 4294966560
389.90051 3998.9482 -735.77667 4294966561
393.2818 3998.7197 -735.85687 4294966561
395.4433 3998.5881 -735.74542 4294966561
409.76108 3997.3809 -735.90479 4294966561
414.1377 3996.8828 -735.89514 4294966561
425.37408 3996.2476 -735.86993 4294966561
427.53519 3996.0549 -735.91846 4294966561
359.28656 4000.9006 -735.84546 4294966561
361.72803 4000.7673 -735.90753 4294966561
345.73792 4002.3743 -735.87329 4294966561
269.83923 4007.8845 -735.95801 4294966561
271.5751 4007.7349 -735.94708 4294966561
273.35123 4007.6133 -735.83093 4294966561
279.44669 4007.2227 -735.7345 4294966561
281.57834 4007.1084 -735.80078 4294966561
283.42456 4007.0037 -735.81287 4294966561
181.06963 4013.8411 -735.90594 4294966561
177.9106 4014.4387 -735.18872 4294966561
179.23686 4014.2529 -735.62769 4294966561
399.354 4019.9841 -735.67493 4294966561
401.3869 4019.6602 -735.82147 4294966561
403.37173 4019.5093 -735.77289 4294966561
411.61166 4018.9807 -735.58099 4294966561
413.32449 4018.8325 -735.51654 4294966561
415.34128 4018.6985 -735.49451 4294966561
419.23691 4018.4214 -735.92999 4294966561
421.44797 4018.301 -735.51917 4294966561
423.49594 4018.0935 -735.76154 4294966561
427.57114 4017.7891 -735.55383 4294966561
431.26434 4017.5056 -735.65912 4294966561
433.46579 4017.5706 -735.76947 4294966561
435.46185 4017.2761 -735.60468 4294966561
361.45032 4022.647 -735.69788 4294966561
363.73856 4022.4292 -735.54358 4294966561
367.39893 4022.2246 -735.64594 4294966561
369.44662 4022.02 -735.85425 4294966561
373.35754 4021.6692 -735.8056 4294966561
375.29749 4021.6648 -735.80383 4294966561
377.64551 4021.5525 -735.70605 4294966561
379.46964 4021.4119 -735.70831 4294966561
383.35855 4021.0022 -735.45233 4294966561
385.43839 4021.0405 -735.65405 4294966561
389.2226 4020.6008 -735.67151 4294966561
391.02673 4020.6172 -735.69 4294966561
393.58646 4020.2695 -735.61945 4294966561
337.35022 4024.3035 -735.81268 4294966561
341.31961 4024.0166 -735.64801 4294966561
343.62683 4023.8137 -735.71472 4294966561
345.42828 4023.697 -735.40686 4294966561
349.54739 4023.4221 -735.31793 4294966561
355.49692 4023.2251 -735.13855 4294966561
275.0462 4028.7141 -735.7016 4294966561
279.43631 4028.572 -735.77753 4294966561
281.38995 4028.3083 -735.83124 4294966561
283.58411 4028.2876 -735.63983 4294966561
285.44519 4027.9763 -735.86389 4294966561
287.68262 4027.7864 -735.60876 4294966561
289.39307 4027.6587 -735.61163 4294966561
291.30231 4027.6604 -735.71967 4294966561
293.52969 4027.3386 -735.53558 4294966561
295.25467 4027.2024 -735.75916 4294966561
297.35211 4027.1326 -735.42603 4294966561
301.5932 4027.0906 -735.07111 4294966561
311.58713 4026.3452 -735.00458 4294966561
313.36877 4026.0071 -735.00458 4294966561
233.4879 4031.8083 -735.83087 4294966561
239.74956 4031.1758 -735.74768 4294966561
241.56967 4031.199 -735.67285 4294966561
245.35793 4030.9548 -735.62573 4294966561
247.53873 4030.8079 -735.90399 4294966561
249.52826 4030.6348 -735.51849 4294966561
250.98108 4030.5247 -735.86707 4294966561
253.77888 4030.3123 -735.71191 4294966561
257.51648 4030.1001 -735.61591 4294966561
259.42419 4029.8645 -735.1311 4294966561
261.47717 4029.6709 -735.62775 4294966561
263.58548 4029.6902 -735.58441 4294966561
265.33267 4029.4058 -735.8576 4294966561
205.32948 4034.5449 -735.01196 4294966561
223.9216 4032.7874 -735.86511 4294966561
431.18808 3995.8157 -734.08301 4294966562
403.38492 3997.8066 -734.00171 4294966562
291.81918 4006.2412 -734.15503 4294966562
260.10599 4008.7654 -734.16266 4294966562
219.61467 4011.9011 -734.39374 4294966562
223.65994 4011.6672 -734.22223 4294966562
225.31754 4011.4729 -734.74103 4294966562
227.31071 4011.3245 -734.40149 4294966562
229.77066 4011.1416 -734.29614 4294966562
359.39059 4022.9585 -734.98535 4294966562
371.48828 4022.4553 -734.08154 4294966562
375.64627 4022.2295 -734.06561 4294966562
379.38531 4021.9502 -734.0636 4294966562
383.38754 4021.5662 -734.35352 4294966562
387.48712 4020.8542 -734.8938 4294966562
399.33917 4020.4429 -734.12915 4294966562
315.43082 4025.9001 -734.87634 4294966562
317.51407 4025.832 -734.73755 4294966562
325.87112 4025.646 -734.02002 4294966562
327.7135 4025.4148 -734.20154 4294966562
329.56891 4025.1042 -734.10175 4294966562
331.66599 4025.0598 -734.3501 4294966562
333.45071 4024.8237 -734.80121 4294966562
335.3107 4024.7017 -734.98413 4294966562
351.3248 4023.4001 -734.81006 4294966562
354.96307 4023.5217 -734.16272 4294966562
277.59622 4028.8062 -734.76251 4294966562
303.09161 4027.1199 -734.31067 4294966562
305.78894 4026.7917 -734.67084 4294966562
307.52841 4026.6313 -734.98474 4294966562
309.27982 4026.5203 -734.75372 4294966562
203.86577 4034.6831 -734.82605 4294966562
213.86859 4033.5469 -734.22821 4294966562
215.64404 4033.3347 -734.21069 4294966562
219.44003 4033.0476 -734.13959 4294966562
197.08696 4035.4338 -734.72943 4294966562
199.39314 4035.1533 -734.58789 4294966562
435.41885 3995.3589 -733.63434 4294966563
387.53549 3998.8245 -733.50684 4294966563
391.43411 3998.6262 -733.57892 4294966563
405.21899 3997.5618 -733.8324 4294966563
407.06168 3997.4092 -733.79431 4294966563
409.51187 3997.2529 -733.56866 4294966563
415.60513 3996.8074 -733.08551 4294966563
417.40176 3996.6853 -733.09888 4294966563
418.90033 3996.4543 -733.19141 4294966563
421.87646 3996.4097 -733.61279 4294966563
425.26465 3996.187 -733.66583 4294966563
361.61639 4000.4988 -733.8139 4294966563
375.56308 3999.4504 -733.86536 4294966563
271.9425 4007.814 -733.51007 4294966563
275.21875 4007.665 -733.87585 4294966563
277.78983 4007.1846 -733.83435 4294966563
279.21741 4006.9421 -733.05127 4294966563
285.23145 4006.7732 -733.6059 4294966563
287.41345 4006.6113 -733.69666 4294966563
235.45651 4010.8052 -733.8382 4294966563
237.54124 4010.8276 -733.75977 4294966563
241.17398 4010.5725 -733.85938 4294966563
245.53525 4010.0017 -733.94141 4294966563
249.82552 4009.4766 -733.88806 4294966563
251.78331 4009.2434 -733.7793 4294966563
253.42421 4009.2263 -733.30072 4294966563
262.9653 4008.6123 -733.95636 4294966563
265.87906 4008.4473 -733.46094 4294966563
269.71255 4008.0718 -733.54913 4294966563
181.35689 4013.7209 -733.85773 4294966563
183.17747 4013.5952 -733.70575 4294966563
185.25893 4013.543 -733.28967 4294966563
233.43529 4011.0205 -733.96558 4294966563
174.05975 4014.8992 -733.40991 4294966563
177.55341 4014.2871 -733.72412 4294966563
179.2065 4014.0105 -733.74231 4294966563
417.57169 4018.9651 -733.97638 4294966563
419.48047 4018.9143 -733.83954 4294966563
421.49628 4018.9829 -733.76648 4294966563
425.36975 4018.7822 -733.59338 4294966563
427.62656 4018.4441 -733.88074 4294966563
429.52786 4018.3472 -733.76825 4294966563
433.29361 4018.0786 -733.91962 4294966563
377.45917 4022.4243 -733.53271 4294966563
381.35202 4021.8669 -733.95154 4294966563
383.13336 4022.0608 -733.4848 4294966563
385.60214 4021.5286 -733.95386 4294966563
389.36783 4021.1963 -733.95966 4294966563
391.2392 4021.1174 -733.71942 4294966563
395.42184 4020.6973 -733.6405 4294966563
397.30524 4020.5146 -733.85443 4294966563
401.89874 4020.8745 -733.08423 4294966563
323.41391 4025.9993 -733.01965 4294966563
329.27679 4025.2979 -733.45367 4294966563
333.3985 4025.0208 -733.65381 4294966563
335.49277 4025.0488 -733.76044 4294966563
337.62378 4025.0225 -733.72687 4294966563
339.23492 4024.6621 -733.94794 4294966563
343.75305 4024.5049 -733.80487 4294966563
347.47342 4024.041 -733.63214 4294966563
357.57886 4023.4333 -733.79144 4294966563
359.31879 4023.2905 -733.86682 4294966563
361.49039 4023.4841 -733.30829 4294966563
280.00842 4028.9702 -733.46179 4294966563
283.32114 4028.6973 -733.67694 4294966563
285.56348 4028.5603 -733.62213 4294966563
287.61774 4028.4182 -733.65643 4294966563
289.33551 4028.261 -733.77209 4294966563
291.64178 4028.1467 -733.61945 4294966563
299.46613 4027.5786 -733.73169 4294966563
301.50928 4027.3914 -733.72144 4294966563
303.83932 4027.3406 -733.32263 4294966563
307.5816 4026.8147 -733.56653 4294966563
309.33051 4026.7244 -733.50018 4294966563
311.50443 4026.7014 -733.51312 4294966563
313.6312 4026.5828 -733.48291 4294966563
319.24567 4026.2373 -733.07965 4294966563
321.22647 4026.1155 -733.10541 4294966563
237.4747 4031.9373 -733.66925 4294966563
241.14345 4031.5225 -733.93756 4294966563
243.57579 4031.4873 -733.48419 4294966563
245.22658 4031.3096 -733.67126 4294966563
247.17342 4031.1953 -733.72656 4294966563
251.19423 4031.011 -733.49426 4294966563
253.618 4030.8259 -733.6673 4294966563
255.34877 4030.7048 -733.67023 4294966563
257.21671 4030.5513 -733.62366 4294966563
261.90472 4030.2588 -733.48907 4294966563
263.54431 4030.1565 -733.50433 4294966563
275.26392 4029.2131 -733.48779 4294966563
217.74651 4033.1382 -733.78455 4294966563
221.42317 4032.9702 -733.74286 4294966563
223.748 4032.9224 -733.01868 4294966563
227.63457 4032.5415 -733.56287 4294966563
231.4847 4032.3792 -733.73352 4294966563
427.9429 3995.5791 -732.01013 4294966564
387.40692 3998.4177 -732.29248 4294966564
389.4299 3998.3416 -732.16632 4294966564
391.23099 3998.2332 -732.17969 4294966564
393.48651 3998.0508 -732.12225 4294966564
395.1615 3998.1602 -732.37012 4294966564
399.8866 3997.47 -732.44543 4294966564
403.39661 3997.2097 -732.41028 4294966564
407.38062 3996.9177 -732.0882 4294966564
409.22583 3996.9478 -732.42834 4294966564
411.68481 3996.7212 -732.21228 4294966564
421.73099 3996.1062 -732.01135 4294966564
269.50244 4007.937 -732.15314 4294966564
271.61539 4007.6597 -732.17334 4294966564
273.71298 4007.3123 -732.07806 4294966564
281.73117 4006.9001 -732.73511 4294966564
284.31012 4006.7913 -732.6814 4294966564
285.63568 4006.6169 -732.26044 4294966564
288.89224 4006.3037 -732.73871 4294966564
291.33118 4006.0754 -732.7876 4294966564
231.7587 4010.9277 -732.04791 4294966564
239.18484 4010.3801 -732.05621 4294966564
262.6207 4008.5981 -732.55829 4294966564
267.66052 4008.1599 -732.29633 4294966564
413.51413 4019.8057 -732.96655 4294966564
417.94379 4019.6338 -732.96692 4294966564
423.41299 4019.3286 -732.87952 4294966564
427.56012 4019.2563 -732.51678 4294966564
431.4213 4019.0139 -732.56219 4294966564
433.03314 4018.7502 -732.85388 4294966564
436.08188 4019.2676 -732.0993 4294966564
381.12601 4022.6926 -732.80255 4294966564
385.63666 4022.3953 -732.7229 4294966564
387.82495 4022.0981 -732.74542 4294966564
389.41608 4022.2253 -732.43292 4294966564
391.24799 4021.7776 -732.64063 4294966564
393.59216 4022.1733 -732.12622 4294966564
397.20334 4021.4797 -732.58405 4294966564
419.54367 4020.1729 -732.22235 4294966564
333.3031 4025.6338 -732.76184 4294966564
337.39136 4025.9172 -732.4209 4294966564
339.46112 4025.7854 -732.24554 4294966564
343.47144 4025.6182 -732.32648 4294966564
345.32538 4025.1934 -732.51563 4294966564
347.4147 4025.0137 -732.53766 4294966564
349.55362 4024.8999 -732.50031 4294966564
352.95883 4024.71 -732.43414 4294966564
355.56055 4024.45 -732.4754 4294966564
357.67123 4024.5674 -732.22113 4294966564
359.62418 4024.3735 -732.28156 4294966564
363.64563 4024.5251 -732.15613 4294966564
365.25851 4023.9456 -732.41058 4294966564
369.32611 4023.9119 -732.39874 4294966564
373.59708 4023.3 -732.74182 4294966564
375.5336 4023.3669 -732.54028 4294966564
379.62662 4023.0315 -732.59515 4294966564
293.39539 4028.8835 -732.29602 4294966564
295.21069 4028.7231 -732.4126 4294966564
297.5065 4028.7859 -732.1441 4294966564
299.43655 4028.5093 -732.21393 4294966564
301.3909 4028.4312 -732.04767 4294966564
315.29752 4026.8362 -732.4787 4294966564
317.59363 4026.6272 -732.51843 4294966564
321.29434 4026.5364 -732.41064 4294966564
325.44742 4026.2761 -732.25372 4294966564
327.29102 4026.5801 -732.08582 4294966564
335.44955 4026.0005 -732.1546 4294966564
245.33817 4031.8457 -732.48663 4294966564
246.66257 4031.8118 -732.3576 4294966564
249.69135 4031.5847 -732.44476 4294966564
253.46666 4031.2031 -732.44183 4294966564
255.06015 4031.1609 -732.2915 4294966564
257.29578 4031.0801 -732.39203 4294966564
259.20053 4030.9089 -732.45337 4294966564
261.5929 4030.9749 -732.09595 4294966564
263.3284 4030.5972 -732.61035 4294966564
267.3132 4030.679 -732.1955 4294966564
275.26465 4029.5886 -732.64209 4294966564
277.56827 4029.5435 -732.37018 4294966564
279.57172 4029.4912 -732.36121 4294966564
280.91504 4029.5493 -732.19031 4294966564
285.51703 4029.3298 -732.10504 4294966564
287.45169 4029.0613 -732.38989 4294966564
289.40509 4029.0835 -732.17798 4294966564
291.40817 4029.0276 -732.20874 4294966564
205.41115 4034.5222 -732.81995 4294966564
208.11739 4034.1418 -732.18054 4294966564
209.58435 4033.9851 -732.41876 4294966564
229.78923 4032.6824 -732.90637 4294966564
235.25859 4032.6006 -732.3609 4294966564
241.22093 4032.1438 -732.53864 4294966564
195.66338 4035.5969 -732.59589 4294966564
197.69757 4035.3477 -732.61035 4294966564
423.50131 3995.9402 -731.86279 4294966565
425.10251 3995.8184 -731.96747 4294966565
431.36093 3995.2698 -731.70496 4294966565
433.36935 3995.0725 -731.75842 4294966565
435.41562 3995.0015 -731.81372 4294966565
401.15317 3997.0618 -731.81799 4294966565
404.87759 3996.6785 -731.50977 4294966565
415.76825 3996.3259 -731.85205 4294966565
419.17789 3996.106 -731.66815 4294966565
270.86148 4007.5432 -731.24554 4294966565
273.86581 4007.0142 -731.40576 4294966565
283.49835 4006.2881 -731.23474 4294966565
235.26489 4010.6074 -731.77972 4294966565
243.5098 4010.1936 -731.84479 4294966565
248.31436 4009.5933 -731.84033 4294966565
254.13142 4008.9453 -731.73798 4294966565
256.56555 4008.8779 -731.90491 4294966565
259.13538 4008.7566 -731.75128 4294966565
264.22745 4008.3994 -731.71338 4294966565
178.94318 4013.99 -731.74554 4294966565
177.20482 4014.2468 -731.33551 4294966565
181.35429 4014.1108 -731.02844 4294966565
397.4425 4022.8748 -731.58588 4294966565
401.1163 4022.7478 -731.59528 4294966565
415.46494 4022.0083 -731.15442 4294966565
417.2738 4020.9797 -731.76294 4294966565
419.13037 4021.9292 -731.06061 4294966565
421.27606 4022.0151 -731.22931 4294966565
423.42767 4022.0188 -731.03674 4294966565
425.49725 4021.1902 -731.39838 4294966565
427.31201 4020.7253 -731.50812 4294966565
429.45401 4021.688 -731.12939 4294966565
431.43341 4020.4614 -731.54028 4294966565
433.70798 4020.678 -731.46185 4294966565
435.46301 4021.8333 -731.08545 4294966565
436.28931 4020.4451 -731.50885 4294966565
355.22937 4025.9609 -731.56305 4294966565
357.56448 4025.9353 -731.48755 4294966565
359.08505 4025.9421 -731.47168 4294966565
363.29294 4025.7622 -731.30646 4294966565
365.52795 4025.8855 -731.34924 4294966565
367.12631 4025.9026 -731.52313 4294966565
371.4371 4025.8433 -731.21881 4294966565
373.30444 4025.2246 -731.57715 4294966565
375.1228 4024.9067 -731.63165 4294966565
379.62366 4024.4478 -731.74951 4294966565
380.98672 4024.7795 -731.63898 4294966565
381.47205 4025.7764 -731.40338 4294966565
383.46667 4025.1143 -731.53253 4294966565
385.46689 4024.8364 -731.54456 4294966565
387.082 4024.8889 -731.427 4294966565
389.40472 4024.8037 -731.41089 4294966565
391.44363 4024.2209 -731.39117 4294966565
393.29861 4023.7524 -731.34576 4294966565
395.56284 4023.7991 -731.08356 4294966565
399.56799 4023.9104 -731.23907 4294966565
303.57407 4028.3425 -731.60004 4294966565
305.42151 4028.3511 -731.48267 4294966565
307.35455 4028.2314 -731.48724 4294966565
311.50482 4027.4941 -731.97296 4294966565
313.30386 4028.5015 -731.53064 4294966565
315.0416 4028.7622 -731.49945 4294966565
317.67093 4028.3555 -731.5943 4294966565
319.39252 4027.2815 -731.80255 4294966565
323.42123 4028.4199 -731.52655 4294966565
325.68896 4027.9827 -731.5152 4294966565
329.61047 4027.7649 -731.42163 4294966565
331.39746 4026.2361 -731.83826 4294966565
333.38501 4027.1899 -731.61035 4294966565
335.29944 4028.9226 -731.12415 4294966565
337.5289 4027.6912 -731.49365 4294966565
341.56723 4027.1506 -731.64825 4294966565
343.48709 4027.7268 -731.37524 4294966565
345.3287 4027.6042 -731.36182 4294966565
347.10437 4026.447 -731.66852 4294966565
348.68021 4027.5989 -731.32935 4294966565
349.27084 4026.3359 -731.60571 4294966565
351.42645 4026.9272 -731.45117 4294966565
353.37878 4027.5664 -731.13837 4294966565
355.49188 4027.2461 -731.30823 4294966565
359.33298 4027.1584 -731.2691 4294966565
361.21024 4026.9207 -731.289 4294966565
367.14084 4027.772 -731.34741 4294966565
371.32681 4027.7095 -731.27606 4294966565
375.50681 4027.6809 -731.21973 4294966565
254.72874 4031.7883 -731.51727 4294966565
262.89783 4031.5071 -731.41949 4294966565
265.30948 4030.9873 -731.94794 4294966565
271.0809 4031.1794 -731.3526 4294966565
273.66403 4030.5825 -731.49701 4294966565
275.75339 4030.5696 -731.19464 4294966565
281.34335 4030.6758 -731.19513 4294966565
283.58701 4029.4546 -731.93903 4294966565
289.57071 4030.248 -731.3111 4294966565
291.80731 4030.5691 -731.23645 4294966565
295.37476 4030.4319 -731.3385 4294966565
297.24377 4030.4692 -731.28265 4294966565
301.30341 4030.3975 -731.1145 4294966565
303.03244 4029.8313 -731.17084 4294966565
304.72769 4030.7412 -731.00201 4294966565
309.56851 4029.573 -731.14679 4294966565
315.29691 4030.7314 -731.21332 4294966565
321.3941 4029.574 -731.23846 4294966565
327.55008 4029.1919 -731.27673 4294966565
345.50192 4029.6174 -731.10455 4294966565
347.22867 4029.8218 -731.13885 4294966565
349.24356 4030.0115 -731.19885 4294966565
351.03329 4030.3696 -731.30591 4294966565
353.36041 4030.1582 -731.28973 4294966565
355.52213 4030.0247 -731.30511 4294966565
357.62314 4029.9675 -731.33173 4294966565
359.59064 4030.0671 -731.39532 4294966565
360.94653 4030.1462 -731.44293 4294966565
363.79138 4030.0442 -731.46802 4294966565
365.18564 4030.2861 -731.52808 4294966565
213.66264 4033.5779 -731.62219 4294966565
215.68336 4033.6465 -731.63141 4294966565
221.19907 4033.5144 -731.85291 4294966565
229.43509 4033.0632 -731.79089 4294966565
231.39046 4033.3376 -731.19708 4294966565
233.14563 4033.4973 -731.06281 4294966565
239.07545 4033.3015 -731.24835 4294966565
241.34909 4033.0906 -731.2738 4294966565
243.44398 4032.4551 -731.65234 4294966565
247.07756 4032.8503 -731.10846 4294966565
249.42326 4032.6047 -731.17035 4294966565
251.34045 4032.5996 -731.08496 4294966565
253.34259 4032.4631 -731.10016 4294966565
257.55685 4032.0789 -731.1391 4294966565
301.51959 4034.0276 -731.04626 4294966565
303.45532 4033.8462 -731.07855 4294966565
351.01926 4032.8853 -731.79248 4294966565
353.79565 4032.7896 -731.81226 4294966565
355.31226 4032.7659 -731.82916 4294966565
357.5759 4032.8123 -731.87976 4294966565
201.30919 4035.0164 -731.02679 4294966565
399.47137 3995.9084 -730.36688 4294966566
401.39609 3995.3738 -730.1756 4294966566
407.47095 3995.6658 -730.4848 4294966566
409.83282 3995.3301 -730.23572 4294966566
411.3606 3995.8093 -730.69873 4294966566
413.83463 3995.5225 -730.4577 4294966566
415.1882 3995.457 -730.44202 4294966566
417.5163 3995.5105 -730.23608 4294966566
421.65588 3994.9475 -730.29706 4294966566
429.33725 3994.3416 -730.35718 4294966566
431.19684 3994.302 -730.3844 4294966566
433.3905 3994.3782 -730.51959 4294966566
435.49652 3994.2832 -730.48102 4294966566
385.45734 3997.2839 -730.43652 4294966566
387.3627 3997.3701 -730.53198 4294966566
389.48993 3997.2964 -730.37286 4294966566
391.38293 3997.1907 -730.52362 4294966566
393.55249 3997.1614 -730.67969 4294966566
395.09402 3996.9084 -730.62823 4294966566
397.55008 3996.8098 -730.94452 4294966566
403.46143 3996.0869 -730.79211 4294966566
291.30811 4004.7688 -730.38751 4294966566
267.10046 4007.6836 -730.62018 4294966566
269.51828 4007.137 -730.3576 4294966566
270.80945 4006.5911 -730.08521 4294966566
275.58768 4005.9612 -730.5943 4294966566
277.33044 4005.9453 -730.70306 4294966566
279.24429 4005.675 -730.58752 4294966566
285.33725 4005.7207 -730.68542 4294966566
287.43509 4005.6763 -730.88251 4294966566
229.79764 4010.4241 -730.38605 4294966566
231.85971 4010.2505 -730.40814 4294966566
235.20074 4009.9744 -730.32526 4294966566
237.03592 4009.8506 -730.38269 4294966566
241.47073 4009.7351 -730.79688 4294966566
245.38672 4009.2373 -730.19464 4294966566
261.32251 4008.3079 -730.67181 4294966566
263.19476 4008.3484 -730.93457 4294966566
264.68622 4008.0894 -730.65082 4294966566
225.60594 4011.0063 -730.16522 4294966566
183.29745 4014.0479 -730.9942 4294966566
421.17694 4023.6409 -730.89832 4294966566
429.88556 4023.8875 -730.98956 4294966566
433.06168 4023.5259 -730.96252 4294966566
435.13364 4023.9854 -730.89813 4294966566
273.26434 4031.7144 -730.95215 4294966566
277.86844 4031.5886 -730.73187 4294966566
283.59116 4031.6765 -730.87585 4294966566
285.5491 4031.5637 -730.71582 4294966566
291.42639 4031.6248 -730.89667 4294966566
295.30908 4031.6348 -730.98694 4294966566
299.21091 4031.5996 -730.98993 4294966566
303.17627 4031.0413 -730.9762 4294966566
307.34348 4030.2773 -730.93268 4294966566
203.09256 4034.8469 -730.43854 4294966566
207.36974 4034.2703 -730.10022 4294966566
209.08022 4034.1577 -730.00745 4294966566
215.76494 4034.2004 -730.08612 4294966566
219.91455 4034.1018 -730.4931 4294966566
221.66832 4034.3826 -730.10016 4294966566
223.55275 4034.0759 -730.48798 4294966566
225.79259 4033.8191 -730.62073 4294966566
231.75652 4034.4617 -730.20734 4294966566
235.23212 4033.6279 -730.9292 4294966566
237.52898 4034.5125 -730.53241 4294966566
242.85443 4034.4756 -730.46216 4294966566
245.37354 4034.0818 -730.52142 4294966566
247.62384 4033.7571 -730.48981 4294966566
249.68504 4033.8889 -730.51917 4294966566
251.36678 4033.7878 -730.39429 4294966566
253.27321 4033.5769 -730.39807 4294966566
255.21686 4034.8608 -730.30682 4294966566
256.59369 4033.3687 -730.50659 4294966566
259.48712 4032.877 -730.71704 4294966566
261.74655 4032.614 -730.7771 4294966566
263.36426 4033.7703 -730.47742 4294966566
265.27686 4033.095 -730.73224 4294966566
267.4827 4033.1433 -730.77576 4294966566
268.99503 4033.6394 -730.64172 4294966566
273.24152 4033.1189 -730.66571 4294966566
275.90942 4032.947 -730.65503 4294966566
277.806 4032.8982 -730.6861 4294966566
279.31653 4033.1104 -730.69763 4294966566
283.21597 4033.127 -730.76208 4294966566
285.1897 4032.8247 -730.75305 4294966566
290.99268 4033.8313 -730.68018 4294966566
293.5571 4033.5271 -730.84845 4294966566
295.56281 4033.7974 -730.92413 4294966566
297.43878 4033.8594 -730.89685 4294966566
299.15646 4034.1116 -730.98645 4294966566
195.43311 4035.6099 -730.62402 4294966566
199.38342 4035.2402 -730.45538 4294966566
235.17995 4035.4648 -730.12079 4294966566
239.52313 4036.9409 -730.14105 4294966566
241.28775 4035.8352 -730.12274 4294966566
245.26982 4036.7881 -730.15417 4294966566
247.38942 4035.4563 -730.22241 4294966566
249.36145 4036.6377 -730.26318 4294966566
251.59349 4035.5776 -730.24249 4294966566
253.62743 4035.2251 -730.31525 4294966566
255.24185 4037.7759 -730.46918 4294966566
257.06833 4035.2744 -730.34265 4294966566
259.98709 4035.4939 -730.32947 4294966566
261.50436 4035.1838 -730.21191 4294966566
264.86029 4035.8337 -730.30865 4294966566
247.4996 4038.4026 -730.36475 4294966566
253.38116 4038.0908 -730.48956 4294966566
257.11923 4038.062 -730.57642 4294966566
393.66077 3991.9124 -729.04523 4294966567
399.30228 3991.676 -729.02271 4294966567
401.56125 3991.8162 -729.15704 4294966567
413.31927 3992.0557 -729.18567 4294966567
415.64484 3992.4167 -729.06543 4294966567
417.22562 3992.6973 -729.05109 4294966567
421.26218 3992.7117 -729.09088 4294966567
423.6261 3992.2598 -729.21149 4294966567
427.44745 3992.0725 -729.27057 4294966567
430.03018 3992.1753 -729.32166 4294966567
433.47348 3990.0576 -729.01459 4294966567
435.49286 3992.1829 -729.27997 4294966567
387.50232 3995.1694 -729.33521 4294966567
389.69675 3995.0005 -729.41589 4294966567
391.53174 3994.2256 -729.19208 4294966567
393.26868 3994.9595 -729.47937 4294966567
395.53619 3995.6099 -729.79913 4294966567
397.42413 3994.5562 -729.56879 4294966567
399.496 3993.8821 -729.42584 4294966567
401.57092 3993.8594 -729.52655 4294966567
402.94339 3994.249 -729.67932 4294966567
407.18262 3993.8716 -729.54675 4294966567
411.73526 3993.7405 -729.5368 4294966567
413.57095 3994 -729.59113 4294966567
415.75122 3994.084 -729.61713 4294966567
423.72867 3993.9731 -729.75458 4294966567
425.39145 3993.7346 -729.75067 4294966567
427.04733 3993.5854 -729.78455 4294966567
429.33655 3993.4502 -729.75336 4294966567
431.46985 3993.2456 -729.72345 4294966567
270.00729 4004.76 -729.10211 4294966567
271.43805 4004.1843 -729.05377 4294966567
273.76511 4004.1592 -729.12561 4294966567
275.28903 4003.7468 -729.25311 4294966567
279.7063 4004.1099 -729.92566 4294966567
281.67917 4003.8564 -729.84064 4294966567
283.63211 4003.7607 -729.79785 4294966567
285.57239 4004.1299 -729.82825 4294966567
287.80231 4003.6467 -729.70105 4294966567
290.65884 4003.3987 -729.47607 4294966567
261.50558 4007.3079 -729.50702 4294966567
263.49811 4006.1477 -729.18445 4294966567
265.56854 4005.7117 -729.11371 4294966567
267.44473 4006.1899 -729.41235 4294966567
268.13135 4005.0322 -729.05841 4294966567
271.35995 4005.6377 -729.60858 4294966567
239.3904 4008.781 -729.1673 4294966567
241.40857 4008.8706 -729.43353 4294966567
243.45145 4008.5503 -729.42938 4294966567
247.81665 4008.5259 -729.47101 4294966567
251.1274 4008.4163 -729.42847 4294966567
253.1017 4008.4561 -729.29291 4294966567
255.73251 4008.4995 -729.43097 4294966567
259.21118 4008.3057 -729.76123 4294966567
206.04654 4034.4641 -729.13568 4294966567
211.9679 4034.0549 -729.86707 4294966567
213.71622 4034.2373 -729.81561 4294966567
229.40948 4034.6689 -729.98309 4294966567
223.43405 4035.6013 -729.20923 4294966567
226.62952 4036.3542 -729.33112 4294966567
227.6698 4035.5164 -729.51691 4294966567
229.27977 4036.2041 -729.62115 4294966567
231.14545 4035.949 -729.78088 4294966567
233.64835 4035.5193 -729.99738 4294966567
235.51857 4036.8586 -729.73523 4294966567
