# .PCD v0.7 - Point Cloud Data file format
VERSION 0.7
FIELDS x y z rgba
SIZE 4 4 4 4
TYPE F F F U
COUNT 1 1 1 1
WIDTH 1141
HEIGHT 1
VIEWPOINT 0 0 0 1 0 0 0
POINTS 1141
DATA ascii
-8.4728422 799.92767 -605.13544 4294966691
-6.3066297 800.07935 -605.33728 4294966691
-4.5041618 799.05231 -605.38416 4294966691
-2.4157929 798.89673 -605.30255 4294966691
-0.601749 799.30743 -605.29572 4294966691
13.218089 798.15173 -605.1192 4294966691
-48.578293 802.16449 -605.02087 4294966691
-46.723972 801.76294 -605.45795 4294966691
-44.370174 801.52826 -605.33783 4294966691
76.437775 805.62976 -605.06934 4294966691
76.476875 808.74457 -605.12573 4294966691
78.396011 808.71332 -605.02576 4294966691
76.236313 811.76965 -605.12439 4294966691
78.713356 812.74396 -605.01697 4294966691
76.466965 814.84808 -605.20868 4294966691
78.768745 818.70764 -605.30225 4294966691
79.241211 816.71564 -605.16498 4294966691
79.203979 820.74329 -605.53412 4294966691
78.569763 824.80304 -605.79126 4294966691
80.679375 822.75854 -605.12268 4294966691
-11.214173 826.47174 -605.60876 4294966691
43.356659 826.50897 -605.21899 4294966691
-14.403904 830.7702 -605.66351 4294966691
-12.963875 828.89172 -605.69342 4294966691
-10.252434 829.48828 -605.79175 4294966691
43.870953 828.47314 -605.66302 4294966691
47.577297 828.63293 -605.13739 4294966691
49.724216 830.90118 -605.91345 4294966691
51.403683 830.81885 -605.65698 4294966691
55.622963 830.88245 -605.29437 4294966691
59.016083 830.23389 -605.09912 4294966691
-16.501415 832.93085 -605.64447 4294966691
-12.35019 831.01074 -605.77966 4294966691
-2.9018202 832.64459 -605.50085 4294966691
-0.41090754 832.69708 -605.04041 4294966691
9.4720345 833.75128 -605.13654 4294966691
35.363205 833.55493 -605.9726 4294966691
53.54388 831.05219 -605.54846 4294966691
82.720093 832.25085 -605.20471 4294966691
-16.355844 834.92981 -605.79309 4294966691
-14.015797 835.57684 -605.98145 4294966691
-12.631913 834.76086 -605.99707 4294966691
3.4144959 834.93152 -605.86523 4294966691
5.4097104 834.93726 -605.72339 4294966691
7.3581567 834.62482 -605.56702 4294966691
9.2524452 834.11444 -605.38892 4294966691
65.469116 836.53473 -605.92725 4294966691
67.230438 836.96875 -605.35248 4294966691
68.442413 834.53491 -605.22998 4294966691
69.55851 835.83575 -605.90973 4294966691
71.388374 836.74231 -605.17596 4294966691
73.442223 836.93988 -605.21417 4294966691
75.463005 836.85693 -605.19971 4294966691
78.10247 836.06335 -605.45172 4294966691
80.762871 834.55603 -605.95349 4294966691
15.629669 839.92303 -605.98773 4294966691
17.176756 839.64575 -605.88904 4294966691
27.823612 839.61768 -605.51874 4294966691
31.396795 839.40167 -605.4115 4294966691
33.406223 838.28491 -605.96967 4294966691
35.570568 839.02905 -605.41577 4294966691
37.402439 838.54822 -605.67151 4294966691
41.356628 838.69147 -605.573 4294966691
43.385906 838.45129 -605.72473 4294966691
47.474457 837.86853 -605.54352 4294966691
49.381195 837.63055 -605.4986 4294966691
51.620811 837.43018 -605.54816 4294966691
53.388737 837.21759 -605.67798 4294966691
55.550148 837.23712 -605.66168 4294966691
57.202156 837.26416 -605.59576 4294966691
-6.9165401 842.19629 -605.46637 4294966691
-2.5768387 842.55042 -605.15839 4294966691
7.5051503 841.15002 -605.98425 4294966691
13.445879 840.58197 -605.83002 4294966691
19.373552 840.54932 -605.16241 4294966691
23.533546 840.28357 -605.125 4294966691
73.873199 791.29346 -604.38452 4294966692
76.820892 791.2691 -604.54071 4294966692
35.215542 793.59625 -604.09601 4294966692
47.424015 794.19171 -604.86469 4294966692
51.873802 792.59253 -604.15015 4294966692
53.357609 792.61633 -604.29401 4294966692
55.381195 794.11835 -604.71356 4294966692
57.328979 792.49591 -604.38123 4294966692
59.452278 792.39868 -604.63348 4294966692
74.152557 793.92169 -604.70605 4294966692
77.464531 793.57214 -604.86786 4294966692
78.674072 793.96356 -604.24005 4294966692
-22.535416 797.83673 -604.1109 4294966692
-16.613731 797.60248 -604.30756 4294966692
-12.550377 797.76947 -604.38446 4294966692
-10.508693 797.77057 -604.4787 4294966692
-8.6227236 797.88293 -604.64264 4294966692
-4.5700507 796.414 -604.00299 4294966692
-0.73561496 796.30255 -604.35559 4294966692
1.332215 796.24744 -604.49219 4294966692
5.4501481 796.22589 -604.5885 4294966692
9.1750555 796.16272 -604.67908 4294966692
13.143507 796.06873 -604.81036 4294966692
15.651669 795.70142 -604.65198 4294966692
17.358139 797.73907 -604.7995 4294966692
19.302067 795.6604 -604.34729 4294966692
35.313438 797.02484 -604.38318 4294966692
36.600044 795.06104 -604.32684 4294966692
53.320145 795.40796 -604.96161 4294966692
55.395321 796.1734 -604.62836 4294966692
59.465805 796.31372 -604.25635 4294966692
71.546005 796.37909 -604.60406 4294966692
74.028183 796.21252 -604.71533 4294966692
77.140404 796.04486 -604.85052 4294966692
-60.550552 800.87567 -604.31531 4294966692
-58.424137 800.88641 -604.49506 4294966692
-54.67424 799.89124 -604.18866 4294966692
-52.451702 800.08154 -604.52319 4294966692
-50.929363 798.83752 -604.1958 4294966692
-46.31794 798.89368 -604.0058 4294966692
-42.883274 799.88464 -604.71576 4294966692
-40.262741 800.12842 -604.87451 4294966692
-38.715191 799.24976 -604.89691 4294966692
-36.785011 799.05023 -604.45087 4294966692
-34.728443 799.06744 -604.40625 4294966692
-32.516785 798.9502 -604.32324 4294966692
-30.293083 798.43256 -604.20166 4294966692
-28.742075 799.42914 -604.49084 4294966692
-26.662752 798.94641 -604.59863 4294966692
-24.785599 799.10278 -604.59668 4294966692
-22.510101 799.68567 -604.64111 4294966692
-20.974247 799.32086 -604.63422 4294966692
-18.913137 799.4505 -604.66827 4294966692
-16.203323 799.70856 -604.6579 4294966692
-14.517394 799.79285 -604.63257 4294966692
-12.752186 799.84216 -604.62109 4294966692
-10.653827 799.70172 -604.82117 4294966692
1.4380246 799.72479 -604.99414 4294966692
3.5561054 799.02319 -604.75659 4294966692
6.427671 799.0451 -604.02478 4294966692
7.4094625 799.13904 -604.59387 4294966692
9.0937977 799.07532 -604.6626 4294966692
11.481146 800.25732 -604.55841 4294966692
15.122392 800.39404 -604.64453 4294966692
17.490446 800.41309 -604.61407 4294966692
20.280699 799.66394 -604.44104 4294966692
22.540346 800.11261 -604.48987 4294966692
23.932251 798.74329 -604.28827 4294966692
27.766563 799.32526 -604.25482 4294966692
30.719048 799.29724 -604.26166 4294966692
32.655075 800.85876 -604.44507 4294966692
33.107887 798.6983 -604.32208 4294966692
34.983547 800.17114 -604.50031 4294966692
37.434113 799.62598 -604.58893 4294966692
69.356949 798.77802 -604.26135 4294966692
78.592964 800.61212 -604.74841 4294966692
-61.408363 803.22009 -604.4798 4294966692
-58.966747 803.98657 -604.66498 4294966692
-56.746494 801.25903 -604.74097 4294966692
-55.045525 801.71735 -604.95575 4294966692
-52.260513 801.96667 -604.97729 4294966692
-51.153622 801.80951 -604.94324 4294966692
-46.599854 803.96045 -604.40033 4294966692
-45.573162 802.53607 -604.77496 4294966692
-44.591431 802.31738 -604.74091 4294966692
-43.484138 802.13641 -604.88928 4294966692
-41.892986 801.72638 -604.91113 4294966692
-40.965652 803.5589 -604.4978 4294966692
-36.189022 801.73315 -604.95453 4294966692
-24.649008 802.20789 -604.52997 4294966692
-22.892382 802.10632 -604.50189 4294966692
-12.589497 802.33521 -604.59052 4294966692
-10.365746 802.51129 -604.77832 4294966692
25.637918 803.46082 -604.48956 4294966692
26.283604 801.40765 -604.44794 4294966692
28.138414 801.43353 -604.41583 4294966692
29.20277 802.56348 -604.44788 4294966692
30.872072 801.69836 -604.43774 4294966692
32.339939 802.81812 -604.50787 4294966692
33.781288 801.85822 -604.50977 4294966692
34.96854 803.17896 -604.53326 4294966692
-54.480003 805.67169 -604.63745 4294966692
-52.452858 804.5769 -604.86011 4294966692
-50.120663 804.65857 -604.55127 4294966692
-48.209564 804.96661 -604.17676 4294966692
-14.586273 804.70361 -604.33673 4294966692
-10.132755 805.13477 -604.64758 4294966692
26.17135 805.17554 -604.49701 4294966692
27.316746 806.32581 -604.53113 4294966692
28.601311 806.82977 -604.54437 4294966692
30.029461 806.84991 -604.54962 4294966692
31.4426 806.17133 -604.55023 4294966692
32.372646 804.58856 -604.53815 4294966692
34.129543 806.31396 -604.56537 4294966692
36.706375 806.06055 -604.50983 4294966692
78.598419 805.32147 -604.84027 4294966692
79.942307 804.59247 -604.18481 4294966692
80.0998 806.88953 -604.20465 4294966692
-10.36012 807.1098 -604.62866 4294966692
-8.5262318 808.80353 -604.29633 4294966692
29.450649 808.38385 -604.56006 4294966692
80.17672 808.83435 -604.39648 4294966692
-10.250177 812.91821 -604.41583 4294966692
78.728455 810.75574 -604.93414 4294966692
80.436226 811.81213 -604.5387 4294966692
38.010895 814.90839 -604.69678 4294966692
80.440422 814.71332 -604.67773 4294966692
81.455727 814.7644 -604.1416 4294966692
-62.201984 817.68915 -604.04816 4294966692
39.695511 817.80688 -604.40234 4294966692
80.409599 817.7157 -604.89905 4294966692
82.23172 817.80469 -604.05139 4294966692
-61.636082 819.7674 -604.26526 4294966692
-10.322162 820.84106 -604.66437 4294966692
41.363976 821.07623 -604.44171 4294966692
80.60807 820.60779 -604.97937 4294966692
81.962486 820.91486 -604.30774 4294966692
59.840103 829.50226 -604.48523 4294966692
-54.357162 832.58679 -604.12354 4294966692
1.3605411 832.828 -604.70667 4294966692
3.6291142 832.73462 -604.08478 4294966692
5.2836514 833.20203 -604.28015 4294966692
69.050926 836.18243 -604.83502 4294966692
8.9793119 842.24182 -604.04285 4294966692
43.388374 791.96161 -603.23474 4294966693
53.626572 791.1366 -603.1449 4294966693
55.484737 790.98267 -603.17963 4294966693
59.318005 790.59497 -603.16895 4294966693
73.625549 789.56415 -603.43732 4294966693
76.460869 789.19354 -603.37982 4294966693
77.952461 789.63153 -603.4505 4294966693
-0.6450116 794.75073 -603.03802 4294966693
1.4309143 794.63599 -603.27106 4294966693
5.4834714 794.62878 -603.57581 4294966693
7.916883 794.68585 -603.86176 4294966693
9.5715275 794.26959 -603.53247 4294966693
11.334319 794.30872 -603.60461 4294966693
15.368481 793.74579 -603.22742 4294966693
19.225956 794.35254 -603.69568 4294966693
34.36795 794.90747 -603.99658 4294966693
37.560402 792.28088 -603.22754 4294966693
45.665424 792.00397 -603.44244 4294966693
49.558254 792.61877 -603.92255 4294966693
80.330025 793.21436 -603.35199 4294966693
-44.377735 797.96887 -603.3645 4294966693
-40.404652 797.51917 -603.53119 4294966693
-37.912205 797.76453 -603.7973 4294966693
-36.548397 797.13293 -603.17621 4294966693
-32.719791 796.86389 -603.02448 4294966693
-30.693665 797.3125 -603.52625 4294966693
-28.559938 797.59534 -603.78046 4294966693
-26.530401 796.4176 -603.14362 4294966693
-24.637421 796.44702 -603.46509 4294966693
-22.642912 796.17798 -603.1087 4294966693
-20.500013 796.2608 -603.40204 4294966693
-16.76469 796.0528 -603.45844 4294966693
-14.442178 796.35461 -603.87183 4294966693
-10.578766 796.54248 -603.92108 4294966693
-8.6992388 796.46808 -603.91827 4294966693
-6.6989975 796.36884 -603.91357 4294966693
3.517509 795.16864 -603.77148 4294966693
21.07703 795.75684 -603.8443 4294966693
23.558165 795.50928 -603.67615 4294966693
26.606314 796.21338 -603.70898 4294966693
29.215786 796.23315 -603.6734 4294966693
31.957535 796.05908 -603.80316 4294966693
55.522202 797.28241 -603.69525 4294966693
-58.402439 798.79492 -603.23199 4294966693
-56.577625 798.59491 -603.11377 4294966693
-54.437283 798.49219 -603.11414 4294966693
-48.835499 798.81207 -603.85114 4294966693
-42.435287 798.26868 -603.77155 4294966693
5.4744687 800.77899 -603.91968 4294966693
49.409996 798.74512 -603.73737 4294966693
51.2924 798.59155 -603.37225 4294966693
53.317299 798.28186 -603.12054 4294966693
80.363541 800.87775 -603.42804 4294966693
-0.063118406 802.81854 -603.61139 4294966693
1.2623496 802.58197 -603.34192 4294966693
13.516028 802.17188 -603.96997 4294966693
80.456833 803.24023 -603.7478 4294966693
-42.002396 804.7981 -603.8736 4294966693
81.289871 805.90601 -603.24011 4294966693
-61.439999 812.29065 -603.88422 4294966693
39.943596 810.85425 -603.93378 4294966693
40.66431 812.89203 -603.23755 4294966693
81.718513 811.8653 -603.66364 4294966693
-64.010376 814.52258 -603.73413 4294966693
-8.8029976 818.68628 -603.06763 4294966693
41.368542 817.83344 -603.21405 4294966693
82.778481 816.67682 -603.02881 4294966693
-59.89571 821.28009 -603.8598 4294966693
82.919792 820.7392 -603.15955 4294966693
-8.1913052 822.88025 -603.76282 4294966693
44.001183 822.95599 -603.31055 4294966693
45.42152 824.78473 -603.53705 4294966693
83.148643 824.72223 -603.88074 4294966693
47.482048 826.5473 -603.61182 4294966693
-56.847015 829.03473 -603.36053 4294966693
-0.60890388 830.99005 -603.54871 4294966693
51.506119 828.76288 -603.927 4294966693
53.452805 829.17548 -603.74817 4294966693
55.454853 829.39099 -603.68793 4294966693
57.535053 829.47144 -603.75171 4294966693
53.584614 839.1134 -603.34747 4294966693
57.028477 838.95825 -603.49261 4294966693
61.046936 838.64441 -603.61835 4294966693
63.510422 838.5094 -603.73364 4294966693
67.731735 837.33588 -603.90222 4294966693
71.809334 838.04968 -603.62738 4294966693
73.635216 837.9812 -603.67639 4294966693
78.215187 838.01453 -603.58557 4294966693
79.786758 837.52545 -603.53589 4294966693
1.9068371 842.90814 -603.84039 4294966693
3.4873233 842.75818 -603.86737 4294966693
5.6404486 842.60229 -603.86224 4294966693
13.379676 842.01343 -603.91382 4294966693
15.260677 842.13452 -603.11548 4294966693
19.119123 841.75427 -603.42566 4294966693
21.147234 841.72253 -603.21014 4294966693
23.221872 841.65186 -603.35211 4294966693
27.281816 841.21429 -603.5448 4294966693
33.24548 840.87781 -603.07574 4294966693
36.912346 840.44379 -603.45178 4294966693
39.490417 840.32391 -603.19092 4294966693
41.76368 840.20984 -603.30566 4294966693
43.535908 840.22375 -603.35718 4294966693
47.562325 791.44781 -602.92767 4294966694
49.45742 791.27637 -602.92145 4294966694
51.553486 791.08051 -602.94519 4294966694
57.504543 790.15894 -602.53528 4294966694
79.668365 790.28394 -602.94977 4294966694
-2.5081697 794.85602 -602.95416 4294966694
7.7039089 793.78082 -602.88898 4294966694
17.552927 793.17517 -602.72876 4294966694
19.728765 793.17969 -602.88995 4294966694
21.272861 792.9068 -602.65094 4294966694
23.224724 792.56323 -602.25507 4294966694
24.662647 793.88202 -602.90991 4294966694
27.44598 793.85449 -602.64807 4294966694
30.346661 793.60168 -602.53638 4294966694
33.885685 792.98291 -602.76599 4294966694
81.59845 794.15308 -602.07153 4294966694
-48.092422 797.77704 -602.8819 4294966694
-40.205467 796.60791 -602.07214 4294966694
-12.591301 795.28815 -602.85156 4294966694
-8.6291065 795.12646 -602.90094 4294966694
-6.384974 795.01788 -602.8764 4294966694
-60.976646 798.16516 -602.56024 4294966694
49.201874 800.8501 -602.01544 4294966694
3.3312981 802.90955 -602.31213 4294966694
-0.60922581 804.59039 -602.15643 4294966694
-6.3473611 810.76648 -602.09662 4294966694
41.507046 810.87579 -602.50488 4294966694
82.699554 812.82147 -602.29034 4294966694
41.130146 814.84668 -602.8656 4294966694
43.480488 820.96552 -602.05621 4294966694
83.277504 820.64667 -602.19415 4294966694
83.632256 822.75238 -602.43463 4294966694
-4.4857607 827.00989 -602.33704 4294966694
-52.46991 832.34509 -602.04486 4294966694
55.225758 839.68854 -602.0907 4294966694
59.140118 839.2735 -602.38251 4294966694
65.368607 838.97205 -602.08832 4294966694
67.488976 838.82043 -602.20172 4294966694
71.264122 838.52435 -602.15582 4294966694
7.5178494 842.85522 -602.99512 4294966694
11.578238 842.75946 -602.14075 4294966694
16.789042 842.31598 -602.41748 4294966694
27.719604 841.78839 -602.1272 4294966694
47.273376 840.3277 -602.12579 4294966694
1.438491 843.55792 -602.05695 4294966694
3.4231768 843.32727 -602.30627 4294966694
73.953613 787.90295 -601.61499 4294966695
76.610222 787.74017 -601.60815 4294966695
78.426018 788.01996 -601.40649 4294966695
33.352581 791.28381 -601.32544 4294966695
37.711605 790.8446 -601.23145 4294966695
41.594006 790.63983 -601.26978 4294966695
45.353401 790.51971 -601.30603 4294966695
47.545856 790.42505 -601.3941 4294966695
49.475746 790.23004 -601.29083 4294966695
51.301086 790.11066 -601.30005 4294966695
53.675377 790.09192 -601.67975 4294966695
55.612907 789.78375 -601.28186 4294966695
59.376385 789.43164 -601.29193 4294966695
61.52314 789.30054 -601.21875 4294966695
81.419823 791.98083 -601.7337 4294966695
-17.275141 794.94409 -601.56714 4294966695
-13.914746 794.66852 -601.69757 4294966695
-8.7169981 794.27209 -601.34784 4294966695
-6.3421478 794.13116 -601.26642 4294966695
-4.2668991 793.94208 -601.22125 4294966695
-2.6295717 793.88647 -601.26678 4294966695
1.0490162 793.4823 -601.45435 4294966695
4.9707332 793.32861 -601.60095 4294966695
13.597564 792.62787 -601.48615 4294966695
15.358514 792.55469 -601.37488 4294966695
19.699352 792.20959 -601.3576 4294966695
25.135626 792.44952 -601.54718 4294966695
28.199284 792.26154 -601.28314 4294966695
-61.851704 797.9776 -601.69342 4294966695
-58.101852 797.86371 -601.86383 4294966695
-56.795383 797.74841 -601.48901 4294966695
-44.498676 797.01715 -601.85248 4294966695
-42.430283 796.75391 -601.80017 4294966695
-36.624187 796.25073 -601.93262 4294966695
-34.260071 796.18268 -601.71686 4294966695
-32.167374 796.04126 -601.66626 4294966695
-30.673733 795.94391 -601.79285 4294966695
-28.377346 795.64722 -601.44244 4294966695
-26.300928 795.50397 -601.6073 4294966695
-22.340204 795.2464 -601.63702 4294966695
51.268612 800.23883 -601.39362 4294966695
53.167984 799.5957 -601.50537 4294966695
81.623924 799.57758 -601.86713 4294966695
47.089973 802.65399 -601.50201 4294966695
-2.8758507 806.55963 -601.73376 4294966695
43.414757 806.76074 -601.99786 4294966695
-4.6473832 808.50275 -601.73022 4294966695
42.895279 808.59595 -601.39868 4294966695
42.509392 810.23602 -601.06152 4294966695
41.708942 814.83405 -601.74353 4294966695
83.085777 814.80322 -601.01782 4294966695
-7.9047022 816.39203 -601.59662 4294966695
42.6777 818.96851 -601.75244 4294966695
45.138569 823.16357 -601.84802 4294966695
49.470695 826.80017 -601.89911 4294966695
-54.398041 830.50012 -601.90753 4294966695
-0.27776504 830.23303 -601.66479 4294966695
53.446331 828.22632 -601.46826 4294966695
59.211266 828.37811 -601.76086 4294966695
3.4049542 831.49707 -601.50745 4294966695
5.7185912 831.93842 -601.78308 4294966695
7.4274559 831.86127 -601.80029 4294966695
51.226021 839.98627 -601.89471 4294966695
57.61182 839.67511 -601.49969 4294966695
61.557896 839.30658 -601.81738 4294966695
75.868973 838.63922 -601.91888 4294966695
9.7413273 842.97699 -601.95923 4294966695
13.524275 842.70953 -601.72687 4294966695
15.794176 842.60858 -601.58423 4294966695
23.824991 842.20459 -601.86078 4294966695
31.354567 841.54633 -601.80981 4294966695
38.305019 841.06329 -601.07623 4294966695
39.820087 840.84088 -601.7735 4294966695
49.524109 840.22266 -601.5 4294966695
-3.0725293 844.10028 -601.90802 4294966695
-0.31640011 843.91058 -601.15753 4294966695
71.353073 787.68573 -600.01013 4294966696
74.138802 787.2453 -600.05048 4294966696
76.91835 787.22186 -600.27087 4294966696
25.271448 791.31934 -600.117 4294966696
31.423464 791.73444 -600.59198 4294966696
35.299419 790.74548 -600.0733 4294966696
43.100933 790.12097 -600.1416 4294966696
47.621895 789.72028 -600.04065 4294966696
51.100357 789.63184 -600.01666 4294966696
53.234612 789.47101 -600.06793 4294966696
81.634827 791.33398 -600.51953 4294966696
-22.572468 794.89996 -600.27899 4294966696
-20.606159 794.58521 -600.00897 4294966696
-17.523865 794.69666 -600.86395 4294966696
-14.441699 794.2879 -600.1568 4294966696
-12.445848 793.9538 -600.29401 4294966696
-10.344744 793.99066 -600.05817 4294966696
-6.7151408 793.7724 -600.05731 4294966696
-0.62040883 793.24536 -600.20459 4294966696
1.1261728 793.09058 -600.01526 4294966696
3.4651408 792.9743 -600.32629 4294966696
8.9151068 792.55627 -600.51349 4294966696
17.232292 792.00903 -600.01056 4294966696
82.148376 793.89697 -600.37805 4294966696
-58.255531 797.34338 -600.39825 4294966696
-54.791492 797.14642 -600.19806 4294966696
-52.525871 797.08569 -600.91309 4294966696
-49.188839 796.87244 -600.75708 4294966696
-45.095921 796.5459 -600.04565 4294966696
-40.831734 796.14301 -600.29681 4294966696
-37.076275 795.85596 -600.21161 4294966696
-32.266373 795.6424 -600.11035 4294966696
-30.263668 795.33569 -600.36487 4294966696
-28.268129 795.30768 -600.12927 4294966696
-24.63401 795.0481 -600.16882 4294966696
82.146736 796.46729 -600.38501 4294966696
82.117111 799.55878 -600.21387 4294966696
82.166679 802.76471 -600.59296 4294966696
2.5085106 804.15692 -600.54065 4294966696
44.293736 806.77075 -600.11298 4294966696
-4.360065 808.91217 -600.15674 4294966696
43.210892 808.97223 -600.05756 4294966696
-6.7113557 812.80121 -600.3194 4294966696
-5.794189 810.89655 -600.36646 4294966696
42.427826 810.90143 -600.06482 4294966696
42.047291 814.71637 -600.0401 4294966696
83.280548 817.6546 -600.82874 4294966696
43.749249 820.78302 -600.32562 4294966696
83.429398 820.65479 -600.99078 4294966696
46.215298 824.06232 -600.16882 4294966696
83.854713 822.77106 -600.66962 4294966696
84.085808 824.84741 -600.67596 4294966696
84.279198 827.04852 -600.15125 4294966696
53.501827 828.00793 -600.08057 4294966696
59.198269 839.75183 -600.06714 4294966696
71.53125 838.91309 -600.07104 4294966696
34.250824 841.42236 -600.98578 4294966696
53.315132 840.2157 -600.1582 4294966696
57.551918 788.95575 -599.84192 4294966697
63.509621 788.81458 -599.98431 4294966697
80.048729 788.44836 -599.99426 4294966697
21.505621 791.49353 -599.97992 4294966697
29.355799 791.09204 -599.9389 4294966697
39.65126 790.29047 -599.84967 4294966697
45.340511 789.86536 -599.92065 4294966697
55.362999 789.10516 -599.97638 4294966697
-4.292098 793.58484 -599.81976 4294966697
-2.476826 793.43195 -599.92035 4294966697
6.2353511 792.62225 -599.565 4294966697
-43.040043 796.31598 -599.85278 4294966697
-37.660149 795.81177 -599.3194 4294966697
51.692451 800.91302 -599.41199 4294966697
53.505775 800.17944 -599.96149 4294966697
55.114002 799.86835 -599.96875 4294966697
47.381569 803.32379 -599.32965 4294966697
49.295647 801.93829 -599.89484 4294966697
-0.55226171 805.67963 -599.64752 4294966697
-7.426712 814.71442 -599.99475 4294966697
-7.6644993 818.7514 -599.78998 4294966697
42.855991 818.70123 -599.71747 4294966697
44.917511 822.57349 -599.9823 4294966697
51.460289 827.65845 -599.98798 4294966697
-0.1527144 830.15332 -599.88934 4294966697
1.4873555 830.91272 -599.91418 4294966697
55.329098 828.24091 -599.95917 4294966697
57.761242 828.18866 -599.8089 4294966697
3.2771645 831.60974 -599.71899 4294966697
55.621433 839.96777 -599.35547 4294966697
57.426838 839.86841 -599.76715 4294966697
69.464447 838.96899 -599.86682 4294966697
73.988892 838.86139 -599.74164 4294966697
75.992538 839.06091 -599.86676 4294966697
13.629954 842.82324 -599.59271 4294966697
15.090578 842.83691 -599.81506 4294966697
17.623732 842.69305 -599.32196 4294966697
18.868378 842.7182 -599.84467 4294966697
23.221432 842.46497 -599.84729 4294966697
25.158121 842.31653 -599.76776 4294966697
29.126078 841.98456 -599.75482 4294966697
35.384441 841.40417 -599.29468 4294966697
37.576916 841.2207 -599.43164 4294966697
41.275158 841.03113 -599.80609 4294966697
43.287743 840.80255 -599.80139 4294966697
45.275578 840.77692 -599.8667 4294966697
51.424892 840.34912 -599.78705 4294966697
0.79504555 843.91235 -599.65479 4294966697
5.3599572 843.48315 -599.99463 4294966697
6.7569609 843.35181 -599.35529 4294966697
8.8936672 843.24341 -599.73755 4294966697
59.40374 739.78961 -598.05548 4294966698
42.883167 743.72791 -598.00299 4294966698
45.397083 741.62195 -598.09503 4294966698
47.677555 742.90063 -598.29211 4294966698
49.267296 741.67993 -598.26172 4294966698
51.347622 741.48444 -598.29218 4294966698
53.350742 741.49109 -598.29492 4294966698
55.358768 741.64215 -598.44855 4294966698
57.398315 741.76147 -598.44067 4294966698
59.40799 741.83801 -598.44733 4294966698
61.349525 741.82947 -598.44666 4294966698
63.407558 741.82813 -598.43561 4294966698
65.323433 741.95135 -598.39923 4294966698
67.397408 741.979 -598.33759 4294966698
71.432419 742.10315 -598.21405 4294966698
73.377007 742.05505 -598.1546 4294966698
75.408302 742.2951 -598.0545 4294966698
125.79275 743.94318 -598.17426 4294966698
128.929 742.36652 -598.07904 4294966698
131.26338 742.48639 -598.07574 4294966698
133.21045 743.79016 -598.28174 4294966698
135.33188 743.67419 -598.0257 4294966698
43.538475 746.13654 -598.02112 4294966698
45.3279 744.03204 -598.27252 4294966698
47.364716 746.71265 -598.013 4294966698
49.284019 744.19971 -598.32147 4294966698
53.55579 744.30188 -598.27155 4294966698
59.318962 745.52661 -598.20349 4294966698
73.35247 744.71173 -598.04889 4294966698
77.316422 746.93848 -598.05719 4294966698
123.10195 746.8139 -598.00751 4294966698
124.2971 745.4325 -598.11389 4294966698
125.61163 746.76483 -598.27924 4294966698
126.45273 745.77356 -598.38037 4294966698
127.66238 744.19952 -598.38324 4294966698
128.26352 746.22675 -598.62268 4294966698
129.78391 745.63684 -598.68549 4294966698
131.395 745.27216 -598.69812 4294966698
132.82874 746.48102 -598.80536 4294966698
134.39012 746.00012 -598.55585 4294966698
136.01846 746.26355 -598.34106 4294966698
137.30981 745.88 -598.07019 4294966698
73.504875 749.07721 -598.29688 4294966698
75.248314 749.05396 -598.29449 4294966698
79.465027 749.29187 -598.31494 4294966698
81.614365 749.49115 -598.35852 4294966698
83.538185 749.59979 -598.37109 4294966698
87.600578 749.5766 -598.32959 4294966698
95.56382 749.89209 -598.44672 4294966698
97.474686 749.93201 -598.41913 4294966698
99.622635 749.89136 -598.35028 4294966698
101.45656 749.95972 -598.29291 4294966698
124.73833 747.75024 -598.09045 4294966698
127.02494 748.11615 -598.31079 4294966698
128.92459 748.65814 -598.45483 4294966698
130.31833 748.63385 -598.63745 4294966698
131.53622 747.52563 -598.83185 4294966698
132.48247 748.84644 -598.58423 4294966698
133.84825 747.69385 -598.69751 4294966698
134.14374 749.31073 -598.26691 4294966698
135.24805 747.90106 -598.39941 4294966698
136.64914 747.88409 -598.14868 4294966698
38.620312 751.26208 -598.00781 4294966698
40.900276 750.66425 -598.00555 4294966698
55.577381 751.54224 -598.39099 4294966698
67.450241 751.66016 -598.60803 4294966698
69.448349 751.84698 -598.62921 4294966698
71.664886 751.95038 -598.70239 4294966698
73.392891 751.65985 -598.67773 4294966698
75.5756 751.91699 -598.6192 4294966698
79.581093 752.06641 -598.60864 4294966698
81.50486 752.00409 -598.59924 4294966698
85.568802 752.19055 -598.74103 4294966698
89.541176 752.32471 -598.66437 4294966698
91.643959 752.28473 -598.66315 4294966698
95.333954 752.24347 -598.57166 4294966698
99.464684 751.93726 -598.28064 4294966698
103.4575 751.91803 -598.08655 4294966698
109.42699 750.03998 -598.05969 4294966698
113.51546 750.18445 -598.03107 4294966698
43.487408 753.40973 -598.06195 4294966698
45.457077 753.88818 -598.28833 4294966698
47.464516 754.94409 -598.23505 4294966698
49.510933 753.78821 -598.51123 4294966698
51.515167 754.87268 -598.46228 4294966698
53.454979 754.98438 -598.41675 4294966698
55.392349 755.99243 -598.31238 4294966698
57.39806 754.01685 -598.57837 4294966698
65.689659 754.81232 -598.60425 4294966698
67.630608 754.16455 -598.65131 4294966698
69.716194 754.6731 -598.51764 4294966698
71.568008 754.65179 -598.65393 4294966698
73.531746 754.76947 -598.35779 4294966698
75.506973 754.78967 -598.32111 4294966698
77.48085 755.26862 -598.11957 4294966698
79.547935 754.05005 -598.45679 4294966698
81.314804 754.1405 -598.37854 4294966698
83.679405 753.9126 -598.30621 4294966698
93.559303 753.52307 -598.2699 4294966698
43.443123 756.13257 -598.14203 4294966698
45.707787 756.07092 -598.16809 4294966698
57.466679 756.06982 -598.35663 4294966698
59.527153 756.11133 -598.38568 4294966698
61.403233 757.11053 -598.03119 4294966698
65.386848 756.04034 -598.38611 4294966698
77.007164 786.93634 -598.15564 4294966698
15.363377 791.88647 -598.08087 4294966698
49.28228 789.39954 -598.05798 4294966698
81.866089 791.33588 -598.42383 4294966698
1.0790695 792.99908 -598.12793 4294966698
-54.906513 797.11005 -598.07294 4294966698
-45.111023 796.53711 -598.01788 4294966698
61.532757 737.94897 -597.0752 4294966699
71.212914 737.98065 -597.44739 4294966699
73.351326 737.86176 -597.34521 4294966699
75.415413 737.8125 -597.34943 4294966699
77.339516 737.71802 -597.30865 4294966699
79.449814 737.76227 -597.27057 4294966699
81.429756 737.68317 -597.211 4294966699
83.472115 737.63678 -597.20081 4294966699
85.408363 737.68903 -597.2644 4294966699
87.346428 737.63605 -597.29883 4294966699
91.338341 737.54663 -597.31653 4294966699
93.409966 737.72369 -597.36652 4294966699
95.375748 737.85156 -597.51532 4294966699
97.433327 737.63019 -597.4483 4294966699
99.396278 737.73743 -597.4942 4294966699
101.29037 737.59631 -597.36859 4294966699
105.43125 737.64172 -597.37189 4294966699
107.34062 737.58643 -597.35461 4294966699
111.46556 737.5816 -597.26556 4294966699
115.35077 737.56561 -597.23132 4294966699
117.24339 737.88074 -597.04285 4294966699
41.557697 740.2439 -597.31769 4294966699
43.360889 740.02515 -597.44751 4294966699
45.256996 739.93842 -597.57672 4294966699
47.397179 740.52612 -597.92596 4294966699
49.368561 739.13232 -597.39209 4294966699
51.446747 739.05945 -597.46283 4294966699
53.467365 738.32141 -597.0589 4294966699
55.250046 739.76538 -597.87494 4294966699
59.461685 738.03174 -597.13647 4294966699
61.449978 739.70844 -597.94586 4294966699
63.563984 738.49152 -597.40143 4294966699
65.428818 738.43176 -597.41272 4294966699
69.446587 738.89258 -597.64911 4294966699
73.358879 739.71014 -597.92236 4294966699
75.350464 739.56604 -597.87463 4294966699
77.365341 739.62939 -597.82672 4294966699
79.402596 739.80194 -597.77991 4294966699
81.342209 739.54187 -597.68878 4294966699
83.383118 739.78802 -597.71704 4294966699
85.452774 739.72839 -597.71136 4294966699
89.379089 739.72882 -597.72821 4294966699
91.428581 739.77673 -597.7442 4294966699
93.539703 739.88751 -597.82001 4294966699
95.306831 740.12927 -597.77704 4294966699
97.326691 740.15466 -597.71704 4294966699
99.431908 740.09668 -597.66364 4294966699
103.3566 740.07953 -597.55719 4294966699
107.5377 740.40613 -597.36975 4294966699
109.30004 740.57117 -597.31897 4294966699
111.61172 740.59875 -597.26294 4294966699
113.50269 740.55847 -597.21796 4294966699
115.34656 740.65405 -597.25763 4294966699
117.21049 739.72992 -597.20764 4294966699
121.22847 739.43579 -597.13849 4294966699
123.86704 740.32739 -597.32495 4294966699
125.96227 740.95361 -597.59979 4294966699
126.34234 739.36987 -597.13733 4294966699
127.79683 740.61511 -597.57959 4294966699
130.16817 740.14929 -597.40295 4294966699
39.633415 742.10992 -597.42688 4294966699
40.525013 743.79633 -597.79321 4294966699
41.367634 741.83777 -597.87152 4294966699
43.363914 741.67511 -597.96686 4294966699
77.543831 742.50928 -597.94434 4294966699
79.37648 742.51837 -597.87378 4294966699
81.419312 742.64813 -597.8136 4294966699
83.472954 742.29578 -597.78284 4294966699
85.357651 742.69116 -597.75433 4294966699
87.379593 742.59619 -597.73413 4294966699
93.415977 742.67163 -597.70892 4294966699
95.414696 742.71069 -597.68335 4294966699
99.170708 742.60352 -597.5744 4294966699
101.30428 742.7525 -597.50464 4294966699
113.80149 742.50055 -597.30688 4294966699
116.90234 742.77753 -597.37909 4294966699
118.9205 742.73779 -597.44336 4294966699
119.33163 741.02856 -597.31097 4294966699
120.50519 742.94983 -597.55756 4294966699
121.56685 741.37671 -597.43219 4294966699
122.98812 743.08044 -597.75439 4294966699
124.73135 743.01746 -597.91846 4294966699
126.86005 742.36682 -597.99402 4294966699
137.19569 742.23877 -597.5611 4294966699
139.60994 742.05206 -597.34155 4294966699
141.79587 742.09558 -597.12823 4294966699
34.643917 746.39178 -597.4549 4294966699
35.39085 744.69214 -597.27649 4294966699
36.391224 746.07941 -597.61981 4294966699
38.265236 745.51025 -597.69257 4294966699
40.628105 746.86499 -597.92175 4294966699
45.329311 746.71741 -597.92529 4294966699
81.452553 744.75281 -597.85138 4294966699
97.273422 744.78003 -597.71021 4294966699
99.445808 744.93158 -597.633 4294966699
101.59448 744.96155 -597.5578 4294966699
105.40385 745.03186 -597.4281 4294966699
109.3903 745.06299 -597.34644 4294966699
111.39484 744.89948 -597.32166 4294966699
114.20345 745.49323 -597.48145 4294966699
117.36954 745.88947 -597.58124 4294966699
119.32892 745.01135 -597.6355 4294966699
120.69875 746.8111 -597.80341 4294966699
121.48898 745.26514 -597.82794 4294966699
138.838 745.35327 -597.7771 4294966699
140.63971 745.10382 -597.47974 4294966699
141.82709 745.76654 -597.32178 4294966699
142.93378 745.17578 -597.17395 4294966699
144.13165 745.40735 -597.07733 4294966699
31.346914 748.90051 -597.42871 4294966699
33.204311 747.44421 -597.42352 4294966699
35.581623 748.32892 -597.76099 4294966699
37.451752 748.44196 -597.8988 4294966699
38.604485 747.9151 -597.92676 4294966699
39.273579 749.21771 -597.98169 4294966699
43.517994 749.14954 -597.99628 4294966699
83.417397 747.00226 -597.99396 4294966699
89.397316 747.01782 -597.96545 4294966699
97.493607 747.3432 -597.95331 4294966699
99.531334 747.05603 -597.84827 4294966699
101.34715 747.51501 -597.86658 4294966699
103.47442 747.41876 -597.77466 4294966699
105.36339 747.47455 -597.70801 4294966699
111.2098 747.47546 -597.62091 4294966699
113.63163 747.40509 -597.60541 4294966699
115.27261 747.80591 -597.67761 4294966699
117.31918 748.23438 -597.66022 4294966699
119.24211 747.52795 -597.69061 4294966699
121.48322 748.15631 -597.79681 4294966699
123.11171 748.33429 -597.88239 4294966699
124.43508 749.31818 -597.76855 4294966699
125.68267 749.23309 -597.89862 4294966699
126.7129 749.91962 -597.79578 4294966699
127.86354 749.99011 -597.90845 4294966699
136.58702 749.69617 -597.58087 4294966699
138.51512 749.02582 -597.39563 4294966699
139.7776 748.04108 -597.44849 4294966699
141.93002 748.20502 -597.05109 4294966699
27.739264 752.63757 -597.24988 4294966699
29.503376 750.53064 -597.38824 4294966699
31.733114 751.71655 -597.70233 4294966699
33.645798 751.60046 -597.80975 4294966699
35.002594 752.65344 -597.90369 4294966699
36.357639 751.24451 -597.95319 4294966699
105.51427 752.24207 -597.94543 4294966699
111.54659 752.02271 -597.59052 4294966699
113.49316 751.99506 -597.55432 4294966699
115.44262 750.08038 -597.79358 4294966699
117.61082 751.91614 -597.46552 4294966699
119.16279 750.20587 -597.55316 4294966699
121.42567 751.09509 -597.53693 4294966699
123.01276 750.23798 -597.52179 4294966699
125.41732 750.92462 -597.21387 4294966699
127.44048 751.11273 -597.25891 4294966699
129.07256 750.96906 -597.42566 4294966699
130.59627 750.36749 -597.89716 4294966699
132.08688 750.94336 -597.55377 4294966699
133.34384 750.5741 -597.77307 4294966699
134.88286 750.90173 -597.19849 4294966699
28.72382 755.53644 -597.28125 4294966699
30.452753 754.71143 -597.50012 4294966699
32.302029 754.28003 -597.7135 4294966699
34.852249 755.16809 -597.71979 4294966699
36.303688 753.52466 -597.94293 4294966699
37.596386 754.02222 -597.91565 4294966699
39.872375 753.8446 -597.92377 4294966699
81.429253 755.24664 -597.97778 4294966699
83.355896 754.98749 -597.94775 4294966699
85.42395 755.40503 -597.47485 4294966699
89.390274 755.18683 -597.41058 4294966699
91.486076 755.05371 -597.41583 4294966699
97.212051 754.73718 -597.12213 4294966699
99.452248 753.74487 -597.47583 4294966699
101.3033 753.10181 -597.62744 4294966699
103.47472 753.70636 -597.21625 4294966699
109.51418 753.46161 -597.03955 4294966699
113.26603 753.17963 -597.00983 4294966699
32.774231 756.45081 -597.42267 4294966699
34.054562 756.94946 -597.3504 4294966699
35.280605 757.77966 -597.02808 4294966699
36.839024 756.68854 -597.49567 4294966699
39.082436 756.88513 -597.35175 4294966699
41.759453 756.17328 -597.68597 4294966699
43.331539 757.76062 -597.71497 4294966699
45.571171 757.71973 -597.67609 4294966699
47.305386 757.31396 -597.76929 4294966699
49.529747 757.28949 -597.74927 4294966699
51.36124 757.70905 -597.46649 4294966699
53.646645 757.49316 -597.62146 4294966699
54.070457 757.72247 -597.54742 4294966699
55.335125 757.56598 -597.64697 4294966699
57.514931 757.19385 -597.93622 4294966699
59.37492 758.39716 -597.2301 4294966699
61.24017 758.20374 -597.44458 4294966699
65.626183 757.43384 -597.80853 4294966699
69.256752 756.87115 -597.69873 4294966699
71.421349 756.90607 -597.48187 4294966699
73.488892 756.68561 -597.48132 4294966699
75.387993 756.70026 -597.35443 4294966699
79.228691 756.5166 -597.24414 4294966699
81.517281 756.39294 -597.11847 4294966699
83.245483 756.19049 -597.08966 4294966699
59.406605 788.88556 -597.91071 4294966699
61.221066 788.65399 -597.87134 4294966699
63.488235 788.48291 -597.98871 4294966699
65.643677 788.29297 -597.89954 4294966699
69.281113 787.87354 -597.95105 4294966699
73.671806 787.14612 -597.99084 4294966699
78.57756 787.41406 -597.94568 4294966699
80.096725 788.36816 -597.8421 4294966699
17.198553 791.80829 -597.75873 4294966699
23.621637 791.38324 -597.83228 4294966699
24.956196 791.27875 -597.83246 4294966699
27.631479 791.13232 -597.68994 4294966699
29.175323 790.98218 -597.97906 4294966699
31.599043 790.82623 -597.62689 4294966699
33.274601 790.66608 -597.80145 4294966699
37.534618 790.32465 -597.72308 4294966699
41.52544 790.0332 -597.9104 4294966699
43.299625 789.90582 -597.82941 4294966699
45.40786 789.74915 -597.78375 4294966699
53.181892 789.11047 -597.92108 4294966699
55.230034 789.09656 -597.97705 4294966699
81.277222 789.95074 -597.7196 4294966699
-24.704721 794.90723 -597.82648 4294966699
-22.73662 794.78119 -597.65027 4294966699
-18.923182 794.40314 -597.94189 4294966699
-14.967508 794.10754 -597.84363 4294966699
-12.966076 793.94098 -597.76044 4294966699
-10.532681 793.77557 -597.72119 4294966699
-8.5840979 793.66125 -597.81683 4294966699
-4.5757375 793.53131 -597.92993 4294966699
-2.3028567 793.40637 -597.81824 4294966699
-0.55374974 793.16846 -597.95081 4294966699
3.2150123 792.87286 -597.97113 4294966699
5.9286699 792.65045 -597.96527 4294966699
82.300789 793.83606 -597.87958 4294966699
-58.453503 797.37543 -597.79883 4294966699
-52.830944 797.00696 -597.97522 4294966699
-49.92284 797.05347 -597.69568 4294966699
-45.756725 796.6778 -597.18036 4294966699
-41.375259 796.2876 -597.68439 4294966699
-37.960907 795.89972 -597.54156 4294966699
-34.930172 795.68512 -597.90118 4294966699
-32.803246 795.58624 -597.59552 4294966699
-30.676426 795.33783 -597.94806 4294966699
-28.602201 795.18091 -597.83978 4294966699
-26.938833 795.04205 -597.87952 4294966699
53.327522 800.71985 -597.76563 4294966699
54.82584 800.48096 -597.79254 4294966699
47.907776 803.18469 -597.25269 4294966699
49.362221 802.20172 -597.80188 4294966699
51.458389 801.20697 -597.15106 4294966699
44.434486 806.84882 -597.51837 4294966699
45.82058 805.02673 -597.64874 4294966699
-4.4720268 809.04358 -597.22559 4294966699
-2.4211602 807.15625 -597.63245 4294966699
43.281963 809.03027 -597.73578 4294966699
42.344002 811.85614 -597.19592 4294966699
42.02153 815.0658 -597.47821 4294966699
42.347054 817.87561 -597.27979 4294966699
83.153938 817.78674 -597.59967 4294966699
43.419044 820.90399 -597.25452 4294966699
44.58881 822.71423 -597.20544 4294966699
45.939377 824.13 -597.18567 4294966699
47.570969 825.70319 -597.01538 4294966699
84.030312 827.08716 -597.06049 4294966699
84.466217 829.41406 -597.35248 4294966699
84.727951 832.83362 -597.21021 4294966699
55.309822 839.83929 -597.34412 4294966699
57.512985 839.66266 -597.0462 4294966699
71.420082 838.6748 -597.13849 4294966699
73.974922 838.73358 -597.24579 4294966699
11.455533 842.94281 -597.0589 4294966699
12.816594 842.86407 -597.89606 4294966699
15.500763 842.64178 -597.04333 4294966699
21.473721 842.28607 -597.3139 4294966699
27.474792 841.88416 -597.42334 4294966699
33.243633 841.42395 -597.36047 4294966699
37.659382 841.04822 -597.06128 4294966699
47.487453 840.38837 -597.31903 4294966699
51.580498 840.11017 -597.43597 4294966699
3.6019928 843.47803 -597.09796 4294966699
5.5340133 843.3504 -597.00092 4294966699
7.7384739 843.20172 -597.20929 4294966699
101.37963 734.58124 -596.03772 4294966700
103.4137 734.6261 -596.22638 4294966700
107.41801 734.47711 -596.28687 4294966700
111.39768 734.46277 -596.33124 4294966700
113.32803 734.41907 -596.30872 4294966700
117.30611 734.3645 -596.31293 4294966700
63.420158 737.20093 -596.5293 4294966700
67.515022 737.04932 -596.61127 4294966700
69.44146 736.91534 -596.60095 4294966700
71.57589 736.79694 -596.59991 4294966700
73.429817 736.66193 -596.59235 4294966700
75.300056 736.49445 -596.53705 4294966700
77.456627 736.50104 -596.58142 4294966700
79.459938 736.30206 -596.41833 4294966700
81.438148 736.336 -596.44647 4294966700
83.377792 736.41998 -596.53137 4294966700
85.513054 736.48895 -596.62335 4294966700
89.312408 736.43103 -596.75311 4294966700
91.413055 736.32251 -596.73065 4294966700
93.283508 736.328 -596.98749 4294966700
95.455276 736.11218 -596.85779 4294966700
99.364052 735.93585 -596.79736 4294966700
103.29305 735.67798 -596.84698 4294966700
105.45426 735.61133 -596.88391 4294966700
107.30155 735.64948 -596.91504 4294966700
109.41605 735.54053 -596.88647 4294966700
113.43411 735.61401 -596.89117 4294966700
115.30428 735.52972 -596.86963 4294966700
117.30601 735.97986 -596.59247 4294966700
119.57867 736.49542 -596.56671 4294966700
120.82707 737.62445 -596.79297 4294966700
121.49508 736.09106 -596.17316 4294966700
122.70821 737.98224 -596.75446 4294966700
123.5921 736.56482 -596.15509 4294966700
125.0824 737.84021 -596.57452 4294966700
126.73188 737.4024 -596.36731 4294966700
128.11533 737.16528 -596.23987 4294966700
130.2289 737.85718 -596.47766 4294966700
137.78401 737.12189 -596.09589 4294966700
140.11961 737.96716 -596.34778 4294966700
37.847443 740.21075 -596.31396 4294966700
39.278854 739.91925 -596.52075 4294966700
41.443188 739.03613 -596.55438 4294966700
43.332787 738.96216 -596.72888 4294966700
45.447857 738.76581 -596.81873 4294966700
47.511845 738.65289 -596.9538 4294966700
55.466602 738.14288 -596.9895 4294966700
118.98907 738.2879 -596.99615 4294966700
128.30737 738.80109 -596.94836 4294966700
133.99988 739.04779 -596.76233 4294966700
138.19089 739.71796 -596.92914 4294966700
140.7804 740.08521 -596.87891 4294966700
142.6086 739.41052 -596.56299 4294966700
144.01178 738.87573 -596.36853 4294966700
145.54102 739.20593 -596.32806 4294966700
147.39975 739.75977 -596.35815 4294966700
149.35338 739.24304 -596.20105 4294966700
152.62953 740.24951 -596.2243 4294966700
31.509024 742.88739 -596.01508 4294966700
32.83448 742.51794 -596.14551 4294966700
34.592266 742.5174 -596.5686 4294966700
37.080914 741.84521 -596.82086 4294966700
143.82872 742.07355 -596.91724 4294966700
145.14949 742.79431 -596.8551 4294966700
146.66518 741.987 -596.66681 4294966700
147.28954 743.74597 -596.75415 4294966700
149.25043 741.84021 -596.49817 4294966700
151.58167 743.68951 -596.58752 4294966700
155.46056 743.07294 -596.3385 4294966700
157.48051 743.01678 -596.26855 4294966700
159.53513 743.08392 -596.20288 4294966700
161.4375 742.97382 -596.11938 4294966700
163.60263 743.33624 -596.11902 4294966700
165.79596 743.69177 -596.12659 4294966700
167.41487 743.68396 -596.05518 4294966700
177.60406 743.85028 -596.04962 4294966700
179.40858 743.90869 -596.11908 4294966700
181.59683 743.82166 -596.13245 4294966700
183.31961 743.99286 -596.04401 4294966700
185.44276 743.98999 -596.00995 4294966700
187.64052 743.91626 -596.15906 4294966700
189.58742 743.9975 -596.14026 4294966700
25.01367 746.66693 -596.07843 4294966700
27.101183 745.56854 -596.19025 4294966700
29.055498 744.62738 -596.2276 4294966700
30.794437 744.00177 -596.3338 4294966700
31.087231 746.10944 -596.93317 4294966700
33.245567 744.57446 -596.89954 4294966700
145.69186 745.60907 -596.92242 4294966700
147.56244 745.84686 -596.8175 4294966700
149.35773 744.91302 -596.81165 4294966700
151.50998 745.76929 -596.84497 4294966700
153.35428 745.87378 -596.75732 4294966700
155.60631 745.90662 -596.82855 4294966700
157.55096 746.0354 -596.65186 4294966700
159.38603 746.00519 -596.60834 4294966700
161.42355 745.79071 -596.55371 4294966700
163.58766 746.1701 -596.66156 4294966700
165.64297 746.82239 -596.70166 4294966700
179.63019 746.19873 -596.10791 4294966700
181.39648 746.15027 -596.06268 4294966700
195.63065 744.14264 -596.1601 4294966700
199.48753 744.32269 -596.22699 4294966700
29.159813 747.40527 -596.93311 4294966700
140.44931 749.37854 -596.99133 4294966700
141.17264 749.74384 -596.74023 4294966700
142.83174 749.66858 -596.53693 4294966700
144.05363 748.40851 -596.74908 4294966700
145.82779 747.75684 -596.76215 4294966700
147.65283 748.276 -596.6861 4294966700
149.64056 748.75067 -596.87927 4294966700
151.49525 748.96075 -596.66724 4294966700
153.4743 748.76471 -596.56836 4294966700
155.60757 748.69745 -596.46301 4294966700
157.49124 748.1499 -596.55005 4294966700
159.4352 748.06995 -596.50854 4294966700
161.54779 748.76819 -596.29315 4294966700
163.49113 748.73077 -596.23682 4294966700
167.71089 748.35004 -596.34698 4294966700
169.6035 747.56079 -596.20752 4294966700
171.63246 748.08411 -596.17188 4294966700
173.79564 747.83838 -596.112 4294966700
177.45354 747.7453 -596.07782 4294966700
121.34109 752.94196 -596.77075 4294966700
123.41974 752.16943 -596.71405 4294966700
126.8412 752.16455 -596.45508 4294966700
128.48694 752.23022 -596.36017 4294966700
130.94183 752.05646 -596.33691 4294966700
133.31088 751.66321 -596.70398 4294966700
136.50528 751.39392 -596.41998 4294966700
137.83121 751.11664 -596.42059 4294966700
140.50412 750.75305 -596.2663 4294966700
141.93719 750.27429 -596.3515 4294966700
145.80301 750.19452 -596.14722 4294966700
147.43643 750.98303 -596.34326 4294966700
22.423887 754.88434 -596.24323 4294966700
26.551497 755.42615 -596.92999 4294966700
93.276665 755.74243 -596.34314 4294966700
101.61477 754.4342 -596.76721 4294966700
115.51308 753.15497 -596.92798 4294966700
119.3908 753.00537 -596.85938 4294966700
24.519753 756.43555 -596.409 4294966700
26.186552 758.22131 -596.3324 4294966700
27.802063 757.66766 -596.79938 4294966700
28.717617 758.97833 -596.35382 4294966700
29.553503 757.64551 -596.94647 4294966700
31.384163 757.94281 -596.86713 4294966700
33.305698 758.13348 -596.82776 4294966700
37.292465 758.24872 -596.86987 4294966700
41.332401 758.79083 -596.453 4294966700
43.686626 758.88593 -596.98254 4294966700
45.409534 758.79968 -596.95654 4294966700
47.82196 758.65643 -596.91718 4294966700
57.327759 758.36267 -596.98694 4294966700
59.182835 758.94458 -596.00543 4294966700
63.474571 758.73755 -596.20099 4294966700
81.42585 757.2442 -596.02557 4294966700
27.535833 759.27069 -596.09961 4294966700
30.077909 759.09326 -596.27753 4294966700
34.22242 759.2381 -596.04486 4294966700
37.47678 759.32605 -596.10095 4294966700
38.770317 759.06494 -596.25494 4294966700
83.244095 820.69409 -596.93152 4294966700
83.501572 823.74011 -596.97583 4294966700
59.5886 839.49854 -596.99011 4294966700
17.471916 842.51123 -596.8783 4294966700
19.937304 842.35876 -596.98212 4294966700
32.163807 841.46124 -596.76251 4294966700
35.40424 841.23242 -596.83478 4294966700
49.613419 840.22876 -596.98206 4294966700
9.91259 843.04486 -596.96613 4294966700
193.12376 731.66547 -595.06354 4294966701
195.45459 731.63092 -595.10181 4294966701
197.40651 731.55853 -595.24438 4294966701
199.56116 731.83447 -595.16071 4294966701
93.436577 734.8302 -595.7644 4294966701
95.43721 734.30524 -595.24646 4294966701
99.485695 734.52362 -595.78241 4294966701
101.69344 733.8941 -595.29102 4294966701
105.14542 733.61108 -595.17102 4294966701
109.47652 733.48389 -595.33978 4294966701
111.22436 733.43481 -595.35547 4294966701
113.38057 733.33136 -595.33752 4294966701
115.36246 733.30231 -595.41846 4294966701
117.3091 733.284 -595.48669 4294966701
119.11897 734.80212 -595.914 4294966701
121.26508 734.37817 -595.12567 4294966701
138.42252 734.81464 -595.04041 4294966701
148.63173 734.80469 -595.06494 4294966701
159.37006 733.68665 -595.46667 4294966701
