# .PCD v0.7 - Point Cloud Data file format
VERSION 0.7
FIELDS x y z rgba
SIZE 4 4 4 4
TYPE F F F U
COUNT 1 1 1 1
WIDTH 1135
HEIGHT 1
VIEWPOINT 0 0 0 1 0 0 0
POINTS 1135
DATA ascii
263.22293 -26.764149 -21.900963 4294967275
193.9312 -21.189026 -21.625713 4294967275
201.25217 -21.65913 -21.812662 4294967275
209.34154 -22.575047 -21.905296 4294967275
213.12035 -22.872589 -21.775639 4294967275
215.08546 -23.117334 -21.969427 4294967275
223.32466 -23.690849 -21.843536 4294967275
225.48758 -23.816927 -21.951384 4294967275
159.2291 -18.26936 -21.256618 4294967275
163.35191 -18.65867 -21.345339 4294967275
165.03795 -18.757126 -21.680172 4294967275
169.24995 -18.945234 -21.535563 4294967275
173.62016 -19.552969 -21.563387 4294967275
179.3788 -19.88158 -21.901735 4294967275
356.15717 8.7707949 -21.136333 4294967275
357.74246 8.5723724 -21.579275 4294967275
303.64011 11.702391 -21.609133 4294967275
305.82785 11.480323 -21.911541 4294967275
309.2814 11.271916 -21.622145 4294967275
311.42834 11.212835 -21.311119 4294967275
313.86523 11.076694 -21.547987 4294967275
316.7442 10.915665 -21.467009 4294967275
319.8349 10.806527 -21.151037 4294967275
323.60251 10.56214 -21.257418 4294967275
352.27625 9.4538193 -21.972187 4294967275
354.48141 9.2413855 -21.81489 4294967275
263.13922 14.88316 -21.997198 4294967275
265.30225 14.846693 -21.925077 4294967275
281.50357 13.358084 -21.937227 4294967275
283.18542 13.23482 -21.665262 4294967275
287.36258 13.043052 -21.55311 4294967275
290.9176 12.856393 -21.595018 4294967275
293.70639 12.568223 -21.992094 4294967275
295.40714 12.452139 -21.948378 4294967275
297.1918 12.368681 -21.855524 4294967275
301.00586 12.039043 -21.825863 4294967275
235.1414 17.136461 -21.782499 4294967275
257.95175 15.545675 -21.900896 4294967275
259.46866 15.276134 -21.886951 4294967275
189.32883 20.935034 -21.898647 4294967275
223.09302 18.270994 -21.968702 4294967275
158.68983 23.761009 -21.019962 4294967275
162.26573 23.392815 -21.655254 4294967275
165.04559 22.88793 -21.807634 4294967275
167.47546 22.773251 -21.897064 4294967275
168.95967 22.658293 -21.726458 4294967275
184.83156 21.283913 -21.985199 4294967275
337.38098 -33.118587 -20.726858 4294967276
340.09439 -33.505276 -20.96806 4294967276
341.57068 -33.782837 -20.178591 4294967276
357.42621 -34.738503 -20.390543 4294967276
359.41177 -34.600082 -20.52952 4294967276
363.42545 -33.382851 -20.823196 4294967276
333.19345 -32.516235 -20.754261 4294967276
335.61945 -32.770142 -20.933525 4294967276
363.64084 -32.19862 -20.012377 4294967276
273.52609 -27.016039 -20.020594 4294967276
235.45882 -24.314821 -20.076418 4294967276
243.31383 -24.868952 -20.021362 4294967276
245.82101 -25.139084 -20.475468 4294967276
253.41245 -25.381907 -20.254379 4294967276
259.46063 -25.938074 -20.140558 4294967276
261.5365 -26.109188 -20.00551 4294967276
263.46698 -26.261709 -20.034292 4294967276
267.45776 -26.582388 -20.079466 4294967276
198.15521 -21.146746 -20.969133 4294967276
199.472 -21.07794 -20.316847 4294967276
203.22612 -21.27729 -20.083883 4294967276
205.9702 -21.572752 -20.108753 4294967276
209.46941 -21.943239 -20.102718 4294967276
213.49991 -22.460726 -20.11772 4294967276
217.5015 -22.908073 -20.746864 4294967276
221.44753 -23.248274 -20.912195 4294967276
223.24739 -23.343321 -20.725327 4294967276
225.53766 -23.426054 -20.261656 4294967276
229.47563 -23.769161 -20.086992 4294967276
233.44913 -23.972231 -20.076118 4294967276
167.34929 -18.272928 -20.360004 4294967276
175.40791 -18.989004 -20.172628 4294967276
178.97101 -19.233667 -20.329033 4294967276
183.68083 -19.868034 -20.05969 4294967276
195.16252 -20.738796 -20.220062 4294967276
363.64606 5.4138079 -20.70817 4294967276
358.8909 7.8742962 -20.349916 4294967276
361.06931 7.241549 -20.523315 4294967276
325.38705 10.531334 -20.961786 4294967276
331.57925 10.219658 -20.68288 4294967276
335.35507 10.044832 -20.787415 4294967276
337.45044 9.9905987 -20.645084 4294967276
341.88672 9.997098 -20.056673 4294967276
154.4662 23.671621 -20.350708 4294967276
157.33298 23.845192 -20.27055 4294967276
350.07684 -34.732929 -19.567732 4294967277
352.06619 -34.763977 -19.875593 4294967277
353.50882 -34.671028 -19.641371 4294967277
359.41797 -33.291557 -19.130018 4294967277
311.39212 -30.225855 -19.362728 4294967277
315.29269 -30.651041 -19.159786 4294967277
317.48105 -30.858295 -19.003693 4294967277
323.74545 -31.432631 -19.079329 4294967277
361.90973 -32.371979 -19.59738 4294967277
277.28961 -27.305744 -19.591782 4294967277
281.35452 -27.655142 -19.73167 4294967277
293.34125 -28.714743 -19.749168 4294967277
297.47293 -29.02968 -19.972649 4294967277
305.3317 -29.628777 -19.528202 4294967277
307.14313 -29.77862 -19.582666 4294967277
237.31509 -24.400656 -19.79985 4294967277
247.26797 -25.181694 -19.96212 4294967277
257.06592 -25.730278 -19.952564 4294967277
271.32321 -26.86721 -19.717833 4294967277
219.49791 -22.78352 -19.846907 4294967277
169.04451 -18.32299 -19.762962 4294967277
171.5957 -18.706055 -19.963882 4294967277
155.19931 -17.23695 -19.882343 4294967277
157.82315 -17.446495 -19.714306 4294967277
163.34178 -17.997799 -19.86187 4294967277
353.51553 8.9458141 -19.709002 4294967277
345.64175 9.9115009 -19.912138 4294967277
347.51013 9.6271029 -19.783737 4294967277
349.98917 9.635397 -19.943188 4294967277
267.01694 14.956875 -19.583052 4294967277
283.39621 13.723488 -19.017183 4294967277
287.74799 13.393778 -19.084887 4294967277
289.74493 13.290936 -19.040304 4294967277
297.4642 12.594379 -19.047924 4294967277
299.92142 12.376348 -19.148478 4294967277
300.9136 12.392931 -19.055946 4294967277
303.71353 12.106538 -19.298174 4294967277
305.51059 12.022665 -19.055019 4294967277
227.48708 17.984541 -19.711729 4294967277
229.36203 17.853279 -19.590639 4294967277
230.94785 17.717659 -19.61989 4294967277
233.38583 17.499262 -19.671591 4294967277
237.23682 17.264706 -19.553688 4294967277
239.54442 17.098145 -19.413519 4294967277
241.82288 16.827534 -19.765955 4294967277
245.70984 16.565702 -19.442186 4294967277
247.25256 16.429541 -19.597282 4294967277
249.42224 16.228014 -19.792994 4294967277
255.31749 15.95087 -19.04048 4294967277
257.31488 15.763023 -19.466545 4294967277
261.06818 15.37135 -19.746023 4294967277
263.2251 15.284719 -19.100037 4294967277
195.40784 20.478157 -19.575438 4294967277
197.36746 20.298008 -19.698723 4294967277
199.42264 20.185211 -19.511744 4294967277
201.16371 20.115953 -19.212933 4294967277
203.37247 19.887169 -19.464077 4294967277
205.28336 19.668432 -19.77914 4294967277
215.4099 19.081951 -19.714827 4294967277
217.19911 18.942448 -19.342371 4294967277
219.40813 18.688961 -19.47315 4294967277
221.30347 18.44573 -19.801748 4294967277
223.12373 18.307335 -19.58794 4294967277
225.75589 18.073874 -19.966957 4294967277
157.52718 23.80504 -19.525688 4294967277
159.33324 23.706745 -19.616552 4294967277
161.31223 23.402386 -19.720211 4294967277
162.98891 23.198002 -19.636957 4294967277
165.20419 22.843647 -19.60878 4294967277
182.8188 21.500263 -19.911243 4294967277
185.10121 21.296991 -19.808319 4294967277
187.479 21.117916 -19.678102 4294967277
335.63272 -33.0793 -18.140993 4294967278
337.897 -33.383457 -18.183048 4294967278
351.76007 -34.227478 -18.134237 4294967278
355.48639 -34.103443 -18.605459 4294967278
357.39862 -33.649513 -18.64399 4294967278
313.60022 -30.501528 -18.995554 4294967278
321.32306 -31.286394 -18.981827 4294967278
325.49484 -31.689291 -18.912924 4294967278
327.42136 -31.927658 -18.792704 4294967278
331.23834 -32.531609 -18.735741 4294967278
333.36176 -32.736084 -18.709347 4294967278
361.40976 -30.642191 -18.803366 4294967278
359.69977 5.8893318 -18.898952 4294967278
351.61874 8.9621496 -18.115942 4294967278
355.66327 7.891571 -18.483541 4294967278
309.37726 11.789001 -18.905405 4294967278
314.01617 11.682049 -18.321234 4294967278
315.03616 11.46108 -18.88946 4294967278
317.22867 11.316603 -18.991449 4294967278
321.16681 11.144966 -18.782747 4294967278
323.7211 10.998185 -18.864632 4294967278
329.67987 10.628037 -18.696205 4294967278
331.46259 10.606624 -18.26008 4294967278
333.78394 10.550319 -18.069729 4294967278
336.06406 10.514865 -18.028996 4294967278
349.43616 9.1000605 -18.005226 4294967278
281.2099 13.939253 -18.961422 4294967278
285.31702 13.630506 -18.783997 4294967278
291.69836 13.203688 -18.859135 4294967278
293.9223 12.949597 -18.99044 4294967278
259.21661 15.732594 -18.608543 4294967278
342.65787 -33.834194 -17.255081 4294967279
346.2124 -34.257256 -17.694942 4294967279
347.93274 -34.256527 -17.622793 4294967279
353.37131 -33.338539 -17.154011 4294967279
355.20721 -33.159985 -17.564529 4294967279
357.22015 -32.126408 -17.682627 4294967279
359.25519 -30.600578 -17.935516 4294967279
273.60434 -27.166182 -17.050688 4294967279
275.91132 -27.335619 -17.216064 4294967279
277.50128 -27.4568 -17.437637 4294967279
281.47067 -27.800125 -17.113417 4294967279
289.50946 -28.522913 -17.124863 4294967279
293.34488 -28.867125 -17.016273 4294967279
295.35587 -29.04604 -17.143827 4294967279
241.41272 -24.626247 -17.665976 4294967279
245.59077 -24.973793 -17.653444 4294967279
247.45558 -25.111435 -17.655758 4294967279
249.45828 -25.26857 -17.445995 4294967279
251.47279 -25.428263 -17.335608 4294967279
259.34479 -26.047564 -17.064425 4294967279
263.42618 -26.377848 -17.162663 4294967279
267.31628 -26.69857 -17.05562 4294967279
269.44962 -26.827703 -17.156002 4294967279
271.366 -26.987057 -17.1117 4294967279
205.23848 -21.410986 -17.451136 4294967279
209.44032 -21.767767 -17.651228 4294967279
213.36807 -22.154364 -17.620783 4294967279
215.34813 -22.361469 -17.749903 4294967279
217.30098 -22.56076 -17.599989 4294967279
221.26144 -22.91766 -17.285677 4294967279
223.31732 -23.089638 -17.688177 4294967279
225.52171 -23.262281 -17.386137 4294967279
169.35419 -18.131947 -17.920013 4294967279
173.71948 -18.53376 -17.775612 4294967279
179.16335 -18.929457 -17.48447 4294967279
183.45833 -19.350334 -17.606796 4294967279
195.35666 -20.540869 -17.129532 4294967279
197.11719 -20.727232 -17.22366 4294967279
199.76152 -20.893353 -17.860497 4294967279
157.59323 -17.16423 -17.491404 4294967279
159.5256 -17.277498 -17.52565 4294967279
161.72781 -17.468737 -17.751135 4294967279
163.18669 -17.618544 -17.677643 4294967279
165.30898 -17.795115 -17.636135 4294967279
357.56213 5.9671059 -17.917011 4294967279
358.10712 4.093596 -17.49411 4294967279
353.48984 7.376565 -17.032566 4294967279
355.50418 6.9467111 -17.515223 4294967279
338.1662 10.412593 -17.854038 4294967279
340.37198 10.193754 -17.801771 4294967279
341.71234 9.891222 -17.62236 4294967279
347.13925 9.4462023 -17.712805 4294967279
243.74573 17.019028 -17.033871 4294967279
201.75008 20.302769 -17.169538 4294967279
211.38734 19.587107 -17.036737 4294967279
215.61592 19.257204 -17.102648 4294967279
217.192 19.151236 -17.078163 4294967279
161.19769 23.68738 -17.154213 4294967279
181.39925 22.031548 -17.08923 4294967279
183.5937 21.878628 -17.162462 4294967279
191.55949 21.121977 -17.067505 4294967279
349.61612 -33.356102 -16.057709 4294967280
317.44043 -31.045233 -16.852076 4294967280
319.38184 -31.231466 -16.767681 4294967280
327.64899 -32.156723 -16.320791 4294967280
355.74414 -30.951294 -16.817856 4294967280
279.0838 -27.623722 -16.979622 4294967280
297.39526 -29.229767 -16.932493 4294967280
303.23288 -29.730484 -16.816929 4294967280
349.64447 8.3425465 -16.569065 4294967280
351.39163 7.7176251 -16.550823 4294967280
317.55957 11.609285 -16.69099 4294967280
319.90421 11.451668 -16.752691 4294967280
321.53949 11.469217 -16.249611 4294967280
323.84378 11.388 -16.25036 4294967280
326.0455 11.26663 -16.187679 4294967280
339.17004 9.9308176 -16.038734 4294967280
343.54175 9.3557835 -16.290421 4294967280
345.48776 9.0984087 -16.50647 4294967280
279.40912 14.353346 -16.936668 4294967280
281.30838 14.179303 -16.892488 4294967280
283.86938 14.002504 -16.60689 4294967280
289.72626 13.59546 -16.914757 4294967280
293.45895 13.42898 -16.677176 4294967280
295.48715 13.182747 -16.903164 4294967280
297.48392 13.025297 -16.796799 4294967280
300.09451 12.809385 -16.780245 4294967280
303.65643 12.491906 -16.943836 4294967280
305.60849 12.356718 -16.864635 4294967280
309.56506 12.126878 -16.742142 4294967280
311.76663 12.000058 -16.80312 4294967280
239.34496 17.386621 -16.983959 4294967280
241.17618 17.253191 -16.97654 4294967280
247.15369 16.784405 -16.88731 4294967280
249.36392 16.626863 -16.925831 4294967280
263.686 15.552109 -16.927765 4294967280
203.40326 20.212126 -16.87916 4294967280
219.26596 18.920322 -16.975624 4294967280
223.28871 18.626528 -16.819704 4294967280
227.65109 18.330685 -16.965876 4294967280
187.4938 21.52533 -16.96999 4294967280
335.8634 -33.007214 -15.670649 4294967281
338.05264 -33.166733 -15.689104 4294967281
341.35883 -33.340141 -15.568857 4294967281
345.4585 -33.563965 -15.656714 4294967281
329.72455 -32.557819 -15.840005 4294967281
331.83289 -32.90144 -15.60611 4294967281
333.80029 -32.877968 -15.878342 4294967281
353.27731 -30.509342 -15.622626 4294967281
273.61676 -27.273447 -15.033166 4294967281
205.39072 -21.538612 -15.121315 4294967281
215.28812 -22.466385 -15.074455 4294967281
217.41748 -22.6446 -15.034344 4294967281
167.68964 -18.109577 -15.524543 4294967281
181.29622 -19.266947 -15.091993 4294967281
183.4884 -19.500044 -15.039482 4294967281
185.39728 -19.67877 -15.123093 4294967281
155.59427 -17.13603 -15.247866 4294967281
157.38867 -17.291357 -15.054497 4294967281
163.83415 -17.817841 -15.211076 4294967281
351.8869 5.7127466 -15.661374 4294967281
353.67047 3.8997273 -15.954494 4294967281
347.12164 8.6057577 -15.895252 4294967281
349.50592 7.0148897 -15.496796 4294967281
327.93845 11.228098 -15.706831 4294967281
330.01816 11.062159 -15.808484 4294967281
331.86276 10.674816 -15.014215 4294967281
334.57684 10.646075 -15.088157 4294967281
341.41733 9.5248718 -15.892776 4294967281
312.69382 12.188161 -15.470434 4294967281
221.61792 19.040968 -15.059772 4294967281
163.10599 23.655409 -15.047945 4294967281
313.41043 -30.943569 -14.433742 4294967282
315.13181 -31.173908 -14.048903 4294967282
317.54889 -31.336866 -14.300996 4294967282
337.69321 -32.677322 -14.069609 4294967282
349.39618 -31.075798 -14.615246 4294967282
279.4111 -27.769053 -14.955478 4294967282
291.41159 -28.795673 -14.802961 4294967282
295.31372 -29.200359 -14.793499 4294967282
297.61603 -29.337469 -14.905404 4294967282
299.39368 -29.462641 -14.757936 4294967282
269.31372 -26.911163 -14.919524 4294967282
207.47522 -21.752451 -14.861926 4294967282
209.49457 -21.932154 -14.983668 4294967282
211.08028 -22.069475 -14.978035 4294967282
169.09026 -18.281342 -14.902986 4294967282
159.56168 -17.495008 -14.854638 4294967282
161.29836 -17.633358 -14.936432 4294967282
349.71747 4.0833559 -14.518613 4294967282
342.4259 8.022356 -14.093393 4294967282
343.05231 7.9407849 -14.251684 4294967282
345.34076 7.5311532 -14.577332 4294967282
347.24411 7.2406831 -14.758861 4294967282
337.18872 9.858963 -14.671312 4294967282
277.15897 14.7875 -14.813487 4294967282
285.37357 14.20576 -14.725944 4294967282
289.93002 13.887481 -14.835324 4294967282
293.53897 13.662661 -14.730886 4294967282
297.4238 13.329376 -14.701228 4294967282
299.48383 13.178046 -14.538026 4294967282
301.43552 13.00391 -14.74216 4294967282
303.51263 12.933067 -14.266567 4294967282
305.69394 12.806067 -14.283051 4294967282
235.70609 17.895939 -14.94557 4294967282
241.2935 17.495766 -14.860537 4294967282
243.76738 17.272079 -14.968389 4294967282
247.0645 17.035202 -14.781173 4294967282
251.76305 16.691931 -14.910815 4294967282
201.12459 20.595938 -14.869082 4294967282
215.194 19.585796 -14.820283 4294967282
223.40784 18.942287 -14.856188 4294967282
181.29991 22.26248 -14.689385 4294967282
183.82625 21.986858 -14.945033 4294967282
185.24196 21.920811 -14.936494 4294967282
159.64284 24.041786 -14.953327 4294967282
319.27292 -31.528681 -13.76018 4294967283
321.56735 -31.755671 -13.892624 4294967283
323.65674 -31.926111 -13.609101 4294967283
329.84534 -32.439213 -13.148231 4294967283
333.7211 -32.605927 -13.965158 4294967283
343.20486 -32.373848 -13.641937 4294967283
345.37244 -31.462818 -13.582015 4294967283
347.66006 -30.495121 -13.852991 4294967283
197.41147 -20.901514 -13.088354 4294967283
343.6304 5.9501152 -13.393508 4294967283
345.8248 4.0062766 -13.478743 4294967283
339.20041 8.8329048 -13.793024 4294967283
319.8576 11.885968 -13.149858 4294967283
321.93542 11.510993 -13.486634 4294967283
323.74512 11.341591 -13.720286 4294967283
325.51147 11.190765 -13.739099 4294967283
328.03137 10.925238 -13.599758 4294967283
331.87787 10.505083 -13.743139 4294967283
307.3754 12.772072 -13.965978 4294967283
311.75937 12.576343 -13.823311 4294967283
315.56769 12.299223 -13.756755 4294967283
325.33624 -32.075329 -12.910571 4294967284
333.65198 -32.144421 -12.54256 4294967284
335.67313 -32.193981 -12.761965 4294967284
337.38611 -31.41577 -12.21203 4294967284
339.64694 -30.225475 -12.048923 4294967284
341.45416 -30.284607 -12.37019 4294967284
343.40298 -30.356527 -12.846224 4294967284
271.26807 -27.294392 -12.81793 4294967284
275.10446 -27.57863 -12.695328 4294967284
279.33887 -27.920153 -12.742262 4294967284
283.3905 -28.307236 -12.609059 4294967284
285.62296 -28.429031 -12.845946 4294967284
287.47452 -28.574379 -12.677589 4294967284
289.29773 -28.706917 -12.980709 4294967284
291.29477 -28.957529 -12.336543 4294967284
293.5303 -29.173843 -12.621734 4294967284
295.69443 -29.423178 -12.364076 4294967284
297.45862 -29.591187 -12.297777 4294967284
343.35501 -28.251404 -12.444468 4294967284
345.33517 -28.40246 -12.87648 4294967284
235.34325 -24.337059 -12.811165 4294967284
247.56067 -25.361444 -12.924345 4294967284
259.53555 -26.344526 -12.811925 4294967284
263.3291 -26.622595 -12.624145 4294967284
265.39499 -26.752855 -12.743585 4294967284
267.51413 -26.906574 -12.880585 4294967284
341.6965 -25.730885 -12.393109 4294967284
207.73871 -21.890635 -12.798967 4294967284
211.01056 -22.199078 -12.714909 4294967284
213.28438 -22.388506 -12.93628 4294967284
225.70015 -23.486233 -12.766763 4294967284
165.20357 -18.069656 -12.932152 4294967284
181.53304 -19.438669 -12.974196 4294967284
185.4552 -19.847324 -12.80725 4294967284
191.50464 -20.414843 -12.646235 4294967284
157.39955 -17.375395 -12.98584 4294967284
161.25119 -17.773314 -12.521132 4294967284
339.61618 5.9170237 -12.448691 4294967284
341.73819 3.6737764 -12.570427 4294967284
337.40533 8.0162487 -12.659144 4294967284
339.16934 7.4366984 -12.851561 4294967284
317.45529 11.889201 -12.817936 4294967284
326.18399 10.732697 -12.23974 4294967284
329.40817 10.358114 -12.529365 4294967284
333.35278 9.1872721 -12.054747 4294967284
335.22076 9.2698717 -12.803604 4294967284
279.26163 14.812845 -12.934011 4294967284
281.59329 14.757659 -12.172263 4294967284
283.79248 14.648481 -12.065153 4294967284
289.52026 14.374092 -12.131437 4294967284
291.12842 14.280944 -12.058832 4294967284
306.4339 12.989353 -12.093633 4294967284
239.52071 17.893286 -12.66778 4294967284
243.52672 17.516361 -12.862978 4294967284
245.4626 17.36451 -12.792063 4294967284
277.51294 15.018177 -12.663172 4294967284
211.50052 20.133865 -12.672414 4294967284
213.51109 19.985996 -12.61589 4294967284
217.31204 19.697973 -12.785068 4294967284
219.37657 19.622152 -12.703658 4294967284
222.09323 19.296436 -12.810362 4294967284
223.75089 19.161129 -12.712164 4294967284
225.58849 18.960051 -12.899749 4294967284
227.63843 18.757235 -12.891116 4294967284
237.67223 18.024002 -12.921988 4294967284
163.30482 23.939793 -12.901704 4294967284
167.57339 23.640928 -12.663634 4294967284
174.5311 22.987692 -12.980767 4294967284
177.61649 22.738354 -12.832006 4294967284
179.6006 22.599426 -12.853993 4294967284
181.45377 22.490473 -12.740901 4294967284
183.52643 22.374586 -12.472284 4294967284
159.70764 24.25062 -12.890491 4294967284
309.52859 -30.697691 -11.46577 4294967285
313.4173 -31.078442 -11.527399 4294967285
317.65543 -31.217186 -11.616847 4294967285
321.4498 -31.447023 -11.307999 4294967285
329.7016 -31.872168 -11.741261 4294967285
332.21271 -31.993237 -11.884275 4294967285
335.33188 -31.306919 -11.584772 4294967285
299.54761 -29.795277 -11.969555 4294967285
339.35828 -28.838743 -11.6653 4294967285
337.05136 -25.770832 -11.19144 4294967285
339.62207 -25.636145 -11.926968 4294967285
333.53281 -21.045595 -11.14515 4294967285
337.34445 1.1348202 -11.796586 4294967285
335.51956 3.6734712 -11.199793 4294967285
337.55215 3.6191037 -11.627489 4294967285
333.80725 7.9555197 -11.471678 4294967285
335.85986 7.6871505 -11.938294 4294967285
315.45126 11.941028 -11.719722 4294967285
317.7626 11.671412 -11.662651 4294967285
319.34534 11.360045 -11.471371 4294967285
323.34024 11.043798 -11.932134 4294967285
329.47644 9.2565813 -11.129432 4294967285
331.52988 9.0593214 -11.452292 4294967285
287.15399 14.506336 -11.878037 4294967285
297.53723 13.737629 -11.820479 4294967285
299.66891 13.539051 -11.832283 4294967285
301.61185 13.248564 -11.747466 4294967285
303.25439 13.12318 -11.535943 4294967285
307.58841 12.664164 -11.045356 4294967285
309.61935 12.552933 -11.6186 4294967285
311.40799 12.385624 -11.655151 4294967285
313.39197 12.174212 -11.798667 4294967285
165.81889 23.977684 -11.00054 4294967285
311.08932 -30.799461 -10.953403 4294967286
319.3894 -30.762022 -10.305463 4294967286
323.0123 -30.886589 -10.042841 4294967286
327.72421 -31.239517 -10.484349 4294967286
330.9006 -30.744936 -10.073727 4294967286
333.3826 -30.040468 -10.338622 4294967286
267.46204 -27.040091 -10.366512 4294967286
269.40689 -27.213232 -10.208036 4294967286
271.53751 -27.436033 -10.158135 4294967286
273.54498 -27.632509 -10.055543 4294967286
277.20709 -27.951685 -10.05683 4294967286
283.71164 -28.552769 -10.225256 4294967286
286.3963 -28.793196 -10.041915 4294967286
298.15277 -29.653704 -10.14466 4294967286
333.50589 -28.899073 -10.073353 4294967286
337.12683 -29.202929 -10.897827 4294967286
247.61247 -25.484753 -10.452726 4294967286
257.83432 -26.421638 -10.721621 4294967286
259.26254 -26.500328 -10.184083 4294967286
261.61438 -26.656944 -10.180812 4294967286
265.18851 -26.880421 -10.116977 4294967286
335.56912 -26.123882 -10.652083 4294967286
201.38986 -21.413923 -10.798215 4294967286
205.71971 -21.807444 -10.914153 4294967286
207.34897 -21.963718 -10.77481 4294967286
209.36159 -22.146725 -10.690838 4294967286
211.22614 -22.332552 -10.677516 4294967286
215.23145 -22.716719 -10.575548 4294967286
225.80566 -23.542271 -10.709823 4294967286
227.02995 -23.677439 -10.817604 4294967286
229.31468 -23.850172 -10.939836 4294967286
331.4696 -23.425335 -10.158815 4294967286
163.37785 -18.079496 -10.453781 4294967286
165.25299 -18.282547 -10.595192 4294967286
169.31699 -18.569628 -10.542467 4294967286
181.23709 -19.568254 -10.61931 4294967286
183.74002 -19.828608 -10.827053 4294967286
187.25093 -20.22064 -10.728134 4294967286
189.34277 -20.405966 -10.67377 4294967286
193.08891 -20.69561 -10.43978 4294967286
159.85886 -17.743061 -10.920585 4294967286
161.12849 -17.874746 -10.525944 4294967286
329.63177 3.5085502 -10.171303 4294967286
331.92737 3.3977685 -10.570621 4294967286
333.87766 3.967072 -10.871555 4294967286
329.60907 7.4359055 -10.39158 4294967286
331.18726 6.9370646 -10.574562 4294967286
314.29355 11.520941 -10.427603 4294967286
321.25104 10.286363 -10.132966 4294967286
323.28342 9.9579773 -10.05719 4294967286
325.16501 9.8856611 -10.566094 4294967286
327.54504 9.3978176 -10.769096 4294967286
293.97003 13.740845 -10.039171 4294967286
310.78262 12.151175 -10.53571 4294967286
250.08252 17.397116 -10.361892 4294967286
253.89934 17.148361 -10.152847 4294967286
255.60876 17.018816 -10.179284 4294967286
269.36429 15.963165 -10.067765 4294967286
211.71407 20.480665 -10.077309 4294967286
219.35297 19.926716 -10.14363 4294967286
221.74004 19.629456 -10.106933 4294967286
223.72148 19.57976 -10.031965 4294967286
225.40904 19.413807 -10.186112 4294967286
227.61121 19.110298 -10.420352 4294967286
169.30508 23.748705 -10.714667 4294967286
171.49776 23.747248 -10.016466 4294967286
179.28181 22.859819 -10.640513 4294967286
181.24605 22.718876 -10.765245 4294967286
183.39174 22.663805 -10.225803 4294967286
188.43852 22.262653 -10.236854 4294967286
193.5641 21.711954 -10.417441 4294967286
155.40445 24.907146 -10.66095 4294967286
157.30574 24.729389 -10.687473 4294967286
159.33965 24.566385 -10.566196 4294967286
161.50087 24.345907 -10.850271 4294967286
162.942 24.286964 -10.51174 4294967286
307.49966 -30.336746 -9.6990461 4294967287
311.55914 -30.415398 -9.8855076 4294967287
315.50986 -30.562197 -9.9188957 4294967287
325.52228 -30.661739 -9.2045336 4294967287
327.32257 -30.242998 -9.0899076 4294967287
288.91699 -28.875704 -9.5801277 4294967287
291.35806 -29.145565 -9.8034096 4294967287
293.42282 -29.197643 -9.5669918 4294967287
295.64651 -29.513193 -9.6139402 4294967287
301.67532 -29.748899 -9.5832405 4294967287
303.6803 -29.96372 -9.6712065 4294967287
329.50064 -29.556225 -9.3964472 4294967287
331.56168 -28.543562 -9.5230274 4294967287
255.24475 -26.214241 -9.9269609 4294967287
323.78159 3.2653029 -9.2222986 4294967287
325.46628 3.5483427 -9.4482079 4294967287
321.74045 8.0742826 -9.0717688 4294967287
323.5249 7.2307329 -9.2116461 4294967287
325.72604 8.1568918 -9.7724447 4294967287
327.65775 6.7238493 -9.8852577 4294967287
313.4054 11.130591 -9.5869589 4294967287
317.48633 10.042269 -9.3856907 4294967287
319.33533 9.7545738 -9.4632931 4294967287
321.47125 9.2423849 -9.4948339 4294967287
285.51834 14.524541 -9.0550518 4294967287
287.73932 14.404922 -9.3675308 4294967287
289.79352 14.279513 -9.7690172 4294967287
291.41309 14.047621 -9.7436018 4294967287
297.44583 13.407753 -9.8442793 4294967287
299.45294 13.150758 -9.7466936 4294967287
301.84937 12.963653 -9.9378443 4294967287
303.39932 12.79063 -9.6841621 4294967287
306.05185 12.467843 -9.5351439 4294967287
259.34735 16.885347 -9.7911682 4294967287
263.75769 16.754454 -9.2836027 4294967287
266.08252 16.488878 -9.873601 4294967287
271.27579 15.635007 -9.8416004 4294967287
275.7626 15.251107 -9.6576071 4294967287
277.55936 15.162438 -9.9038591 4294967287
279.18359 15.180975 -9.5096436 4294967287
209.82095 20.651258 -9.8982801 4294967287
213.36336 20.374111 -9.958765 4294967287
215.21155 20.214371 -9.9072514 4294967287
236.0179 18.472963 -9.9205828 4294967287
237.84813 18.358862 -9.9866371 4294967287
241.34357 18.119526 -9.8617659 4294967287
323.31387 -30.467512 -8.8388214 4294967288
299.96133 -29.152372 -8.1276932 4294967288
311.36597 -29.492756 -8.2523947 4294967288
313.59988 -29.085073 -8.0134974 4294967288
315.5116 -29.593769 -8.1459751 4294967288
317.492 -29.615238 -8.434329 4294967288
319.3793 -29.663853 -8.5872068 4294967288
321.1821 -29.930889 -8.6332731 4294967288
325.66357 -28.513361 -8.2377682 4294967288
323.18295 -26.995035 -8.0110874 4294967288
325.51318 -26.838488 -8.1787481 4294967288
327.52795 -26.818169 -8.5611963 4294967288
197.27844 -21.183647 -8.3069391 4294967288
199.40317 -21.392023 -8.0594463 4294967288
205.54547 -22.020987 -8.0523891 4294967288
207.32709 -22.178915 -8.1170578 4294967288
211.23573 -22.547609 -8.1142426 4294967288
215.32248 -22.930099 -8.0470676 4294967288
219.52806 -23.17396 -8.0821972 4294967288
185.5817 -20.21092 -8.3369036 4294967288
189.26436 -20.663361 -8.0311508 4294967288
315.60565 4.3832378 -8.175457 4294967288
317.51776 4.569231 -8.3644514 4294967288
321.707 5.9632912 -8.7776175 4294967288
313.94312 7.9254327 -8.1734514 4294967288
315.44138 8.2580032 -8.4370413 4294967288
317.67151 7.9276376 -8.6153164 4294967288
319.64685 6.9997091 -8.6399612 4294967288
307.34778 11.44304 -8.2727394 4294967288
309.56805 11.246732 -8.6841202 4294967288
311.40027 9.8168039 -8.2685757 4294967288
313.37979 9.7160892 -8.5990191 4294967288
315.41544 9.5994434 -8.9057322 4294967288
282.94296 14.753154 -8.731926 4294967288
291.58133 13.637872 -8.2271576 4294967288
293.94223 13.387863 -8.6971273 4294967288
297.22003 12.977211 -8.7148561 4294967288
299.33337 12.70944 -8.6846447 4294967288
301.41849 12.23338 -8.1603098 4294967288
303.09546 12.209578 -8.2917614 4294967288
268.84244 16.005554 -8.9527988 4294967288
176.35696 23.252649 -8.9854479 4294967288
177.52943 23.303909 -8.084919 4294967288
155.45581 25.234789 -8.1855001 4294967288
166.55019 24.238993 -8.746994 4294967288
269.4303 -27.090879 -7.0208421 4294967289
271.46832 -27.283012 -7.0170317 4294967289
273.59143 -27.407913 -7.1054249 4294967289
275.50851 -27.595713 -7.4910274 4294967289
285.6597 -28.664448 -7.9606428 4294967289
286.47531 -28.710396 -7.6224933 4294967289
289.01028 -28.610107 -7.4073682 4294967289
291.36533 -28.73521 -7.5490479 4294967289
295.69083 -28.997847 -7.6663537 4294967289
301.62921 -28.673468 -7.1689062 4294967289
305.6322 -29.130344 -7.7488794 4294967289
307.41806 -28.646193 -7.4945674 4294967289
309.34634 -28.874252 -7.628655 4294967289
311.16492 -27.864874 -7.1341462 4294967289
319.45059 -28.210102 -7.8684726 4294967289
321.34766 -27.021059 -7.7948842 4294967289
229.47987 -24.065351 -7.5809999 4294967289
231.30554 -24.164265 -7.0966973 4294967289
233.46259 -24.37533 -7.6240487 4294967289
235.34575 -24.55966 -7.7217455 4294967289
237.40079 -24.765068 -7.8483872 4294967289
239.34419 -24.996153 -7.8266301 4294967289
241.47093 -25.178497 -7.8220534 4294967289
243.23376 -25.222462 -7.5700116 4294967289
245.25555 -25.47567 -7.8162642 4294967289
247.29596 -25.626772 -7.5542703 4294967289
251.32228 -25.991594 -7.8349347 4294967289
253.62669 -26.21896 -7.9137778 4294967289
255.27057 -26.387785 -7.6463056 4294967289
257.23795 -26.405409 -7.4279442 4294967289
261.5274 -26.860046 -7.4879012 4294967289
263.56375 -26.868961 -7.5759106 4294967289
265.7384 -26.958883 -7.9895511 4294967289
317.43555 -26.337799 -7.2089477 4294967289
201.40471 -21.610874 -7.9746966 4294967289
203.2708 -21.810955 -7.8782654 4294967289
209.26862 -22.212156 -7.8931341 4294967289
217.16373 -23.029667 -7.8454285 4294967289
223.1805 -23.481493 -7.7637138 4294967289
225.37979 -23.710871 -7.556046 4294967289
227.1689 -23.866329 -7.8226085 4294967289
167.26474 -18.630987 -7.7277575 4294967289
175.34306 -19.2666 -7.7766213 4294967289
177.39717 -19.417816 -7.9666567 4294967289
179.39363 -19.602057 -7.8072801 4294967289
181.52159 -19.82029 -7.8878641 4294967289
183.67459 -20.043083 -7.8107152 4294967289
191.43828 -20.799999 -7.9726481 4294967289
195.34116 -20.954861 -7.8913155 4294967289
309.84521 5.1528273 -7.4304104 4294967289
313.39722 5.6120887 -7.8602018 4294967289
307.81525 8.6898975 -7.2570682 4294967289
309.62772 8.3559875 -7.4931259 4294967289
311.43912 7.0598083 -7.7162237 4294967289
305.67322 11.115073 -7.6814213 4294967289
307.51309 10.095948 -7.5261898 4294967289
309.43161 10.060066 -7.9189448 4294967289
277.32907 14.877376 -7.6311469 4294967289
279.58353 14.769481 -7.6277847 4294967289
281.55609 14.634097 -7.6553688 4294967289
285.11124 14.374688 -7.9098129 4294967289
287.75732 14.123623 -7.927269 4294967289
289.54593 13.867771 -7.9445248 4294967289
295.18613 12.832695 -7.9856763 4294967289
251.27444 17.146914 -7.7571211 4294967289
259.50598 16.824249 -7.6792464 4294967289
261.24396 16.726898 -7.2531691 4294967289
264.62271 16.404325 -7.5038147 4294967289
269.27966 15.685702 -7.8352828 4294967289
273.08578 15.191227 -7.8234167 4294967289
275.7561 15.002098 -7.7414641 4294967289
210.21793 20.616396 -7.137548 4294967289
211.4183 20.486116 -7.0092301 4294967289
213.16693 20.321634 -7.310638 4294967289
215.18417 20.146755 -7.6779771 4294967289
219.48547 19.975702 -7.7849236 4294967289
224.14044 19.517778 -7.5787592 4294967289
227.74593 19.13908 -7.9271445 4294967289
242.06038 18.057718 -7.4090862 4294967289
171.92683 23.948851 -7.6740494 4294967289
179.05365 23.067081 -7.8311305 4294967289
183.76361 22.872349 -7.7196636 4294967289
189.87921 22.333721 -7.0846758 4294967289
191.6935 22.148241 -7.1463981 4294967289
157.06624 24.988857 -7.5863094 4294967289
159.39006 24.88513 -7.7873797 4294967289
161.44417 24.673233 -7.8420663 4294967289
163.18703 24.660618 -7.9634838 4294967289
167.94292 24.280695 -7.2510815 4294967289
169.72321 24.135466 -7.180058 4294967289
281.56482 -27.700439 -6.4322348 4294967290
286.42386 -28.095276 -6.3873916 4294967290
291.25922 -28.258226 -6.1297221 4294967290
293.46429 -28.34837 -6.5335665 4294967290
299.66464 -27.970961 -6.3326702 4294967290
303.36722 -27.568708 -6.2495856 4294967290
305.41568 -27.435566 -6.6845717 4294967290
307.35406 -27.515005 -6.8720465 4294967290
259.46603 -26.740482 -6.9824529 4294967290
267.43985 -26.913906 -6.8603463 4294967290
305.17285 -26.128424 -6.1432343 4294967290
307.03638 -26.085207 -6.3416691 4294967290
309.54282 -26.354368 -6.5807738 4294967290
311.47879 -25.265324 -6.6811671 4294967290
313.41196 -26.435383 -6.6654997 4294967290
309.38867 -22.517103 -6.5273519 4294967290
189.20737 -20.35545 -6.0146899 4294967290
303.59888 5.714211 -6.5573254 4294967290
305.62781 5.7677603 -6.8046498 4294967290
301.27679 8.1201496 -6.3158665 4294967290
303.82269 8.0105629 -6.5620646 4294967290
305.75406 8.7947187 -6.9022236 4294967290
295.56299 10.509155 -6.3118782 4294967290
297.29114 11.398039 -6.9439034 4294967290
299.54874 10.07775 -6.5316234 4294967290
303.70331 10.098567 -6.936522 4294967290
273.04709 14.44764 -6.1482034 4294967290
275.33572 14.324662 -6.0610623 4294967290
279.73611 14.097144 -6.0625758 4294967290
284.05624 13.969396 -6.7446055 4294967290
287.52258 12.816472 -6.0170622 4294967290
289.09833 13.004891 -6.479516 4294967290
291.23712 12.684564 -6.6801624 4294967290
293.55338 12.358202 -6.9652872 4294967290
246.99467 17.085325 -6.3012829 4294967290
251.06221 16.764502 -6.6310372 4294967290
253.59842 16.633789 -6.5363517 4294967290
255.67667 16.452732 -6.6379476 4294967290
259.3082 16.334467 -6.2019773 4294967290
264.93018 15.90422 -6.1245871 4294967290
267.79254 15.521476 -6.5118361 4294967290
205.69606 20.921238 -6.1302681 4294967290
207.52951 20.829842 -6.2385798 4294967290
213.6627 19.985718 -6.0200896 4294967290
218.14676 19.477871 -6.1623693 4294967290
219.56839 19.383255 -6.2982512 4294967290
228.75232 18.958403 -6.5469728 4294967290
231.03441 18.666939 -6.5829978 4294967290
236.60265 18.43519 -6.0851307 4294967290
240.62428 18.14782 -6.4885063 4294967290
188.28595 22.55842 -6.72541 4294967290
193.41206 21.948149 -6.5636296 4294967290
194.84842 21.72159 -6.8478222 4294967290
197.10419 21.466957 -6.3188963 4294967290
199.54915 21.251057 -6.29176 4294967290
203.49892 21.008484 -6.2988911 4294967290
271.4928 -27.099962 -5.5492139 4294967291
273.47415 -27.172424 -5.6836929 4294967291
277.58771 -27.301071 -5.9518762 4294967291
291.33875 -27.417355 -5.1915283 4294967291
293.41782 -27.3582 -5.3930583 4294967291
297.04047 -27.539108 -5.6721115 4294967291
234.60614 -24.156122 -5.4480386 4294967291
239.34532 -24.649828 -5.6767564 4294967291
241.65025 -24.689001 -5.7087007 4294967291
245.38785 -25.02442 -5.6897168 4294967291
247.51657 -25.154646 -5.6306772 4294967291
249.32521 -25.250431 -5.5009594 4294967291
251.59013 -25.527769 -5.7323337 4294967291
257.49219 -26.076897 -5.6869392 4294967291
259.33908 -26.179893 -5.7776771 4294967291
265.21713 -26.46583 -5.7522898 4294967291
269.41403 -26.769548 -5.6112437 4294967291
281.83548 -26.896635 -5.1017356 4294967291
298.711 -26.148392 -5.2095661 4294967291
301.81744 -25.150944 -5.4645534 4294967291
303.78552 -24.112341 -5.5772257 4294967291
305.43243 -24.123856 -5.9385848 4294967291
201.17288 -21.357351 -5.6695366 4294967291
211.18108 -22.112398 -5.9030437 4294967291
213.37323 -22.407923 -5.8639922 4294967291
219.26736 -22.74184 -5.4937825 4294967291
223.42062 -23.105001 -5.6882472 4294967291
225.48242 -23.416159 -5.4121423 4294967291
226.92099 -23.566227 -5.3705888 4294967291
230.42297 -23.924765 -5.4421067 4294967291
297.50626 -21.73616 -5.0480638 4294967291
299.8031 -21.607372 -5.3866043 4294967291
301.4386 -21.484316 -5.6139264 4294967291
171.77126 -18.716249 -5.4929061 4294967291
173.10916 -18.764477 -5.3821287 4294967291
177.11279 -18.949738 -5.6060004 4294967291
181.52802 -19.368134 -5.8105769 4294967291
185.45042 -19.912199 -5.9322543 4294967291
193.22841 -20.521132 -5.9221282 4294967291
197.041 -20.841883 -5.7609873 4294967291
199.13869 -20.997978 -5.6659398 4294967291
293.6503 5.0019331 -5.5476866 4294967291
291.73099 7.788734 -5.1709251 4294967291
295.44302 7.722312 -5.582449 4294967291
297.3233 7.9905033 -5.8003411 4294967291
299.07837 8.0625143 -5.9928298 4294967291
287.79398 11.850579 -5.4755087 4294967291
289.80246 10.90567 -5.465589 4294967291
291.39801 11.68168 -5.9308939 4294967291
293.4935 9.9612942 -5.7079949 4294967291
265.54709 14.892482 -5.0024815 4294967291
269.40048 14.730676 -5.819684 4294967291
271.06543 14.349607 -5.7329426 4294967291
277.3179 13.180405 -5.3843541 4294967291
279.46005 12.290405 -5.1123281 4294967291
281.42593 13.681169 -5.7488618 4294967291
283.50961 12.174099 -5.247067 4294967291
285.6442 13.07102 -5.7460785 4294967291
241.27193 17.703934 -5.7205024 4294967291
209.87537 20.514114 -5.5965028 4294967291
215.21512 19.735838 -5.9451804 4294967291
224.6552 19.170345 -5.9621782 4294967291
227.5416 18.834591 -5.6725702 4294967291
228.76804 18.71875 -5.2752032 4294967291
234.0544 18.385584 -5.6854358 4294967291
169.42021 23.981331 -5.3110857 4294967291
171.72775 23.759125 -5.5965886 4294967291
174.64128 23.369347 -5.7100344 4294967291
177.27013 23.023766 -5.9495444 4294967291
181.11063 22.731382 -5.8317461 4294967291
183.6864 22.663139 -5.6728668 4294967291
187.71614 22.447128 -5.4678645 4294967291
189.61212 22.242037 -5.6634588 4294967291
191.69365 21.906353 -5.6448088 4294967291
194.73257 21.539761 -5.6085396 4294967291
199.02383 21.183535 -5.481266 4294967291
154.81607 24.885042 -5.5504289 4294967291
157.27838 24.731291 -5.5759726 4294967291
159.74785 24.625099 -5.6848426 4294967291
161.67802 24.561512 -5.7944956 4294967291
163.23471 24.395102 -5.4703856 4294967291
167.65994 24.230282 -5.6007547 4294967291
285.58856 -27.247641 -4.7676296 4294967292
289.09515 -27.472391 -4.9313116 4294967292
241.51779 -24.225636 -4.6256399 4294967292
243.41875 -24.389311 -4.5992913 4294967292
245.46001 -24.533489 -4.5394316 4294967292
247.77805 -24.708364 -4.5551386 4294967292
255.61633 -25.462786 -4.6262846 4294967292
265.25946 -25.486807 -4.0459337 4294967292
267.65347 -26.217911 -4.6645193 4294967292
269.39627 -26.369934 -4.6191683 4294967292
271.36581 -26.317453 -4.0562706 4294967292
273.54596 -26.290499 -4.0969782 4294967292
275.57077 -26.465611 -4.5873346 4294967292
277.63046 -26.20315 -4.5552459 4294967292
279.60986 -25.929663 -4.4054823 4294967292
284.20901 -26.026148 -4.1519299 4294967292
291.36697 -25.055422 -4.1311054 4294967292
293.10123 -25.148701 -4.2836919 4294967292
295.28494 -26.432207 -4.9354477 4294967292
297.44101 -24.802927 -4.6576295 4294967292
299.64365 -24.555651 -4.9637761 4294967292
203.34908 -21.182858 -4.4688048 4294967292
205.6028 -21.106783 -4.6391625 4294967292
207.15881 -21.088146 -4.5649076 4294967292
209.74359 -21.431677 -4.6739049 4294967292
215.24196 -22.004086 -4.1341558 4294967292
217.35674 -22.473166 -4.1692929 4294967292
219.29858 -22.333317 -4.3196549 4294967292
221.38126 -22.475132 -4.4375324 4294967292
289.30774 -22.264482 -4.1171274 4294967292
291.26282 -22.044365 -4.2861161 4294967292
293.30048 -21.92848 -4.5192518 4294967292
295.62338 -22.038683 -4.7829118 4294967292
175.35622 -18.347353 -4.3482914 4294967292
177.54665 -18.517107 -4.5068583 4294967292
179.68539 -18.691137 -4.4650106 4294967292
185.23521 -19.147377 -4.3699937 4294967292
187.22209 -19.488565 -4.4655094 4294967292
191.31207 -19.785309 -4.60429 4294967292
193.29575 -19.980814 -4.5487933 4294967292
195.54889 -20.264561 -4.5709405 4294967292
197.21689 -20.34754 -4.3858204 4294967292
199.25925 -20.50395 -4.2042251 4294967292
289.37106 -19.213299 -4.5687551 4294967292
283.72296 7.5869946 -4.7581754 4294967292
285.62628 7.6267147 -4.773488 4294967292
287.88351 7.684876 -4.814404 4294967292
289.69418 7.9365592 -4.8589082 4294967292
269.43085 11.615863 -4.1718297 4294967292
271.72687 10.927876 -4.2732058 4294967292
273.4115 11.035275 -4.4694228 4294967292
275.53659 10.122966 -4.4696946 4294967292
277.36136 10.211576 -4.4719567 4294967292
279.46307 10.116942 -4.6714401 4294967292
283.78601 10.793037 -4.955195 4294967292
285.7731 10.711752 -4.9903746 4294967292
261.71335 13.994975 -4.1179662 4294967292
263.96231 14.071236 -4.0882602 4294967292
267.41516 13.961101 -4.7366319 4294967292
269.34219 13.346923 -4.7439089 4294967292
271.53403 13.127564 -4.9110036 4294967292
275.17111 12.133579 -4.8314834 4294967292
235.46101 17.432192 -4.1875334 4294967292
237.37515 17.771326 -4.3212314 4294967292
241.50406 16.89851 -4.48522 4294967292
243.48024 16.612478 -4.268261 4294967292
251.02724 16.075157 -4.6868124 4294967292
255.36899 15.518524 -4.591486 4294967292
257.43594 15.515364 -4.5988364 4294967292
259.33325 15.653179 -4.9076748 4294967292
197.8578 20.730539 -4.3143601 4294967292
201.71606 20.975269 -4.6445689 4294967292
205.51436 20.311836 -4.1791391 4294967292
207.25563 20.182447 -4.195714 4294967292
211.0304 19.894115 -4.8802032 4294967292
212.79666 19.058096 -4.3467422 4294967292
215.43816 18.265034 -4.1964135 4294967292
219.3817 18.135357 -4.3370032 4294967292
223.96857 18.541723 -4.6024013 4294967292
231.65645 18.157045 -4.332788 4294967292
169.13164 23.581902 -4.1249089 4294967292
172.90866 23.185013 -4.6401134 4294967292
176.9754 22.518101 -4.6141281 4294967292
179.31288 22.402863 -4.7404447 4294967292
181.33031 22.317284 -4.7185788 4294967292
183.31213 22.226234 -4.4011073 4294967292
185.87071 22.154755 -4.4164143 4294967292
187.58846 22.029602 -4.5681839 4294967292
191.41466 21.2285 -4.2729459 4294967292
157.40298 24.305323 -4.4914675 4294967292
159.51952 24.251591 -4.3832135 4294967292
160.89014 24.092846 -4.2040653 4294967292
163.218 24.025106 -4.451827 4294967292
165.54181 24.164291 -4.9208684 4294967292
249.73149 -24.655405 -3.9421461 4294967293
251.67619 -24.735031 -3.9843626 4294967293
253.57675 -24.813282 -3.7400351 4294967293
257.44086 -25.06712 -3.9119577 4294967293
259.30841 -25.103205 -3.9546924 4294967293
261.43777 -25.207626 -3.9940188 4294967293
263.43417 -25.222639 -3.890625 4294967293
265.32324 -24.077127 -3.1734164 4294967293
267.4295 -24.722078 -3.4140959 4294967293
269.36639 -25.021832 -3.4139028 4294967293
273.15793 -25.879635 -3.7308381 4294967293
275.37161 -24.400652 -3.2793736 4294967293
277.54202 -24.308432 -3.5759916 4294967293
282.49698 -24.342937 -3.718451 4294967293
286.58224 -25.55349 -3.6260557 4294967293
288.90814 -25.057009 -3.8293238 4294967293
213.53329 -21.329187 -3.4523659 4294967293
225.45445 -22.219393 -3.1840587 4294967293
227.27837 -21.942871 -3.0379419 4294967293
229.46091 -22.763535 -3.3174055 4294967293
231.30186 -22.874483 -3.2744482 4294967293
233.34628 -22.710419 -3.1984348 4294967293
235.51506 -22.995991 -3.5023992 4294967293
237.52347 -23.401791 -3.8671768 4294967293
241.70995 -23.100992 -3.3681781 4294967293
243.32098 -23.292383 -3.3602741 4294967293
245.35132 -23.472071 -3.3759665 4294967293
247.62436 -23.595282 -3.281471 4294967293
249.67508 -23.390348 -3.0246389 4294967293
251.56018 -23.545755 -3.0131946 4294967293
259.01996 -23.810829 -3.0781498 4294967293
261.42572 -23.669548 -3.1222157 4294967293
263.24881 -23.866686 -3.1108508 4294967293
273.20456 -23.329479 -3.0199947 4294967293
275.59836 -22.384581 -3.1009393 4294967293
283.13232 -22.273861 -3.6875954 4294967293
285.4061 -22.298758 -3.9005475 4294967293
287.19891 -22.074133 -3.9846404 4294967293
207.51375 -20.020939 -3.0970194 4294967293
211.48595 -20.717031 -3.1673796 4294967293
265.6698 10.798776 -3.6932745 4294967293
267.49298 9.7168713 -3.5911205 4294967293
269.89438 9.8156376 -3.9631379 4294967293
227.54767 14.579004 -3.1262689 4294967293
233.35374 14.661257 -3.168915 4294967293
235.53568 14.743773 -3.2430947 4294967293
240.19336 14.449625 -3.3313735 4294967293
241.61096 14.070111 -3.278712 4294967293
243.35307 14.374022 -3.0137897 4294967293
250.47852 13.599231 -3.5380118 4294967293
251.43488 13.256396 -3.5422757 4294967293
253.12137 13.058557 -3.5806661 4294967293
255.19212 12.725522 -3.5197959 4294967293
257.80374 13.019005 -3.4587834 4294967293
259.7533 12.710603 -3.5932534 4294967293
261.66672 12.242655 -3.4663045 4294967293
206.07684 17.370825 -3.0635231 4294967293
210.18748 16.890347 -3.2449207 4294967293
211.65257 16.806263 -3.2996075 4294967293
213.77545 16.842007 -3.4516659 4294967293
224.32451 16.533806 -3.5762658 4294967293
225.38481 17.277773 -3.7534389 4294967293
227.4032 16.277966 -3.4017739 4294967293
228.76607 16.864792 -3.3358083 4294967293
233.10594 15.943997 -3.3683703 4294967293
238.01482 16.045977 -3.5682185 4294967293
239.75134 15.894554 -3.5960355 4294967293
245.6456 15.635302 -3.6101327 4294967293
191.33568 19.600677 -3.0749924 4294967293
193.26947 19.875584 -3.5178211 4294967293
195.37317 19.759335 -3.5264039 4294967293
197.60527 19.169361 -3.3003111 4294967293
199.22748 19.829174 -3.6133227 4294967293
201.57979 18.179907 -3.045202 4294967293
203.38553 18.946983 -3.3721826 4294967293
205.3248 19.314266 -3.6591582 4294967293
207.61397 18.25585 -3.2676222 4294967293
209.55511 18.253656 -3.3469973 4294967293
211.92773 18.180944 -3.5485227 4294967293
157.49648 23.163424 -3.0509531 4294967293
159.29613 23.300535 -3.0674052 4294967293
161.46564 23.064833 -3.0282784 4294967293
163.43188 22.993343 -3.0426445 4294967293
167.27917 22.937138 -3.0483479 4294967293
169.30405 22.734987 -3.1224444 4294967293
171.51743 22.973024 -3.8550835 4294967293
173.29799 22.224218 -3.3910136 4294967293
175.21439 22.128637 -3.6675601 4294967293
176.64348 21.151745 -3.1785982 4294967293
215.42601 -21.115868 -2.8962708 4294967294
221.09709 -21.33625 -2.9696424 4294967294
239.56325 -22.12479 -2.8161023 4294967294
243.70367 -22.288685 -2.8487816 4294967294
249.65846 -22.320917 -2.5709529 4294967294
253.49857 -22.454693 -2.5001037 4294967294
255.21556 -22.418276 -2.4945872 4294967294
257.05844 -22.513445 -2.5634983 4294967294
259.09174 -22.44767 -2.6506228 4294967294
261.23752 -22.370901 -2.7135029 4294967294
263.39664 -22.412148 -2.7559404 4294967294
265.28375 -22.043409 -2.7359293 4294967294
267.29126 -22.427866 -2.8100736 4294967294
271.3587 -23.08695 -2.9422514 4294967294
189.61948 -18.197275 -2.7964704 4294967294
192.32425 -18.018364 -2.5693779 4294967294
195.37999 -19.080128 -2.8394065 4294967294
197.2119 -18.803999 -2.582468 4294967294
201.2486 -19.969286 -2.929024 4294967294
202.39256 -18.457365 -2.0505941 4294967294
205.53938 -19.806652 -2.7523906 4294967294
208.52467 -18.352697 -2.2835684 4294967294
209.76913 -19.551764 -2.5884869 4294967294
211.60538 -19.625786 -2.5336394 4294967294
213.20712 -19.25285 -2.2076774 4294967294
218.40175 -20.321371 -2.2983289 4294967294
223.32434 -20.329046 -2.3098183 4294967294
225.37733 -20.55055 -2.3406603 4294967294
230.34669 -20.477596 -2.1680019 4294967294
242.98196 -20.233112 -2.432054 4294967294
245.32745 -20.513494 -2.2664034 4294967294
247.16631 -20.853664 -2.2707939 4294967294
249.81235 -20.341715 -2.3561444 4294967294
251.64102 -20.946817 -2.3459091 4294967294
253.30003 -20.194921 -2.3195784 4294967294
255.29437 -20.308935 -2.3496943 4294967294
256.89175 -20.196318 -2.3962734 4294967294
259.173 -20.248953 -2.5082662 4294967294
261.39505 -19.99881 -2.5115058 4294967294
263.57803 -20.044806 -2.58956 4294967294
265.42825 -19.74959 -2.6930242 4294967294
267.47125 -19.808582 -2.7720153 4294967294
181.64098 -17.536207 -2.7209318 4294967294
251.47334 -17.788534 -2.5553908 4294967294
159.0085 17.681562 -2.0511434 4294967294
195.45612 17.947987 -2.8314171 4294967294
197.46552 16.879534 -2.7419219 4294967294
203.19255 15.868544 -2.8582714 4294967294
157.42664 20.051407 -2.0899401 4294967294
162.09105 20.773691 -2.1025822 4294967294
163.45839 20.233078 -2.0273585 4294967294
169.30322 20.096176 -2.0144901 4294967294
171.63144 20.037748 -2.2243671 4294967294
173.47673 20.035032 -2.3975475 4294967294
177.14856 19.03339 -2.4158916 4294967294
181.51022 20.027658 -2.6374629 4294967294
183.74814 19.074596 -2.491003 4294967294
185.69357 18.723265 -2.4764628 4294967294
187.66592 19.112976 -2.7001615 4294967294
