# .PCD v0.7 - Point Cloud Data file format
VERSION 0.7
FIELDS x y z rgba
SIZE 4 4 4 4
TYPE F F F U
COUNT 1 1 1 1
WIDTH 1147
HEIGHT 1
VIEWPOINT 0 0 0 1 0 0 0
POINTS 1147
DATA ascii
406.76428 149.87541 -256.59042 4294967040
411.53235 149.87315 -256.73141 4294967040
417.02072 149.92822 -256.83542 4294967040
420.64401 147.21095 -256.59079 4294967040
399.76007 127.75762 -255.07544 4294967041
417.57043 129.06366 -255.06076 4294967041
414.31912 150.04213 -255.13336 4294967041
416.50977 150.06148 -255.19186 4294967041
414.49899 128.61029 -254.81134 4294967042
400.20944 129.05319 -254.81841 4294967042
401.22107 130.03799 -254.86539 4294967042
409.47455 129.48912 -254.65952 4294967042
419.59564 130.93208 -254.90521 4294967042
420.62933 133.74992 -254.75951 4294967042
420.80054 140.97893 -254.94939 4294967042
421.08334 143.88232 -254.75992 4294967042
420.93216 146.02681 -254.70825 4294967042
419.63635 148.65123 -254.67688 4294967042
416.53528 128.8372 -253.18217 4294967043
400.09488 129.07292 -253.03152 4294967043
404.18228 130.5164 -253.01643 4294967043
420.58591 136.24983 -253.17439 4294967043
420.66116 138.89893 -253.23636 4294967043
420.85349 141.37508 -253.01234 4294967043
418.45746 149.47812 -253.03508 4294967043
414.49045 128.71935 -252.81827 4294967044
401.25522 130.14505 -252.99391 4294967044
409.52957 129.61218 -252.82455 4294967044
412.04782 129.04634 -252.59979 4294967044
417.83887 129.26688 -252.84239 4294967044
419.12924 130.2502 -252.75902 4294967044
420.59824 133.61908 -252.95317 4294967044
421.09042 143.94011 -252.87807 4294967044
420.97971 146.09631 -252.7576 4294967044
417.70987 149.7742 -252.03172 4294967044
420.35092 147.97934 -252.34004 4294967044
404.39807 150.35001 -252.72374 4294967044
419.04813 130.19322 -251.11159 4294967045
420.15363 148.33583 -251.1096 4294967045
416.55746 150.1853 -251.03239 4294967045
399.53802 127.60987 -250.89581 4294967046
414.46329 128.83449 -250.86461 4294967046
400.00696 129.06134 -250.87267 4294967046
403.47787 130.58162 -250.77769 4294967046
406.88657 130.31229 -250.53862 4294967046
411.5831 129.1476 -250.95099 4294967046
416.8259 129.02071 -250.66499 4294967046
417.78275 129.34825 -250.77338 4294967046
419.95367 131.63632 -250.76649 4294967046
420.4614 133.64932 -250.66191 4294967046
420.61877 136.48691 -250.94823 4294967046
420.71567 139.05843 -250.70142 4294967046
420.90195 141.27126 -250.64537 4294967046
421.23737 144.01164 -250.99336 4294967046
403.50128 151.07106 -250.13399 4294967046
415.24442 150.32402 -250.01476 4294967046
414.34344 128.81142 -249.18866 4294967047
409.57513 129.74303 -249.01657 4294967047
421.15863 143.28624 -249.21658 4294967047
399.48694 127.35851 -248.85629 4294967048
400.21399 129.78664 -248.88953 4294967048
403.66528 130.67598 -248.87685 4294967048
406.78827 130.40327 -248.92952 4294967048
416.59335 129.05038 -248.88745 4294967048
419.60773 131.13025 -248.80954 4294967048
420.66068 133.76407 -248.79926 4294967048
420.66006 136.42291 -248.83444 4294967048
420.66168 138.74759 -248.96654 4294967048
420.96075 141.44835 -248.98296 4294967048
421.02444 146.0284 -248.72261 4294967048
418.65329 149.7773 -248.8257 4294967048
420.53424 148.13306 -248.66245 4294967048
399.78754 128.68552 -247.03441 4294967049
414.66681 128.88342 -247.01851 4294967049
402.11755 130.62003 -247.02975 4294967049
406.59976 130.53372 -247.0029 4294967049
409.16541 130.05397 -247.09602 4294967049
411.6395 129.48099 -247.07152 4294967049
405.60605 150.58601 -247.2 4294967049
417.47009 150.32971 -247.02745 4294967049
403.60825 130.78891 -246.90372 4294967050
416.59143 129.13597 -246.90254 4294967050
419.22067 130.49084 -246.80763 4294967050
420.67413 133.4252 -246.84387 4294967050
420.71991 136.22514 -246.94926 4294967050
420.72565 138.74887 -246.96915 4294967050
420.98776 141.28951 -246.77145 4294967050
421.23602 143.62386 -246.98495 4294967050
420.46893 148.30319 -246.22105 4294967050
404.15244 151.00609 -246.02768 4294967050
406.50143 130.6313 -245.06914 4294967051
419.93179 131.6622 -245.03517 4294967051
420.99667 141.08437 -245.09789 4294967051
421.03564 147.25671 -245.01239 4294967051
409.28079 150.57253 -245.19843 4294967051
399.91608 129.34012 -244.98195 4294967052
401.49725 130.57568 -244.8663 4294967052
402.78238 130.7953 -244.98691 4294967052
412.19296 129.44943 -244.64775 4294967052
414.40909 129.01826 -244.90585 4294967052
416.61969 129.24406 -244.8322 4294967052
420.57419 133.74155 -244.93909 4294967052
420.81909 136.1179 -244.72029 4294967052
421.1571 143.40886 -244.92702 4294967052
421.19031 145.78433 -244.68434 4294967052
420.36957 148.53716 -244.92999 4294967052
407.39056 150.61305 -244.35522 4294967052
420.88513 136.28171 -243.04401 4294967053
421.20627 145.67957 -243.01151 4294967053
401.69684 152.61465 -243.13872 4294967053
403.21106 151.44124 -243.45665 4294967053
405.91403 150.6575 -243.42273 4294967053
399.97659 129.27621 -242.82532 4294967054
414.50345 129.23973 -242.77522 4294967054
417.63977 129.6705 -242.73201 4294967054
420.00983 131.98254 -242.86778 4294967054
420.57956 133.6869 -242.81058 4294967054
420.88516 138.70113 -242.90065 4294967054
421.12967 142.32156 -242.75903 4294967054
420.51782 148.81963 -242.82872 4294967054
419.26041 150.08485 -242.3537 4294967054
416.44424 129.42317 -241.16171 4294967055
421.19894 145.93852 -241.18622 4294967055
421.10349 147.25357 -241.09436 4294967055
403.94217 151.26826 -241.37415 4294967055
399.67584 128.70026 -240.72417 4294967056
411.94983 129.68057 -240.94069 4294967056
418.98953 130.71005 -240.94821 4294967056
420.57401 133.69662 -240.78702 4294967056
420.96542 136.13297 -240.96515 4294967056
421.03964 140.90761 -240.80298 4294967056
421.28656 143.54095 -240.75446 4294967056
420.55838 148.44693 -240.92743 4294967056
401.7309 152.84135 -240.50662 4294967056
418.38937 150.56599 -240.39366 4294967056
399.52167 128.20619 -239.308 4294967057
414.43384 129.25426 -239.06931 4294967057
417.67172 129.87611 -239.05495 4294967057
421.04544 140.93359 -239.25989 4294967057
421.22058 145.65903 -239.06233 4294967057
419.58435 149.81007 -239.56947 4294967057
402.86978 151.70393 -239.5773 4294967057
404.83365 150.99596 -239.56985 4294967057
408.36386 150.61864 -239.7162 4294967057
400.75952 130.74965 -238.7397 4294967058
416.72168 129.41118 -238.99442 4294967058
419.97897 132.43652 -238.75768 4294967058
420.70279 133.96687 -238.99582 4294967058
421.00922 136.13678 -238.79996 4294967058
420.93976 138.6786 -238.76146 4294967058
421.23343 143.39555 -238.86893 4294967058
420.66733 148.55557 -238.73755 4294967058
421.02698 147.42596 -238.79059 4294967058
418.26514 150.61409 -238.99155 4294967058
400.24255 130.27458 -237.32253 4294967059
411.94919 129.85751 -237.21223 4294967059
416.41629 129.54469 -237.0262 4294967059
420.58344 134.16451 -237.14348 4294967059
421.15729 146.0658 -237.24765 4294967059
419.05637 150.28905 -237.26785 4294967059
401.67017 131.13899 -236.82422 4294967060
409.64844 130.36252 -236.93677 4294967060
416.56311 129.46513 -236.69258 4294967060
419.97067 132.41656 -236.84457 4294967060
421.03833 140.85378 -236.95407 4294967060
420.61414 148.67513 -236.5029 4294967060
421.05215 147.39452 -236.96861 4294967060
418.06537 150.61179 -236.91406 4294967060
399.3223 128.02107 -235.12987 4294967061
421.07083 136.21994 -235.07735 4294967061
421.2836 145.46855 -235.05032 4294967061
418.19449 150.56891 -235.42693 4294967061
399.69049 129.22299 -234.72113 4294967062
401.98413 131.2932 -234.84981 4294967062
406.74396 131.09888 -234.88504 4294967062
412.39197 129.89758 -234.55821 4294967062
416.78067 129.48293 -234.7282 4294967062
419.41626 131.40141 -234.34738 4294967062
420.62567 133.98747 -234.84422 4294967062
420.99344 138.5618 -234.92133 4294967062
421.11771 143.13435 -234.64381 4294967062
420.24478 149.97952 -234.93768 4294967062
420.06235 150.18385 -234.64215 4294967062
406.50885 131.24464 -233.22278 4294967063
419.14273 130.96892 -233.11284 4294967063
421.00629 138.44243 -233.05627 4294967063
420.27902 150.20885 -233.34386 4294967063
399.2554 127.89131 -232.82954 4294967064
403.53589 131.74095 -232.79948 4294967064
409.79941 130.58385 -232.57416 4294967064
412.14758 130.01793 -232.94177 4294967064
416.8399 129.56679 -232.96176 4294967064
420.62708 133.79068 -232.44086 4294967064
421.10617 136.16098 -232.69878 4294967064
421.13684 143.17401 -232.711 4294967064
420.56726 149.87932 -232.89203 4294967064
421.22864 147.32652 -232.63882 4294967064
409.29892 130.92952 -231.07906 4294967065
420.72293 134.06233 -231.09268 4294967065
421.01965 138.38829 -231.04649 4294967065
421.22794 145.53226 -231.11984 4294967065
399.69397 129.26915 -230.96318 4294967066
401.55426 131.33212 -230.89349 4294967066
407.31815 131.23395 -230.72511 4294967066
412.25266 130.10089 -230.71332 4294967066
414.67871 129.58224 -230.93793 4294967066
416.74387 129.61252 -230.3418 4294967066
418.53549 130.38795 -230.6776 4294967066
420.28644 132.46968 -230.7258 4294967066
421.17181 143.28294 -230.76826 4294967066
420.59927 149.85713 -230.16315 4294967066
399.13318 127.85003 -229.13635 4294967067
418.04941 130.18672 -229.05713 4294967067
401.29871 131.31589 -228.73384 4294967068
403.45206 131.93254 -228.82164 4294967068
406.51773 131.51337 -228.804 4294967068
409.50696 130.94977 -228.64507 4294967068
412.00687 130.22357 -228.90991 4294967068
415.4765 129.63051 -228.65489 4294967068
420.88962 134.0638 -228.62671 4294967068
421.15158 136.14954 -228.60956 4294967068
421.29718 145.61316 -228.60977 4294967068
421.33823 147.57524 -228.8938 4294967068
420.16183 150.38791 -228.7175 4294967068
400.66986 130.98946 -227.0795 4294967069
420.78131 148.85124 -227.04169 4294967069
419.78 150.67479 -227.12192 4294967069
399.09079 128.00546 -226.61903 4294967070
407.01212 131.53392 -226.75284 4294967070
412.07739 130.36894 -226.7534 4294967070
403.45804 132.04482 -226.79434 4294967070
421.03259 140.97017 -226.67285 4294967070
421.17157 143.37343 -226.90059 4294967070
421.31946 145.75165 -226.84322 4294967070
419.06412 151.13322 -226.79263 4294967070
399.54272 129.41277 -225.23253 4294967071
420.99194 138.67236 -225.0092 4294967071
421.11774 143.03522 -225.15038 4294967071
421.30225 145.99713 -225.52438 4294967071
418.39236 151.42903 -225.88957 4294967071
401.50006 131.73419 -224.55609 4294967072
402.01654 131.95671 -224.40086 4294967072
406.7131 131.72668 -224.64815 4294967072
409.534 131.1277 -224.51031 4294967072
411.89987 130.44817 -224.79095 4294967072
420.78156 149.08946 -224.58101 4294967072
421.09326 147.82935 -224.85838 4294967072
416.87143 151.81555 -224.90164 4294967072
420.76132 148.93584 -223.01244 4294967073
421.07565 148.04221 -223.21342 4294967073
409.03662 151.51201 -223.72765 4294967073
416.72675 151.87193 -223.07338 4294967073
398.97635 127.81228 -222.24997 4294967074
399.65704 129.66956 -222.62326 4294967074
401.345 131.92599 -222.61995 4294967074
406.85565 131.78932 -222.48276 4294967074
409.10617 131.25685 -222.7995 4294967074
411.91354 130.57713 -222.76573 4294967074
421.00702 139.56784 -222.75958 4294967074
421.13074 143.37723 -222.6252 4294967074
421.28964 145.74562 -222.82094 4294967074
413.97562 151.88535 -222.8678 4294967074
419.50305 150.59557 -222.96944 4294967074
405.61829 151.71439 -221.61073 4294967075
409.19211 151.67957 -221.32533 4294967075
411.47964 151.90929 -221.07031 4294967075
399.65677 129.68677 -220.67049 4294967076
406.60965 131.89786 -220.63506 4294967076
411.95706 130.64897 -220.7937 4294967076
421.27731 145.94157 -220.9857 4294967076
421.09756 147.84142 -220.96513 4294967076
416.77246 151.77509 -220.56934 4294967076
418.46698 151.27663 -220.95424 4294967076
419.89505 150.38771 -220.73355 4294967076
399.11096 128.03745 -219.10741 4294967077
399.64218 129.66165 -219.17615 4294967077
411.57263 130.82683 -219.05406 4294967077
420.77118 149.05247 -219.17665 4294967077
409.24854 151.97131 -219.0984 4294967077
411.58682 152.01695 -219.35722 4294967077
414.22638 152.0576 -219.05031 4294967077
416.39511 151.90938 -219.13373 4294967077
401.02676 131.71074 -218.50914 4294967078
409.45007 131.27299 -218.79451 4294967078
414.6796 130.13171 -218.83775 4294967078
416.57635 130.45303 -218.78215 4294967078
401.8233 132.0058 -218.90732 4294967078
402.48737 132.29153 -218.9016 4294967078
421.11987 143.37511 -218.85005 4294967078
421.30194 145.81868 -218.89604 4294967078
421.12128 147.85753 -218.74432 4294967078
418.66537 151.35538 -218.39204 4294967078
399.59109 129.82135 -217.07253 4294967079
400.54605 131.5591 -217.04343 4294967079
417.68152 130.93259 -217.12273 4294967079
409.2305 151.97743 -217.15068 4294967079
413.48953 152.21869 -217.244 4294967079
420.36343 150.0835 -217.50243 4294967079
399.05591 127.87886 -216.95332 4294967080
411.65402 130.91077 -216.8322 4294967080
414.54962 130.27838 -216.89433 4294967080
420.57077 133.94795 -216.55013 4294967080
420.94354 140.6684 -216.92386 4294967080
421.09943 143.14632 -216.78839 4294967080
421.28555 145.82846 -216.90466 4294967080
421.11536 148.16618 -216.84239 4294967080
406.52173 151.99857 -216.62482 4294967080
411.51605 152.14374 -216.78822 4294967080
417.02808 152.08301 -216.67648 4294967080
406.72409 132.11456 -215.15887 4294967081
420.37735 150.12793 -215.14565 4294967081
399.85806 130.58821 -214.8398 4294967082
400.97897 131.93217 -214.92844 4294967082
411.59082 131.04947 -214.89769 4294967082
414.55759 130.54575 -214.99992 4294967082
416.64249 130.70943 -214.66917 4294967082
417.75204 130.85953 -214.95177 4294967082
419.41925 132.21989 -214.67789 4294967082
420.9574 135.63959 -214.95863 4294967082
421.06342 142.98956 -214.86534 4294967082
421.23935 145.68578 -214.94516 4294967082
409.3819 152.22018 -214.27032 4294967082
414.7327 152.34219 -214.64906 4294967082
399.46222 129.99982 -213.11777 4294967083
400.09351 131.24197 -213.19435 4294967083
420.93213 135.73763 -213.06306 4294967083
421.20029 145.70872 -213.01984 4294967083
421.09744 147.97418 -213.11578 4294967083
417.30542 152.14442 -213.70607 4294967083
418.9187 151.39871 -213.6064 4294967083
420.05203 150.49332 -213.00507 4294967083
411.6181 131.0522 -212.6842 4294967084
414.57703 130.65535 -212.8712 4294967084
417.96738 131.2187 -212.77013 4294967084
402.03015 132.35182 -212.99306 4294967084
419.39578 132.27789 -212.84221 4294967084
420.22198 133.66562 -212.67195 4294967084
420.83551 139.61353 -212.76079 4294967084
421.03723 143.41249 -212.91527 4294967084
420.91495 149.38521 -212.96324 4294967084
414.56433 130.74074 -211.10678 4294967085
417.76022 131.1953 -211.06058 4294967085
419.33563 132.23969 -211.00471 4294967085
409.47751 131.68954 -210.86894 4294967086
411.55582 131.23531 -210.91862 4294967086
402.10468 132.52139 -210.92702 4294967086
406.88174 132.27005 -210.69409 4294967086
420.27072 133.78305 -210.87279 4294967086
420.68036 135.68138 -210.57687 4294967086
420.77936 138.30115 -210.78046 4294967086
420.92825 143.17265 -210.84886 4294967086
421.12213 145.726 -210.80876 4294967086
421.01611 148.04874 -210.89262 4294967086
417.12695 152.27719 -210.96254 4294967086
418.73328 151.66693 -210.6584 4294967086
420.16571 150.29271 -210.55421 4294967086
399.20255 130.10471 -209.04053 4294967087
400.10583 131.93375 -209.03516 4294967087
412.15454 131.21217 -209.13713 4294967087
414.54349 130.84131 -209.04979 4294967087
403.66382 132.88489 -209.02687 4294967087
420.65399 135.61642 -209.20345 4294967087
421.10748 145.62758 -209.25778 4294967087
416.81512 130.81206 -208.91467 4294967088
401.06934 132.32341 -208.92242 4294967088
419.48074 132.26585 -208.65993 4294967088
420.14163 133.67415 -208.88852 4294967088
420.69507 139.44696 -208.73819 4294967088
420.80676 142.91489 -208.84789 4294967088
421.00363 148.00424 -208.78029 4294967088
420.25653 150.23058 -208.40419 4294967088
411.4234 131.40448 -207.07399 4294967089
406.86111 132.45395 -207.01495 4294967089
419.28784 132.33015 -207.09999 4294967089
420.6954 138.18176 -207.15419 4294967089
409.59494 131.8922 -206.70122 4294967090
414.64444 130.80708 -206.83681 4294967090
418.00729 131.44745 -206.89563 4294967090
400.16385 132.04626 -206.82687 4294967090
404.14563 132.94493 -206.95102 4294967090
420.13513 133.72609 -206.64574 4294967090
420.77313 143.12456 -206.79492 4294967090
420.99594 145.3026 -206.60451 4294967090
418.17252 152.05418 -206.50954 4294967090
420.03604 150.5648 -206.78169 4294967090
419.22049 132.3761 -205.01123 4294967091
421.06009 146.71945 -205.01479 4294967091
399.75208 131.58612 -204.82486 4294967092
409.34677 131.99086 -204.94267 4294967092
411.80307 131.48384 -204.44379 4294967092
417.82333 131.46838 -204.78424 4294967092
401.20444 132.51697 -204.66537 4294967092
402.15756 132.80247 -204.93239 4294967092
403.79965 132.92352 -204.91461 4294967092
407.26694 132.47444 -204.62218 4294967092
420.0278 133.67566 -204.84062 4294967092
420.55115 135.57394 -204.7422 4294967092
420.71451 149.55351 -204.78784 4294967092
416.54834 131.19261 -203.1496 4294967093
417.81317 131.57146 -203.13576 4294967093
418.56927 152.02382 -203.52287 4294967093
399.45667 130.86873 -202.77167 4294967094
414.60587 130.97517 -202.92163 4294967094
401.14481 132.6039 -202.98061 4294967094
403.67459 133.05685 -202.64722 4294967094
406.78888 132.68579 -202.80376 4294967094
409.39563 132.07689 -202.92323 4294967094
419.23413 132.68315 -202.61409 4294967094
420.00003 133.71553 -202.59669 4294967094
421.04059 145.66109 -202.96811 4294967094
421.07416 148.09602 -202.76802 4294967094
417.60889 152.61693 -202.31458 4294967094
418.92413 151.97823 -202.06068 4294967094
420.39334 150.44547 -202.88022 4294967094
399.47198 130.98055 -201.23325 4294967095
400.26413 132.24088 -201.06268 4294967095
406.92062 132.76242 -201.15985 4294967095
419.07254 132.60632 -201.08417 4294967095
420.38437 150.58395 -201.34663 4294967095
399.06586 130.06448 -200.9431 4294967096
412.1315 131.56519 -200.74728 4294967096
414.40356 131.23463 -200.88652 4294967096
416.8045 131.3544 -200.81552 4294967096
417.93433 131.77319 -200.9034 4294967096
401.23715 132.77878 -200.97629 4294967096
403.52048 133.16278 -200.96771 4294967096
409.52658 132.16966 -200.8266 4294967096
420.36499 135.58473 -200.92712 4294967096
420.59058 138.11111 -200.67798 4294967096
420.68692 143.02937 -200.90683 4294967096
421.10184 148.10312 -200.84966 4294967096
419.10718 151.97903 -200.42133 4294967096
399.0705 130.21759 -199.16692 4294967097
411.75604 131.68849 -199.03986 4294967097
401.18277 132.85439 -199.00882 4294967097
406.74612 132.92276 -199.11612 4294967097
409.43753 132.30269 -199.14514 4294967097
419.68152 133.92082 -199.32091 4294967097
420.47269 140.8474 -199.15312 4294967097
420.60391 142.85114 -199.00357 4294967097
421.25272 148.40501 -199.17447 4294967097
418.72632 152.20317 -199.41963 4294967097
399.8403 131.9894 -198.62372 4294967098
414.8447 131.11438 -198.37128 4294967098
417.66769 131.83331 -198.99243 4294967098
403.56259 133.33516 -198.88199 4294967098
418.74472 132.59932 -198.99821 4294967098
420.42145 136.72128 -198.66905 4294967098
420.85181 145.27202 -198.62929 4294967098
420.75446 149.90898 -198.96608 4294967098
420.31192 150.75211 -198.80865 4294967098
416.88974 153.05466 -198.67383 4294967098
403.44357 133.4008 -197.21298 4294967099
420.23889 135.7903 -197.23441 4294967099
420.39227 140.40633 -197.04794 4294967099
420.94244 148.51604 -197.2058 4294967099
398.47601 128.10068 -196.78864 4294967100
399.32172 130.94411 -196.84978 4294967100
412.05722 131.79326 -196.5921 4294967100
416.58347 131.49263 -196.61539 4294967100
401.13922 132.9624 -196.67676 4294967100
406.52847 133.10117 -196.98706 4294967100
418.03979 132.2742 -196.79941 4294967100
419.59015 134.25615 -196.74069 4294967100
420.43665 138.4388 -196.85089 4294967100
420.513 143.04305 -196.3351 4294967100
420.79642 145.61575 -196.90944 4294967100
417.97366 152.66615 -196.77083 4294967100
420.20148 150.83264 -196.94719 4294967100
403.45142 133.78033 -195.11816 4294967101
406.7283 133.13995 -195.30458 4294967101
417.56931 132.17302 -195.05905 4294967101
399.43945 131.26387 -194.76573 4294967102
412.02866 131.88266 -194.86464 4294967102
400.47031 132.65759 -194.91559 4294967102
409.82837 132.35658 -194.89275 4294967102
419.41083 133.98741 -194.99248 4294967102
419.97928 135.79747 -194.22578 4294967102
420.37576 139.4949 -194.59561 4294967102
420.66873 145.33434 -194.91815 4294967102
421.08774 148.2328 -194.99261 4294967102
418.72775 152.24031 -194.12451 4294967102
420.16251 150.98778 -194.98041 4294967102
416.2709 153.40504 -194.6357 4294967102
414.43692 131.52332 -193.11118 4294967103
400.0665 132.35941 -193.53 4294967103
420.59726 145.14703 -193.23286 4294967103
420.44226 150.10454 -193.0591 4294967103
414.30319 153.55743 -193.10701 4294967103
398.96835 130.06834 -192.83163 4294967104
412.20743 131.92624 -192.76187 4294967104
401.27664 133.1974 -192.76097 4294967104
407.14957 133.18315 -192.67093 4294967104
418.74271 133.15707 -192.79781 4294967104
419.97186 135.76321 -192.90634 4294967104
420.39322 142.85365 -192.80548 4294967104
420.99423 148.03337 -192.5825 4294967104
419.76926 151.29095 -192.81447 4294967104
419.36691 134.35387 -191.12602 4294967105
420.32004 137.7084 -191.01616 4294967105
420.25653 140.26733 -191.37033 4294967105
413.67685 153.59633 -191.48103 4294967105
398.94064 129.88997 -190.80206 4294967106
399.36496 131.09679 -190.84528 4294967106
415.2077 131.78659 -190.38757 4294967106
416.61407 131.96382 -190.53394 4294967106
401.07809 133.41295 -190.91891 4294967106
406.784 133.26369 -190.99867 4294967106
409.46365 132.75114 -190.66158 4294967106
411.89856 132.10712 -190.70404 4294967106
418.08401 132.63235 -190.67639 4294967106
420.32446 142.77916 -190.70918 4294967106
420.59882 145.42992 -190.86569 4294967106
420.8179 148.92635 -190.69626 4294967106
411.56168 153.51613 -190.94772 4294967106
417.2088 153.2113 -190.41362 4294967106
411.89767 132.19661 -189.15642 4294967107
418.02112 132.70453 -189.13831 4294967107
420.15536 137.81853 -189.20547 4294967107
399.42908 131.29219 -188.98993 4294967108
415.25922 131.86629 -188.94106 4294967108
401.43649 133.64536 -188.95969 4294967108
416.5802 132.06203 -188.93451 4294967108
419.28595 134.02283 -188.91959 4294967108
419.78745 135.52254 -188.66521 4294967108
420.14493 140.66306 -188.8196 4294967108
420.57745 145.6429 -188.46736 4294967108
420.60764 149.89851 -188.91682 4294967108
414.26831 153.77589 -188.62144 4294967108
416.49771 153.50314 -188.7382 4294967108
398.77271 129.65182 -187.06433 4294967109
417.78018 132.67274 -187.09122 4294967109
401.45355 133.75662 -186.83862 4294967110
412.04199 132.2438 -186.69209 4294967110
416.46994 132.12932 -186.88118 4294967110
419.01794 133.99207 -186.5394 4294967110
419.65921 135.56479 -186.62573 4294967110
420.16223 137.96182 -186.72917 4294967110
420.01849 140.69717 -186.56192 4294967110
420.22818 142.98944 -186.92554 4294967110
420.51541 145.50099 -186.97578 4294967110
420.66321 148.80161 -186.69478 4294967110
419.06436 152.16365 -186.28935 4294967110
413.6691 153.81693 -186.72223 4294967110
416.62708 153.50507 -186.4984 4294967110
398.98291 130.01277 -185.05055 4294967111
420.09659 142.82242 -185.14433 4294967111
399.33926 131.14221 -184.69994 4294967112
401.69724 133.92244 -184.72247 4294967112
412.51465 132.22731 -184.63492 4294967112
416.39386 132.27893 -184.69302 4294967112
419.0358 134.4178 -184.58116 4294967112
420.07199 137.75317 -184.72003 4294967112
420.70944 147.83978 -184.90865 4294967112
419.84781 151.03006 -184.94327 4294967112
399.34991 131.31558 -183.15366 4294967113
401.97708 134.12204 -183.06889 4294967113
419.9136 140.77022 -183.04988 4294967113
420.39481 149.67805 -183.12248 4294967113
419.6261 151.29655 -183.03726 4294967113
398.87228 129.90489 -182.48138 4294967114
414.78192 132.20151 -182.49365 4294967114
417.90213 133.06615 -182.78229 4294967114
419.5929 135.46199 -182.94843 4294967114
419.98593 142.91493 -182.84825 4294967114
420.29489 145.4473 -182.81097 4294967114
420.60614 147.75391 -182.89027 4294967114
401.87439 134.30479 -181.09637 4294967115
418.78018 134.33684 -181.20482 4294967115
420.51031 147.9733 -181.04776 4294967115
417.85794 152.99289 -181.92284 4294967115
416.15158 153.73518 -181.96692 4294967115
398.73846 129.79311 -180.52744 4294967116
399.28622 131.73509 -180.9136 4294967116
401.62732 134.3219 -180.70195 4294967116
414.86179 132.07536 -180.35574 4294967116
417.67392 133.04634 -180.78604 4294967116
419.55615 136.66589 -180.56516 4294967116
419.78876 140.62263 -180.66861 4294967116
420.17151 145.28899 -180.94983 4294967116
419.5864 151.36401 -180.64343 4294967116
417.59305 153.25885 -180.68054 4294967116
399.2851 131.6769 -179.15387 4294967117
401.28583 134.34073 -179.0392 4294967117
420.41531 147.91667 -179.05484 4294967117
415.90521 154.13205 -179.73958 4294967117
409.44922 133.14655 -178.52963 4294967118
412.5051 132.49213 -178.48567 4294967118
417.71799 133.23021 -178.95988 4294967118
418.7334 134.24486 -178.61009 4294967118
419.4487 136.75932 -178.64172 4294967118
419.76349 142.68607 -178.87878 4294967118
419.05981 152.03319 -178.92978 4294967118
414.65186 154.42133 -178.89601 4294967118
416.39075 132.74849 -177.24167 4294967119
419.04733 135.67586 -177.08389 4294967119
415.32047 154.44925 -177.18211 4294967119
412.45831 132.58797 -176.75732 4294967120
415.14648 132.54565 -176.7975 4294967120
417.68564 133.43253 -176.92815 4294967120
418.61566 134.43921 -176.72684 4294967120
419.49179 137.69662 -176.85789 4294967120
419.55511 140.43428 -176.33987 4294967120
418.84183 152.18558 -176.62589 4294967120
417.55051 153.35033 -176.69466 4294967120
399.89581 132.9752 -175.37381 4294967121
412.17148 132.71539 -175.07454 4294967121
403.75894 134.6424 -174.83176 4294967122
409.48895 133.30298 -174.84608 4294967122
414.68896 132.64888 -174.87935 4294967122
416.32904 132.99583 -174.61842 4294967122
417.88052 133.98587 -174.95299 4294967122
418.88376 135.68712 -174.85612 4294967122
419.45703 137.56834 -174.88008 4294967122
419.45151 151.34106 -174.60294 4294967122
401.12622 134.03903 -173.23671 4294967123
399.48972 132.58208 -172.65152 4294967124
404.28873 134.66246 -172.76434 4294967124
409.39017 133.41533 -172.85799 4294967124
412.11212 132.82559 -172.62889 4294967124
414.6257 132.76108 -172.94313 4294967124
416.18207 133.13817 -172.67348 4294967124
417.55002 133.92972 -172.97179 4294967124
418.52484 135.24022 -172.47112 4294967124
419.42426 137.56825 -172.56064 4294967124
399.40689 132.76328 -170.68661 4294967126
400.50577 134.10167 -170.79507 4294967126
404.54037 134.65565 -170.75337 4294967126
407.28738 134.05122 -170.72885 4294967126
409.51205 133.53395 -170.71941 4294967126
412.41699 132.80753 -170.82512 4294967126
414.64215 132.89951 -170.84666 4294967126
417.6228 134.17996 -170.94049 4294967126
398.27298 130.77983 -169.15666 4294967127
404.35718 134.75188 -169.17825 4294967127
399.37915 133.19504 -168.85583 4294967128
409.50519 133.55 -168.77847 4294967128
412.49179 132.84906 -168.6852 4294967128
414.6629 132.99153 -168.83279 4294967128
415.95801 133.34552 -168.69479 4294967128
418.64307 135.42737 -168.73999 4294967128
398.08087 130.64249 -167.00304 4294967129
402.03781 134.85851 -167.14459 4294967129
417.86392 134.80147 -167.60974 4294967129
399.39301 133.51259 -166.72615 4294967130
401.09848 134.47594 -166.86778 4294967130
404.81662 134.81429 -166.70248 4294967130
409.69592 133.61241 -166.60922 4294967130
412.33157 132.93381 -166.70425 4294967130
414.57129 133.08781 -166.53922 4294967130
415.66406 133.37302 -166.41724 4294967130
397.9537 130.94005 -165.05566 4294967131
417.50757 134.58951 -165.14723 4294967131
399.32248 133.85416 -164.82242 4294967132
402.53094 134.875 -164.62195 4294967132
409.60489 133.70084 -164.84373 4294967132
412.42361 133.13661 -164.56117 4294967132
415.5629 133.41304 -164.90356 4294967132
402.03983 134.89827 -163.23672 4294967133
407.3533 134.35124 -163.10847 4294967133
412.43262 133.21838 -163.10472 4294967133
415.73843 133.55829 -163.1931 4294967133
397.7789 130.72511 -162.77898 4294967134
399.42377 133.90665 -162.90085 4294967134
400.67291 134.58504 -162.92416 4294967134
409.57602 133.76845 -162.98878 4294967134
417.12756 134.3056 -162.99454 4294967134
404.44135 135.03011 -162.99913 4294967134
417.95828 135.6413 -162.51308 4294967134
416.18781 154.46587 -162.30534 4294967134
397.74368 130.87889 -161.03722 4294967135
399.18674 133.80229 -161.22487 4294967135
410.11957 133.70152 -161.23741 4294967135
412.84274 133.08405 -161.31915 4294967135
415.87653 133.70392 -161.07921 4294967135
404.48508 135.08815 -161.0927 4294967135
400.6395 134.74213 -160.98276 4294967136
417.10059 134.76195 -160.47797 4294967136
418.59341 151.84644 -160.70206 4294967136
403.30832 155.32285 -160.25824 4294967136
397.57986 130.18628 -159.02519 4294967137
407.4014 134.42564 -159.55255 4294967137
409.63712 133.91048 -159.31712 4294967137
413.27356 133.3495 -159.26424 4294967137
401.49075 135.09599 -159.21085 4294967137
404.55414 135.15892 -159.5287 4294967137
417.56516 153.04179 -159.52701 4294967137
398.00391 131.93956 -158.93295 4294967138
398.98608 133.90097 -158.7438 4294967138
400.73734 134.9733 -158.78043 4294967138
415.62076 133.79486 -158.96373 4294967138
417.56244 135.95871 -158.92998 4294967138
418.56018 144.84846 -158.38239 4294967138
418.74261 147.52838 -158.77158 4294967138
418.49371 150.71675 -158.7301 4294967138
397.44556 129.88719 -157.03928 4294967139
397.87683 132.03366 -157.04454 4294967139
397.62152 127.19794 -156.91026 4294967140
398.37006 133.28624 -156.8584 4294967140
399.31 134.52026 -156.6554 4294967140
410.20859 133.87044 -156.08191 4294967140
413.20914 133.19975 -156.44293 4294967140
416.49255 134.63618 -156.97299 4294967140
401.92627 135.41843 -156.45209 4294967140
404.44934 135.35039 -156.09825 4294967140
417.565 136.77319 -156.65521 4294967140
418.25888 139.90962 -156.76172 4294967140
418.22925 144.84901 -156.65752 4294967140
418.36969 148.66541 -156.48709 4294967140
402.28848 155.95956 -156.82175 4294967140
403.9552 155.28629 -156.82133 4294967140
415.81528 154.59332 -156.90749 4294967140
417.32007 153.35382 -156.66525 4294967140
397.76724 132.1743 -155.0067 4294967141
405.03494 155.31682 -155.44051 4294967141
413.55539 155.43224 -155.53682 4294967141
397.52094 126.96548 -154.71289 4294967142
397.30615 129.82092 -154.86134 4294967142
398.23215 133.29498 -154.98422 4294967142
399.10669 134.5555 -154.9938 4294967142
407.4314 134.66216 -154.77934 4294967142
410.17648 133.93381 -154.83942 4294967142
414.3739 133.61366 -154.4848 4294967142
416.07388 134.52252 -154.9791 4294967142
404.33664 135.42757 -154.89058 4294967142
417.40582 137.03006 -154.75281 4294967142
417.96628 142.92503 -154.88026 4294967142
418.36221 149.75171 -154.67973 4294967142
417.96707 152.00069 -154.5495 4294967142
402.09042 156.17587 -154.95251 4294967142
397.61353 132.0706 -153.17474 4294967143
398.10721 133.3246 -153.2876 4294967143
399.004 134.65604 -153.00464 4294967143
417.56079 137.49007 -153.1487 4294967143
417.89719 144.88708 -153.40717 4294967143
397.41525 127.08259 -152.86201 4294967144
397.30286 129.90897 -152.70764 4294967144
410.0914 133.98622 -152.92706 4294967144
414.3374 133.80943 -152.87085 4294967144
416.03204 134.76425 -152.99831 4294967144
400.54791 135.63232 -152.95738 4294967144
416.99451 136.39986 -152.61246 4294967144
417.85504 139.8324 -152.51567 4294967144
417.70459 142.71857 -152.02316 4294967144
417.97961 147.09016 -152.9825 4294967144
418.19333 149.79062 -152.77417 4294967144
417.27325 152.95479 -152.64729 4294967144
402.36591 155.98669 -152.84818 4294967144
406.41852 155.43562 -152.84659 4294967144
409.47632 155.53444 -152.95821 4294967144
412.81931 155.74858 -152.10838 4294967144
397.33383 126.84417 -151.18384 4294967145
397.53671 132.06641 -151.36484 4294967145
399.00851 134.77287 -151.18883 4294967145
407.41241 134.74998 -151.12952 4294967145
417.34738 137.7381 -151.19087 4294967145
418.08438 149.89018 -151.48889 4294967145
417.79471 152.0311 -151.00653 4294967145
404.11777 155.49506 -151.33817 4294967145
407.06992 155.55324 -151.2903 4294967145
409.45288 155.59641 -151.26933 4294967145
412.60535 155.82495 -151.51306 4294967145
414.69614 155.39838 -151.48447 4294967145
416.16492 154.39079 -151.23351 4294967145
397.0954 129.68999 -150.87251 4294967146
397.89618 133.16515 -150.40762 4294967146
410.48529 134.00296 -150.83005 4294967146
414.32819 133.9201 -150.74249 4294967146
415.65829 134.77243 -150.85493 4294967146
400.48547 135.7215 -150.93393 4294967146
404.26797 135.60414 -150.89838 4294967146
417.68036 140.20088 -150.4588 4294967146
417.62418 142.83453 -150.9427 4294967146
417.73279 146.1044 -150.75476 4294967146
397.96906 133.49873 -149.1765 4294967147
400.43454 135.77754 -149.15892 4294967147
417.73312 149.88318 -149.04451 4294967147
403.73462 155.59494 -149.31117 4294967147
408.44165 155.70113 -149.00934 4294967147
417.16776 153.36401 -149.17065 4294967147
402.24347 156.03499 -149.13046 4294967147
397.21335 126.93229 -148.67581 4294967148
397.0108 129.69582 -148.99609 4294967148
397.3111 132.24005 -148.93042 4294967148
399.03256 134.9222 -148.73041 4294967148
407.50665 134.84395 -148.78647 4294967148
410.41141 134.09448 -148.76549 4294967148
412.82977 133.82397 -148.73657 4294967148
404.37491 135.62318 -148.98135 4294967148
416.60565 136.40849 -148.70239 4294967148
417.5675 139.85086 -148.69728 4294967148
417.46936 144.39485 -148.84566 4294967148
417.60687 147.18613 -148.86652 4294967148
417.44406 151.96251 -148.74904 4294967148
407.1702 155.75266 -148.82295 4294967148
416.3364 154.48526 -148.61263 4294967148
407.35513 134.89229 -147.27789 4294967149
410.39539 134.15457 -147.15959 4294967149
414.25992 134.29448 -147.06784 4294967149
401.5463 136.12823 -147.06349 4294967149
405.25137 135.44528 -147.00636 4294967149
415.68918 135.33769 -147.01312 4294967149
403.97678 155.70631 -147.16141 4294967149
407.27811 155.89401 -147.25604 4294967149
409.25873 155.97621 -147.34256 4294967149
412.4675 155.96416 -147.58856 4294967149
413.89444 155.76466 -147.76939 4294967149
416.52896 154.252 -147.78676 4294967149
397.14041 126.94338 -146.99663 4294967150
396.90146 129.95178 -146.96552 4294967150
397.29691 131.99126 -146.82288 4294967150
397.82748 133.43524 -146.6183 4294967150
398.82147 134.86649 -146.8327 4294967150
412.77853 133.98257 -146.84537 4294967150
417.12476 137.694 -146.78719 4294967150
417.43301 139.95074 -146.77657 4294967150
417.31961 142.19441 -146.94308 4294967150
417.30032 145.95447 -146.75063 4294967150
417.54102 149.34891 -146.97888 4294967150
417.44122 151.92706 -146.99228 4294967150
397.73535 133.51579 -145.06036 4294967151
400.319 135.80644 -145.05756 4294967151
417.40634 149.81682 -145.09084 4294967151
396.8125 130.17923 -144.87704 4294967152
410.76974 134.15256 -144.83762 4294967152
412.79813 134.16351 -144.68941 4294967152
401.9039 136.27325 -144.82246 4294967152
405.14905 135.63783 -144.56375 4294967152
407.44791 135.05109 -144.76439 4294967152
416.05466 136.0961 -144.91077 4294967152
417.28629 139.65738 -144.64066 4294967152
417.11026 142.30386 -144.71094 4294967152
417.07907 144.78308 -144.68373 4294967152
417.14819 147.01389 -144.64105 4294967152
417.02966 152.82767 -144.9057 4294967152
416.16721 154.3094 -144.11165 4294967152
401.54678 136.31839 -143.08072 4294967153
417.20929 149.70038 -143.17313 4294967153
413.07657 155.59743 -143.40802 4294967153
396.73715 129.8336 -142.79341 4294967154
397.35913 132.75729 -142.8884 4294967154
410.48434 134.25922 -142.84277 4294967154
412.78677 134.30098 -142.60245 4294967154
398.62955 135.20267 -142.87639 4294967154
407.55786 135.01433 -142.87207 4294967154
415.63757 135.89131 -142.89844 4294967154
416.66495 137.42023 -142.95158 4294967154
417.09659 139.63203 -142.75208 4294967154
416.91928 142.40106 -142.81419 4294967154
416.85703 144.87863 -142.61871 4294967154
416.9574 147.40376 -142.55281 4294967154
416.54108 153.60269 -142.79308 4294967154
396.68509 129.53444 -141.18762 4294967155
397.07303 132.01465 -141.36682 4294967155
412.73441 134.36081 -141.17955 4294967155
413.88721 134.69946 -141.15231 4294967155
400.43442 136.14902 -141.2131 4294967155
401.62338 136.32475 -141.11957 4294967155
405.21844 135.74835 -141.0827 4294967155
416.86993 148.34773 -141.12158 4294967155
417.04269 151.99976 -141.06837 4294967155
410.70724 134.27319 -140.96623 4294967156
416.49454 137.56398 -140.85367 4294967156
416.66876 142.41223 -140.56465 4294967156
416.54285 144.76114 -140.63057 4294967156
415.90695 154.32498 -140.42557 4294967156
416.6666 139.83656 -139.25447 4294967157
416.74203 149.56674 -139.20316 4294967157
397.36514 133.72563 -138.74072 4294967158
410.29028 134.4077 -138.72957 4294967158
413.80521 134.80637 -138.76817 4294967158
398.50308 135.18559 -138.96375 4294967158
402.64807 136.25916 -138.8474 4294967158
407.46326 135.11932 -138.77205 4294967158
416.46768 142.32263 -138.84158 4294967158
416.33694 144.8606 -138.88594 4294967158
415.29797 155.01311 -138.81715 4294967158
416.18475 153.35519 -138.60942 4294967158
396.54245 130.8089 -137.18326 4294967159
401.55438 136.52579 -137.1416 4294967159
405.13074 135.85487 -137.02022 4294967159
410.72562 134.42889 -136.66776 4294967160
398.38422 135.25201 -136.77208 4294967160
399.72141 136.10588 -136.72504 4294967160
407.81244 135.07018 -136.65918 4294967160
413.7406 135.08385 -136.50249 4294967160
415.97681 137.48015 -136.63382 4294967160
416.38409 139.3524 -136.63309 4294967160
416.21109 142.73918 -136.85442 4294967160
416.36243 148.44168 -136.67252 4294967160
416.41089 152.1571 -136.71605 4294967160
416.00201 153.76137 -136.96123 4294967160
413.96072 156.02501 -136.97011 4294967160
399.30374 136.05878 -135.25266 4294967161
405.29257 135.75899 -135.20634 4294967161
407.70078 135.18538 -135.13156 4294967161
415.84549 144.79684 -135.02464 4294967161
411.89258 156.61983 -135.26019 4294967161
397.80927 134.85243 -134.44696 4294967162
411.14746 134.73364 -134.93582 4294967162
412.75125 134.85551 -134.82884 4294967162
402.13321 136.71812 -134.98058 4294967162
416.09689 138.95186 -134.54037 4294967162
415.98917 146.91568 -134.96883 4294967162
416.23221 152.16322 -134.96281 4294967162
413.91605 155.97766 -134.68214 4294967162
415.5766 154.38559 -134.9198 4294967162
415.79654 142.08351 -133.02148 4294967163
416.034 152.06891 -133.19159 4294967163
396.17154 129.62845 -132.7858 4294967164
396.90985 133.68863 -132.82738 4294967164
411.40918 134.84488 -132.35516 4294967164
412.55496 134.94554 -132.66785 4294967164
398.91782 135.96205 -132.78421 4294967164
400.20056 136.44725 -132.92032 4294967164
402.14011 136.70927 -132.78729 4294967164
405.23972 135.95824 -132.72215 4294967164
407.69955 135.33383 -132.51784 4294967164
414.50146 135.86546 -132.75708 4294967164
415.64694 138.8338 -132.41304 4294967164
415.7681 147.17738 -132.95593 4294967164
416.04153 149.88225 -132.97708 4294967164
415.08206 154.85416 -132.96466 4294967164
407.32266 156.74643 -132.68118 4294967164
415.44025 138.70444 -131.04973 4294967165
415.57245 142.02956 -131.04453 4294967165
413.80377 155.95332 -131.11244 4294967165
415.28479 154.04712 -131.01883 4294967165
396.54767 132.90521 -130.68637 4294967166
410.98248 134.98946 -130.93297 4294967166
397.6008 135.05969 -130.9782 4294967166
398.83893 136.03815 -130.88812 4294967166
402.07419 136.74323 -130.98183 4294967166
405.37228 135.99457 -130.93427 4294967166
408.21133 135.26154 -130.52713 4294967166
414.32462 135.91489 -130.8119 4294967166
415.31516 144.80907 -130.49477 4294967166
415.63177 148.34634 -130.94339 4294967166
404.98447 156.75751 -130.87646 4294967166
396.70847 133.86557 -129.24298 4294967167
397.59225 135.2218 -129.15996 4294967167
412.27274 156.70027 -129.32239 4294967167
396.05765 129.5546 -128.57753 4294967168
396.20041 132.10954 -128.75589 4294967168
399.04971 136.23714 -128.70946 4294967168
402.30347 136.76909 -128.58014 4294967168
407.68015 135.453 -128.88699 4294967168
411.30194 135.1844 -128.73889 4294967168
414.09229 136.07544 -128.8808 4294967168
415.19083 139.01451 -128.75174 4294967168
415.27344 142.26094 -128.78271 4294967168
415.24298 146.98721 -128.9075 4294967168
415.46231 149.44513 -128.9341 4294967168
415.60754 151.73378 -128.97656 4294967168
414.66153 154.80061 -128.67737 4294967168
415.18399 153.81541 -128.80779 4294967168
410.21924 157.11069 -128.91951 4294967168
395.99896 132.12871 -127.30353 4294967169
396.60196 133.72266 -127.7352 4294967169
397.84903 135.71889 -127.08379 4294967169
405.34714 136.05775 -127.13296 4294967169
413.90149 136.4787 -127.35298 4294967169
414.94409 144.73042 -127.01788 4294967169
396.02896 129.41524 -126.90984 4294967170
402.56189 136.7177 -126.96416 4294967170
408.84262 135.23599 -126.97894 4294967170
411.33801 135.32547 -126.63596 4294967170
412.2099 135.4942 -126.99387 4294967170
414.84711 138.80974 -126.62514 4294967170
415.0661 141.97932 -126.60046 4294967170
415.17346 149.19293 -126.74765 4294967170
414.4476 154.64754 -126.92007 4294967170
395.90662 132.10495 -125.08702 4294967171
397.10654 134.9109 -125.25221 4294967171
414.99484 149.45459 -125.07185 4294967171
395.95212 129.59497 -124.86886 4294967172
400.1734 136.67218 -124.88023 4294967172
402.88089 136.66685 -124.83021 4294967172
405.59189 136.08632 -124.24419 4294967172
408.1459 135.44939 -124.70908 4294967172
410.82977 135.43082 -124.7338 4294967172
413.70264 136.90521 -124.47548 4294967172
413.93124 155.02695 -124.83302 4294967172
410.46899 157.04572 -124.73424 4294967172
396.43076 133.81786 -123.13624 4294967173
397.32498 135.36435 -123.05968 4294967173
402.49115 136.81761 -123.34385 4294967173
405.37088 136.10176 -123.07587 4294967173
414.74185 139.39696 -123.05429 4294967173
414.85822 141.80194 -123.22512 4294967173
413.78281 155.13815 -123.05702 4294967173
410.56357 135.45555 -122.19392 4294967174
411.87311 135.84346 -122.25912 4294967174
413.33075 136.75499 -122.79444 4294967174
414.61795 153.67625 -122.63006 4294967174
400.27274 136.92174 -121.21193 4294967175
403.21054 136.71884 -121.19498 4294967175
408.41885 135.36819 -121.27708 4294967175
395.79025 129.60217 -120.8721 4294967176
395.75308 132.3235 -120.84606 4294967176
396.21487 133.813 -120.45057 4294967176
397.37695 135.70924 -120.72878 4294967176
398.71182 136.77371 -120.80004 4294967176
411.0018 135.64046 -120.7155 4294967176
413.46179 137.37207 -120.81898 4294967176
414.71191 141.55783 -120.45451 4294967176
413.74515 155.22121 -120.93936 4294967176
412.11795 156.81416 -120.43276 4294967176
411.75113 157.14159 -119.17758 4294967177
395.66614 129.4343 -118.74641 4294967178
395.59775 132.01901 -118.79508 4294967178
397.05408 135.61836 -118.9463 4294967178
398.51685 136.74753 -118.31557 4294967178
399.64581 137.00606 -118.83625 4294967178
402.24969 137.01889 -118.65073 4294967178
405.73639 136.20169 -118.43764 4294967178
409.00748 135.35265 -118.39413 4294967178
411.57126 136.01538 -118.62511 4294967178
412.98059 137.05788 -118.74244 4294967178
413.68607 138.20566 -118.93541 4294967178
414.19736 139.62741 -118.93672 4294967178
414.54224 141.97932 -118.54472 4294967178
414.47412 153.79672 -118.85583 4294967178
395.63297 132.35732 -117.06412 4294967179
396.4288 135.05482 -117.37419 4294967179
398.62421 136.90616 -117.12038 4294967179
414.41519 142.9263 -117.60219 4294967179
395.56653 128.9212 -116.71518 4294967180
397.90146 136.57175 -116.61774 4294967180
403.073 136.86632 -116.76202 4294967180
408.7847 135.4767 -116.9865 4294967180
410.37259 135.75964 -116.66066 4294967180
412.16962 136.52699 -116.95612 4294967180
413.76688 138.98862 -116.34795 4294967180
414.26633 145.02148 -116.61685 4294967180
410.55615 157.89137 -116.81649 4294967180
395.45865 130.65103 -115.22675 4294967181
409.38351 135.53603 -115.07204 4294967181
411.17249 136.18108 -115.17868 4294967181
412.79999 137.3154 -115.78953 4294967181
413.3374 138.31989 -115.13895 4294967181
414.16 146.56503 -115.46972 4294967181
395.7926 133.89507 -114.95071 4294967182
397.31915 136.32465 -114.91102 4294967182
400.16647 137.51622 -114.93656 4294967182
403.0687 136.97086 -114.92065 4294967182
405.7999 136.2771 -114.84992 4294967182
414.2692 142.07668 -114.44378 4294967182
395.3923 129.18767 -113.26633 4294967183
396.19653 135.17787 -113.08777 4294967183
413.96057 144.70412 -113.20674 4294967183
395.21118 131.76843 -112.65524 4294967184
397.07712 136.31406 -112.99043 4294967184
398.38562 137.11995 -112.89845 4294967184
409.28198 135.66237 -112.38796 4294967184
411.76666 136.68787 -112.89193 4294967184
413.14154 138.71294 -112.19851 4294967184
414.07635 141.98851 -112.835 4294967184
413.89658 146.78491 -112.3532 4294967184
407.99582 158.12375 -112.04301 4294967184
398.75552 159.83374 -112.21197 4294967184
395.30774 128.93687 -111.08806 4294967185
395.25815 131.90321 -111.1864 4294967185
396.22665 135.4632 -111.09489 4294967185
395.53705 133.82014 -110.83486 4294967186
397.34531 136.61667 -110.81892 4294967186
400.34442 137.61894 -110.76749 4294967186
410.44067 136.08884 -110.83167 4294967186
412.87302 138.43968 -110.84164 4294967186
413.63705 141.59451 -110.79585 4294967186
413.4689 154.93002 -110.85213 4294967186
412.22784 156.96945 -110.71096 4294967186
399.26779 159.32933 -110.88646 4294967186
397.48718 164.13588 -110.81467 4294967186
395.13437 131.8653 -109.26587 4294967187
395.50314 133.94293 -109.54411 4294967187
397.12158 136.52492 -109.08855 4294967187
412.66049 138.54218 -109.34256 4294967187
395.18271 129.15404 -108.73043 4294967188
396.10577 135.46252 -108.49104 4294967188
398.3342 137.23459 -108.95438 4294967188
410.68036 136.63264 -108.53148 4294967188
413.47729 141.85686 -108.46604 4294967188
413.83746 153.66435 -108.93312 4294967188
410.6745 158.08955 -108.90858 4294967188
412.4917 156.73663 -108.89699 4294967188
398.98254 159.43059 -108.81658 4294967188
395.02899 131.94319 -107.29575 4294967189
397.07129 136.57657 -107.01081 4294967189
403.32938 137.07188 -107.06005 4294967189
412.31671 138.58813 -107.1431 4294967189
413.00339 146.93959 -107.00266 4294967189
413.59943 151.36963 -107.08086 4294967189
413.13257 155.26425 -107.16019 4294967189
395.78772 135.13977 -106.72569 4294967190
400.62772 137.62465 -106.91111 4294967190
406.40341 136.18642 -106.84293 4294967190
408.76141 136.01216 -106.83167 4294967190
411.13422 137.13339 -106.70321 4294967190
412.23724 157.14418 -106.91277 4294967190
397.57657 160.83818 -106.8768 4294967190
395.66165 135.39606 -105.24405 4294967191
413.2337 155.43219 -105.09415 4294967191
399.50146 159.03194 -105.1948 4294967191
396.62064 163.66814 -105.21787 4294967191
394.78363 133.42299 -104.7038 4294967192
396.974 136.68512 -104.96941 4294967192
398.57706 137.40373 -104.90606 4294967192
400.62909 137.6993 -104.74415 4294967192
403.55396 137.06412 -104.66987 4294967192
406.43478 136.24327 -104.37534 4294967192
411.47906 138.0239 -104.30743 4294967192
412.93976 141.52452 -104.8599 4294967192
413.31693 151.70071 -104.63503 4294967192
413.32974 153.74258 -104.58664 4294967192
412.14883 157.39182 -104.96688 4294967192
398.90823 137.68953 -103.19284 4294967193
403.51822 137.05299 -103.26121 4294967193
408.4079 136.55653 -103.33314 4294967193
394.29117 131.77863 -102.93353 4294967194
395.38837 135.44896 -102.7071 4294967194
397.05817 137.05258 -102.34703 4294967194
406.83838 136.28549 -102.73436 4294967194
411.92612 139.4922 -102.22771 4294967194
412.46732 141.76527 -102.19656 4294967194
412.35596 146.70152 -102.40273 4294967194
412.53302 149.06488 -102.4212 4294967194
413.13669 152.36674 -102.71081 4294967194
412.80026 155.63519 -102.47485 4294967194
408.5769 158.62039 -102.50853 4294967194
411.18796 158.06082 -102.37857 4294967194
399.38449 159.02438 -102.97781 4294967194
396.52338 162.2628 -102.97941 4294967194
394.45013 134.21367 -101.57536 4294967195
401.22714 137.72989 -101.10393 4294967195
409.5899 137.05833 -101.06514 4294967195
395.35269 136.10631 -100.72553 4294967196
397.18735 137.43298 -100.83764 4294967196
403.23279 137.25401 -100.85861 4294967196
406.33698 136.43243 -100.92809 4294967196
408.47168 136.76001 -100.59834 4294967196
410.84128 138.16115 -100.67689 4294967196
411.66611 139.7756 -100.65553 4294967196
412.05835 144.17412 -100.34285 4294967196
412.27008 148.98618 -100.76943 4294967196
412.70563 154.98013 -100.74492 4294967196
410.79733 158.06265 -100.11473 4294967196
