# .PCD v0.7 - Point Cloud Data file format
VERSION 0.7
FIELDS x y z rgba
SIZE 4 4 4 4
TYPE F F F U
COUNT 1 1 1 1
WIDTH 1138
HEIGHT 1
VIEWPOINT 0 0 0 1 0 0 0
POINTS 1138
DATA ascii
-46.437313 147.53485 -565.5816 4294966731
-44.44862 147.2597 -565.57025 4294966731
-60.782623 151.84822 -565.09088 4294966731
-56.854794 151.67508 -565.94995 4294966731
99.222496 151.20532 -565.94025 4294966731
131.57156 152.8996 -565.81335 4294966731
145.89964 151.99963 -565.79498 4294966731
165.59383 150.52843 -565.96759 4294966731
-61.265629 153.89626 -565.2536 4294966731
-58.420757 154.11514 -565.78149 4294966731
79.182022 155.87093 -565.90955 4294966731
80.936264 155.56017 -565.19427 4294966731
82.061516 154.29066 -565.98615 4294966731
100.35383 153.11674 -565.08911 4294966731
102.55943 153.81969 -565.78326 4294966731
103.31535 154.34645 -565.15619 4294966731
105.30169 154.25609 -565.2995 4294966731
111.56066 154.21672 -565.96503 4294966731
113.77354 154.1026 -565.87976 4294966731
-60.138294 157.21635 -565.45599 4294966731
-58.949696 156.76328 -565.66412 4294966731
53.402637 158.25665 -565.99786 4294966731
55.987556 158.06274 -565.8219 4294966731
61.68362 157.864 -565.81091 4294966731
-62.015881 160.03075 -565.23438 4294966731
-60.876427 159.44136 -565.47571 4294966731
-56.761234 161.51289 -565.98724 4294966731
15.656041 160.76083 -565.89618 4294966731
-62.924904 162.09482 -565.00568 4294966731
-60.464291 162.32843 -565.47998 4294966731
-58.931999 163.44643 -565.18835 4294966731
-54.610291 163.26276 -565.76294 4294966731
-52.43779 164.18451 -565.39197 4294966731
-46.471142 164.43462 -565.84497 4294966731
-42.42643 164.54312 -565.49603 4294966731
-38.960148 164.16751 -565.85876 4294966731
-36.50737 164.05968 -565.99115 4294966731
-16.03293 162.90735 -565.13745 4294966731
-14.420767 162.75623 -565.88733 4294966731
151.35704 131.74052 -564.16553 4294966732
159.67809 131.31908 -564.73798 4294966732
163.70982 130.94946 -564.10156 4294966732
167.48624 130.70525 -564.16614 4294966732
107.54885 134.92636 -564.16455 4294966732
109.24998 134.94734 -564.01099 4294966732
115.27204 134.37752 -564.08655 4294966732
121.35037 133.97128 -564.02612 4294966732
125.13089 133.69711 -564.01855 4294966732
131.21045 133.21759 -564.01007 4294966732
133.47597 133.05553 -564.06525 4294966732
141.29596 132.62648 -564.013 4294966732
145.24174 132.16241 -564.19568 4294966732
147.59286 132.02138 -564.07629 4294966732
73.080215 137.30702 -564.04767 4294966732
29.391249 140.75212 -564.06256 4294966732
33.41264 140.4881 -564.06323 4294966732
35.585224 140.33434 -564.21722 4294966732
39.448044 139.87808 -564.08801 4294966732
43.025658 139.54904 -564.28992 4294966732
45.82407 139.38016 -564.08997 4294966732
49.519772 139.28525 -564.07617 4294966732
51.310249 139.01657 -564.29828 4294966732
53.482479 138.88046 -564.06647 4294966732
54.687851 138.90646 -564.12543 4294966732
63.160934 138.23163 -564.02124 4294966732
65.27121 138.03729 -564.01923 4294966732
85.021065 138.4061 -564.37152 4294966732
86.329109 139.39059 -564.84882 4294966732
-12.8499 143.81171 -564.77686 4294966732
-10.549617 143.4935 -564.84277 4294966732
-6.7095823 143.42764 -564.30579 4294966732
-4.5201583 143.03693 -564.16138 4294966732
-2.6407082 143.10709 -564.12732 4294966732
1.1740663 142.8127 -564.25952 4294966732
3.2310774 142.53325 -564.07672 4294966732
7.6087942 142.19997 -564.13293 4294966732
13.200648 141.82356 -564.13971 4294966732
17.4669 141.45474 -564.05499 4294966732
19.270451 141.2841 -564.3349 4294966732
21.488735 141.10115 -564.14215 4294966732
23.101921 141.18608 -564.22186 4294966732
-44.492439 146.61057 -564.22083 4294966732
-42.652843 146.41202 -564.05267 4294966732
-40.491318 146.23251 -564.00513 4294966732
-38.974735 146.14297 -564.12817 4294966732
-32.705936 145.6053 -564.17603 4294966732
-30.876272 145.29179 -564.58228 4294966732
-28.830744 145.21681 -564.05408 4294966732
-26.213818 145.02187 -564.06018 4294966732
-24.955715 145.03773 -564.86566 4294966732
-18.969389 144.4045 -564.3465 4294966732
-14.309244 144.00717 -564.41345 4294966732
-60.625141 149.99368 -564.81158 4294966732
-58.414513 148.49782 -564.37695 4294966732
-64.213554 151.79561 -564.53607 4294966732
-62.958752 150.08202 -564.04626 4294966732
86.51104 152.17349 -564.82745 4294966732
165.27209 150.83353 -564.03442 4294966732
-66.599876 154.07788 -564.06073 4294966732
-64.934685 153.77985 -564.56598 4294966732
84.874916 153.85835 -564.47601 4294966732
101.75962 154.34099 -564.03503 4294966732
-63.159744 156.28127 -564.92078 4294966732
-66.49942 160.58493 -564.20715 4294966732
-64.595467 159.22075 -564.57196 4294966732
21.401897 160.78212 -564.12677 4294966732
23.876408 160.65823 -564.09943 4294966732
31.555897 160.17358 -564.13391 4294966732
33.602695 160.0406 -564.35284 4294966732
39.398434 159.57487 -564.02759 4294966732
40.94165 159.44553 -564.42365 4294966732
-64.727844 163.00003 -564.33759 4294966732
-62.518883 163.92136 -564.43689 4294966732
-60.574127 164.76233 -564.23193 4294966732
-56.706528 164.46909 -564.80457 4294966732
-54.46719 164.68619 -564.73785 4294966732
-40.511501 164.90681 -564.24878 4294966732
-37.08952 164.57562 -564.17206 4294966732
-34.631042 164.60727 -564.32495 4294966732
-32.374977 164.3936 -564.8183 4294966732
-10.581964 162.74536 -564.07751 4294966732
155.28773 131.41556 -563.91986 4294966733
111.77413 134.63937 -563.89099 4294966733
113.7772 134.52065 -563.63977 4294966733
117.51879 134.33815 -563.79962 4294966733
127.58183 133.48871 -563.99249 4294966733
135.09193 132.95305 -563.88788 4294966733
137.42117 132.90211 -563.80664 4294966733
139.56476 132.73811 -563.9682 4294966733
143.84671 132.41719 -563.88818 4294966733
67.396049 137.88568 -563.85553 4294966733
69.346344 137.61139 -563.86938 4294966733
71.673714 137.44005 -563.77374 4294966733
77.351883 137.05768 -563.95593 4294966733
79.108627 136.95306 -563.79193 4294966733
81.574089 136.73607 -563.90875 4294966733
83.597321 137.52443 -563.28308 4294966733
99.262566 137.2395 -563.64307 4294966733
101.16628 136.43869 -563.51776 4294966733
103.70847 135.6631 -563.80103 4294966733
105.54185 135.19177 -563.92297 4294966733
57.374134 138.7242 -563.98151 4294966733
59.354088 138.55695 -563.99182 4294966733
96.730896 138.72852 -563.8269 4294966733
-8.6712618 143.3192 -563.98035 4294966733
-0.41374117 142.92648 -563.95013 4294966733
9.7412415 142.05357 -563.95148 4294966733
25.676661 141.00557 -563.81213 4294966733
-46.566853 146.75212 -563.72302 4294966733
-36.486855 145.89146 -563.98181 4294966733
-22.730669 144.78198 -563.92456 4294966733
-64.242188 148.99796 -563.10938 4294966733
-53.922977 147.41858 -563.17175 4294966733
-52.791786 147.44386 -563.49304 4294966733
-50.238209 147.02744 -563.76202 4294966733
135.11296 152.90546 -563.82782 4294966733
141.26648 152.57634 -563.80676 4294966733
143.24577 152.2804 -563.73102 4294966733
145.73257 152.31508 -563.87305 4294966733
147.62332 152.16476 -563.79517 4294966733
151.33417 151.91049 -563.96222 4294966733
157.1651 151.47983 -563.91431 4294966733
159.8056 151.26111 -563.75146 4294966733
161.75275 151.13329 -563.93701 4294966733
163.81091 150.96855 -563.5556 4294966733
82.701744 155.55652 -563.04907 4294966733
84.104874 154.8353 -563.85083 4294966733
100.00464 154.10814 -563.2561 4294966733
103.30221 154.90942 -563.47192 4294966733
105.67908 154.78368 -563.47839 4294966733
107.72701 154.71524 -563.67242 4294966733
109.30589 154.51889 -563.77631 4294966733
113.67281 154.46048 -563.75842 4294966733
119.30589 153.97318 -563.59106 4294966733
121.44245 153.80968 -563.73395 4294966733
123.62069 153.65207 -563.46356 4294966733
125.43657 153.56223 -563.8316 4294966733
127.71291 153.36122 -563.48505 4294966733
129.40729 153.2415 -563.36066 4294966733
131.55167 153.1407 -563.54266 4294966733
-70.493729 156.39226 -563.34235 4294966733
47.548302 158.97479 -563.93799 4294966733
53.504276 158.58612 -563.48578 4294966733
55.612862 158.49745 -563.78369 4294966733
57.310474 158.40073 -563.93536 4294966733
59.453453 158.22028 -563.66528 4294966733
62.965847 157.9373 -563.72095 4294966733
65.772087 157.65797 -563.50946 4294966733
71.187172 157.19286 -563.73724 4294966733
75.703011 156.80804 -563.64142 4294966733
77.328064 156.68695 -563.92694 4294966733
79.77932 156.14697 -563.39313 4294966733
3.6454852 161.9917 -563.81555 4294966733
7.4696221 161.59445 -563.57025 4294966733
9.4485655 161.49762 -563.76263 4294966733
11.631615 161.36693 -563.76721 4294966733
15.571922 161.09622 -563.75891 4294966733
17.533293 161.00684 -563.80743 4294966733
19.491272 160.88678 -563.90082 4294966733
27.240192 160.49347 -563.83411 4294966733
35.741619 159.86298 -563.99658 4294966733
37.407871 159.73354 -563.92743 4294966733
43.573261 159.24643 -563.95862 4294966733
-68.738022 164.0127 -563.16357 4294966733
-28.303152 164.06863 -563.85004 4294966733
-16.52791 162.95761 -563.02832 4294966733
-14.585075 162.90279 -563.48645 4294966733
-12.908134 162.86073 -563.79053 4294966733
-8.5192375 162.67032 -563.67853 4294966733
-6.5656762 162.67404 -563.99438 4294966733
-2.2658522 162.49355 -563.96576 4294966733
-0.30771914 162.31989 -563.74487 4294966733
-62.618732 165.12227 -563.62854 4294966733
-60.986034 165.78304 -563.17273 4294966733
-59.560741 165.64453 -563.44757 4294966733
-56.748108 165.84134 -563.01416 4294966733
-54.636158 165.59387 -563.57593 4294966733
-52.782097 165.50237 -563.70343 4294966733
-50.543423 165.56691 -563.86005 4294966733
97.932655 137.03543 -562.31183 4294966734
99.499359 136.62373 -562.80316 4294966734
86.931091 138.19803 -562.96973 4294966734
6.1398101 142.48421 -562.94843 4294966734
-47.146786 146.38416 -562.21649 4294966734
-44.843899 146.31007 -562.29688 4294966734
-38.898289 145.71298 -562.29657 4294966734
-36.786835 145.58653 -562.12921 4294966734
-32.810768 145.33548 -562.25262 4294966734
-67.419884 149.68304 -562.57788 4294966734
-58.532558 147.29965 -562.23248 4294966734
-54.535515 147.17702 -562.02478 4294966734
-52.747742 147.05545 -562.22205 4294966734
-75.056511 153.81578 -562.1524 4294966734
84.800125 155.28546 -562.51563 4294966734
85.611412 154.81041 -562.94086 4294966734
87.544525 154.33838 -562.08673 4294966734
-34.874218 164.61227 -562.03687 4294966734
-70.647972 165.17291 -562.18384 4294966734
-66.466179 165.3869 -562.81647 4294966734
-58.85915 166.46626 -562.08844 4294966734
-52.647945 165.9843 -562.07751 4294966734
-49.381966 165.96429 -562.0965 4294966734
165.6974 130.93343 -561.34741 4294966735
167.2843 130.78612 -561.50214 4294966735
117.33385 134.46198 -561.38593 4294966735
119.46683 134.32275 -561.28857 4294966735
122.70406 134.06564 -561.59387 4294966735
125.08714 133.90891 -561.35077 4294966735
127.61843 133.71616 -561.33472 4294966735
129.67924 133.55359 -561.35321 4294966735
131.06252 133.41832 -561.71021 4294966735
135.48436 133.10338 -561.47443 4294966735
137.35274 132.9861 -561.43091 4294966735
141.183 132.72731 -561.5658 4294966735
143.36343 132.61917 -561.04779 4294966735
145.10184 132.47292 -561.17963 4294966735
147.50916 132.24673 -561.09369 4294966735
75.528854 137.5309 -561.09766 4294966735
79.05262 137.28851 -561.12311 4294966735
81.47908 137.11784 -561.08142 4294966735
85.402954 137.2551 -561.21521 4294966735
93.457527 137.76367 -561.37848 4294966735
95.779991 137.3298 -561.54926 4294966735
99.609497 136.3017 -561.23444 4294966735
102.22141 135.81847 -561.84772 4294966735
105.22737 135.29134 -561.78607 4294966735
27.489721 140.97816 -561.55792 4294966735
31.51771 140.64784 -561.74707 4294966735
33.342392 140.5229 -561.49915 4294966735
37.627708 140.27164 -561.04016 4294966735
47.597267 139.4883 -561.53857 4294966735
49.366486 139.3667 -561.5755 4294966735
53.17178 139.13504 -561.466 4294966735
57.464096 138.8817 -561.03693 4294966735
59.413559 138.71904 -561.15131 4294966735
63.614326 138.41788 -561.1521 4294966735
90.325462 138.19611 -561.75659 4294966735
-10.489516 143.91429 -561.30591 4294966735
-8.8657637 143.72754 -561.68237 4294966735
-6.4131317 143.59851 -561.34998 4294966735
-4.4066629 143.43906 -561.44299 4294966735
-2.5227644 143.34671 -561.07782 4294966735
1.7315458 142.98723 -561.35095 4294966735
11.681942 142.20277 -561.4126 4294966735
13.39323 142.06854 -561.37219 4294966735
15.642391 141.88583 -561.35187 4294966735
17.43762 141.76221 -561.12933 4294966735
19.488382 141.54514 -561.52106 4294966735
21.576195 141.37045 -561.54419 4294966735
23.206678 141.25784 -561.43134 4294966735
25.439627 141.09402 -561.6015 4294966735
-48.92535 146.53267 -561.82416 4294966735
-42.569283 146.00844 -561.88745 4294966735
-34.556908 145.50113 -561.76813 4294966735
-30.496416 145.34276 -561.45282 4294966735
-26.702038 145.06444 -561.85034 4294966735
-24.21686 145.00517 -561.43854 4294966735
-22.775091 144.90927 -561.60974 4294966735
-20.692596 144.77318 -561.51068 4294966735
-18.955683 144.66309 -561.39026 4294966735
-12.717704 144.09744 -561.59875 4294966735
-64.414787 147.99405 -561.52942 4294966735
-62.627159 147.89568 -561.86993 4294966735
-76.692001 151.54385 -561.23224 4294966735
-75.055222 150.47612 -561.23334 4294966735
131.35675 152.96539 -561.10956 4294966735
134.07925 152.7686 -561.0368 4294966735
141.37262 152.31233 -561.18439 4294966735
143.30966 152.19302 -561.15594 4294966735
145.69836 152.04767 -561.20013 4294966735
147.63197 151.91025 -561.11505 4294966735
149.1322 151.80934 -561.18945 4294966735
151.32053 151.64549 -561.05969 4294966735
165.42636 150.62151 -561.00964 4294966735
167.64719 150.49113 -561.13733 4294966735
84.673531 155.61067 -561.04126 4294966735
86.064903 155.19041 -561.56744 4294966735
101.01953 154.51889 -561.18048 4294966735
105.4213 154.64043 -561.13934 4294966735
111.37699 154.29955 -561.13263 4294966735
117.16054 153.88191 -561.15369 4294966735
121.4257 153.56035 -561.03918 4294966735
123.36302 153.46637 -561.15881 4294966735
127.71162 153.18304 -561.10657 4294966735
129.26845 153.07858 -561.00085 4294966735
45.318729 158.85172 -561.3006 4294966735
47.691265 158.66586 -561.00073 4294966735
59.219627 157.97939 -561.16016 4294966735
61.506134 157.79143 -561.04688 4294966735
35.563087 159.56447 -561.15607 4294966735
37.302025 159.44879 -561.16571 4294966735
39.387714 159.29141 -561.28473 4294966735
-76.293617 163.93434 -561.70264 4294966735
-38.530186 164.89551 -561.86713 4294966735
-36.800964 164.70847 -561.4743 4294966735
-32.700306 164.3488 -561.61566 4294966735
-28.535582 163.84309 -561.12366 4294966735
-12.938484 162.64111 -561.10852 4294966735
-5.2505646 162.30946 -561.51147 4294966735
-0.42962745 162.00221 -561.21313 4294966735
-74.533142 165.28589 -561.41382 4294966735
-72.877914 166.16037 -561.12646 4294966735
-68.851639 166.43909 -561.33624 4294966735
-66.939369 166.54247 -561.32001 4294966735
-64.47403 166.48332 -561.5882 4294966735
-63.05452 166.4231 -561.73486 4294966735
-60.11808 166.72601 -561.2345 4294966735
-54.247208 166.31949 -561.77551 4294966735
-40.485531 165.10329 -561.93909 4294966735
111.48013 134.96269 -560.94952 4294966736
115.57491 134.63081 -560.97418 4294966736
83.432602 136.98889 -560.7951 4294966736
96.592331 136.67123 -560.10669 4294966736
107.5337 135.23926 -560.98706 4294966736
109.33831 135.1165 -560.97021 4294966736
65.446571 138.30151 -560.96185 4294966736
-52.924675 146.81575 -560.05463 4294966736
-16.529371 144.47861 -560.9082 4294966736
-14.035793 144.28752 -560.87866 4294966736
-72.510994 148.58557 -560.13879 4294966736
-62.756878 147.28787 -560.336 4294966736
-59.034138 147.08516 -560.08069 4294966736
161.82442 150.93262 -560.8797 4294966736
83.093231 155.8607 -560.97839 4294966736
103.01204 154.761 -560.99487 4294966736
107.5801 154.5632 -560.94458 4294966736
113.55071 154.11528 -560.92792 4294966736
119.35731 153.78246 -560.96021 4294966736
125.69884 153.31441 -560.93628 4294966736
43.446289 158.94048 -560.99255 4294966736
77.292023 156.56738 -560.90771 4294966736
81.024162 156.08012 -560.98798 4294966736
3.2093844 161.65541 -560.95514 4294966736
28.052275 160.05597 -560.90631 4294966736
33.575672 159.67871 -560.9519 4294966736
42.05658 159.04103 -560.51923 4294966736
-81.29287 164.22906 -560.37366 4294966736
-80.233513 162.31847 -560.77905 4294966736
-29.730198 163.93533 -560.60083 4294966736
-26.551964 163.63683 -560.96002 4294966736
-14.72935 162.75362 -560.98102 4294966736
-10.427216 162.47783 -560.81909 4294966736
-78.640396 165.48399 -560.64502 4294966736
-76.776199 166.46799 -560.23724 4294966736
-65.005455 166.93912 -560.19312 4294966736
-52.977402 166.33916 -560.07629 4294966736
166.93022 130.97227 -559.12268 4294966737
121.20992 134.35892 -559.15948 4294966737
125.19485 134.09294 -559.06494 4294966737
131.29312 133.59235 -559.35236 4294966737
143.20297 132.76299 -559.01501 4294966737
78.915108 137.40697 -559.2384 4294966737
94.083763 136.9895 -559.63568 4294966737
102.09415 135.88319 -559.01917 4294966737
33.138763 140.78831 -559.05408 4294966737
-8.8190784 143.94159 -559.39838 4294966737
-4.7385631 143.68843 -559.05792 4294966737
-1.2244451 143.41531 -559.20062 4294966737
2.9942191 143.04649 -559.29803 4294966737
29.147882 141.04733 -559.10217 4294966737
-56.668304 146.96802 -559.95917 4294966737
-50.916779 146.82529 -559.32898 4294966737
-49.052841 146.65147 -559.71393 4294966737
-46.856171 146.59018 -559.15607 4294966737
-44.872658 146.52071 -559.07477 4294966737
-40.708012 146.26297 -559.0614 4294966737
-35.097813 145.91087 -559.31128 4294966737
-23.209734 145.13683 -559.40692 4294966737
-10.657452 144.14229 -559.01251 4294966737
-76.316521 149.41785 -559.78204 4294966737
-74.82933 148.95947 -559.9754 4294966737
-80.743629 151.86945 -559.79462 4294966737
-78.613083 150.62834 -559.87714 4294966737
86.679993 155.33926 -559.25299 4294966737
123.41808 153.23077 -559.04352 4294966737
63.38435 157.45874 -559.0188 4294966737
-82.61129 164.15802 -559.79315 4294966737
-40.479183 164.75572 -559.12128 4294966737
-36.304497 164.45462 -559.14227 4294966737
-78.693207 167.25121 -559.25519 4294966737
-74.790115 166.99982 -559.96417 4294966737
-72.953255 167.3119 -559.58459 4294966737
-70.511719 167.20885 -559.72711 4294966737
-67.949196 167.1936 -559.45801 4294966737
-56.40799 166.50949 -559.44946 4294966737
-48.832779 165.70776 -559.52374 4294966737
161.28487 131.47787 -558.99359 4294966738
165.26201 131.17 -558.88623 4294966738
115.45217 134.80792 -558.95221 4294966738
117.39445 134.66832 -558.89886 4294966738
123.34084 134.26727 -558.68524 4294966738
127.71656 133.91728 -558.75415 4294966738
135.31967 133.35585 -558.87152 4294966738
137.49876 133.20583 -558.90454 4294966738
139.58325 133.06076 -558.93378 4294966738
73.621208 137.86456 -558.83618 4294966738
81.784027 137.24515 -558.90332 4294966738
85.512825 136.93375 -558.83899 4294966738
94.794106 136.67366 -558.66235 4294966738
95.951492 136.51273 -558.23065 4294966738
98.245399 136.29588 -558.64301 4294966738
105.70327 135.53905 -558.77692 4294966738
109.4132 135.23233 -558.84247 4294966738
55.755177 139.17348 -558.82837 4294966738
59.24371 138.8726 -558.89325 4294966738
61.488602 138.72917 -558.93433 4294966738
63.72908 138.58902 -558.8551 4294966738
-6.7598872 143.85457 -558.98877 4294966738
17.402206 141.94023 -558.96594 4294966738
21.34161 141.66829 -558.98962 4294966738
23.481853 141.51482 -558.93176 4294966738
-36.212685 146.04802 -558.75793 4294966738
-32.467194 145.81505 -558.82172 4294966738
-30.354759 145.65465 -558.82794 4294966738
-26.887691 145.47437 -558.65442 4294966738
-24.297035 145.27501 -558.8512 4294966738
-20.97473 145.04942 -558.87976 4294966738
-18.968231 144.87061 -558.99585 4294966738
-16.869785 144.70497 -558.85181 4294966738
-12.590721 144.32909 -558.89581 4294966738
-77.931229 149.19781 -558.94525 4294966738
-75.216782 148.25255 -558.38214 4294966738
-73.54763 148.08617 -558.06927 4294966738
-82.190666 150.70404 -558.78479 4294966738
129.11208 152.89456 -558.92743 4294966738
131.3062 152.7171 -558.70618 4294966738
133.93423 152.55168 -558.78143 4294966738
135.43655 152.44203 -558.82556 4294966738
141.25128 152.04767 -558.8844 4294966738
143.33504 151.8967 -558.77704 4294966738
145.75877 151.77388 -558.8205 4294966738
147.76195 151.67531 -558.84991 4294966738
163.96788 150.47672 -558.68915 4294966738
167.6776 150.2708 -558.92273 4294966738
83.312096 155.90002 -558.85516 4294966738
101.57677 154.66759 -558.75348 4294966738
102.72034 154.61806 -558.9809 4294966738
105.29382 154.34366 -558.67548 4294966738
107.3327 154.27339 -558.71869 4294966738
111.59583 154.0036 -558.7171 4294966738
115.77754 153.70374 -558.83984 4294966738
121.34758 153.29694 -558.79346 4294966738
125.88042 153.04884 -558.63184 4294966738
39.845207 158.92813 -558.51794 4294966738
41.58173 158.93738 -558.89783 4294966738
45.509712 158.59418 -558.90253 4294966738
79.422867 156.15211 -558.76007 4294966738
-0.68963611 161.78108 -558.81995 4294966738
2.2109022 161.44894 -558.46155 4294966738
19.71051 160.29132 -558.82532 4294966738
23.332211 160.10764 -558.91589 4294966738
25.757383 159.91228 -558.61536 4294966738
27.638514 159.88142 -558.99127 4294966738
33.370167 159.48706 -558.89587 4294966738
37.24902 159.20848 -558.97662 4294966738
-32.454853 164.2076 -558.89398 4294966738
-30.446089 163.94307 -558.98352 4294966738
-26.821125 163.52832 -558.883 4294966738
-84.783241 167.03156 -558.07507 4294966738
-82.284622 167.22572 -558.55267 4294966738
-73.03743 167.79686 -558.24115 4294966738
-63.464901 167.21295 -558.40009 4294966738
-42.994732 165.05469 -558.95392 4294966738
86.763519 137.1725 -557.03137 4294966739
90.706444 137.14519 -557.80756 4294966739
93.260818 136.80074 -557.95361 4294966739
94.336578 136.64661 -557.06 4294966739
111.41257 135.24747 -557.07196 4294966739
35.339668 140.814 -557.00079 4294966739
13.197125 142.49139 -557.11194 4294966739
-34.79509 146.06017 -557.30408 4294966739
-83.221619 149.48155 -557.11017 4294966739
-78.832169 148.80838 -557.52441 4294966739
-63.142307 147.54402 -557.76807 4294966739
-60.006195 147.40907 -557.37744 4294966739
-55.271725 147.21059 -557.27905 4294966739
-50.580154 147.03372 -557.12909 4294966739
98.188042 154.52077 -557.73798 4294966739
62.986046 157.28749 -557.08728 4294966739
-38.791584 164.44724 -557.01721 4294966739
-68.728195 167.54817 -557.86621 4294966739
-66.263672 167.33286 -557.89404 4294966739
-64.865654 167.32704 -557.63702 4294966739
-56.365456 166.39697 -557.77997 4294966739
-53.93708 166.05354 -557.13385 4294966739
-84.977257 168.11551 -557.09729 4294966739
-80.861382 168.22218 -557.54913 4294966739
-79.16922 168.26253 -557.89514 4294966739
-77.033707 168.12065 -557.57959 4294966739
163.66025 131.50713 -556.73376 4294966740
167.32262 131.22093 -556.73389 4294966740
115.48236 134.99165 -556.81628 4294966740
119.14012 134.70923 -556.91473 4294966740
121.25647 134.58627 -556.78351 4294966740
125.07582 134.33612 -556.7594 4294966740
129.52054 133.99768 -556.82025 4294966740
133.28093 133.74188 -556.77924 4294966740
137.41513 133.437 -556.755 4294966740
139.56107 133.3187 -556.68494 4294966740
140.99989 133.12408 -556.99719 4294966740
143.80362 132.95056 -556.69226 4294966740
147.46304 132.69516 -556.93292 4294966740
75.64431 137.94444 -556.59821 4294966740
79.671593 137.63799 -556.41681 4294966740
83.613022 137.3333 -556.7019 4294966740
92.649773 136.82042 -556.40918 4294966740
96.268883 136.49425 -556.29059 4294966740
99.585655 136.20453 -556.69415 4294966740
101.38572 136.06744 -556.7804 4294966740
105.33798 135.76355 -556.64117 4294966740
107.22994 135.60278 -556.83405 4294966740
109.47008 135.44052 -556.67676 4294966740
113.60451 135.13245 -556.72046 4294966740
37.709167 140.6544 -556.8714 4294966740
41.51704 140.37524 -556.78125 4294966740
51.719345 139.68468 -556.64465 4294966740
55.588573 139.41525 -556.72473 4294966740
59.146458 139.12 -556.75806 4294966740
1.513036 143.43231 -556.79474 4294966740
5.5867176 143.12123 -556.51819 4294966740
21.43261 141.91792 -556.72583 4294966740
29.28319 141.29211 -556.8797 4294966740
31.682308 141.11845 -556.74658 4294966740
33.570427 141.00877 -556.68469 4294966740
-48.404755 146.91455 -556.96234 4294966740
-38.356922 146.45172 -556.4856 4294966740
-32.236069 146.06688 -556.5744 4294966740
-28.043922 145.7375 -556.72986 4294966740
-22.232912 145.34938 -556.67682 4294966740
-20.551914 145.20509 -556.87164 4294966740
-18.220907 145.01595 -556.61639 4294966740
-14.470583 144.69554 -556.85791 4294966740
-10.820837 144.39069 -556.8703 4294966740
-8.2037249 144.2538 -556.59711 4294966740
-6.474967 144.09381 -556.80261 4294966740
-80.247513 148.83336 -556.85687 4294966740
-78.800957 148.34787 -556.18445 4294966740
-52.002056 147.16873 -556.69287 4294966740
123.63776 152.92795 -556.448 4294966740
125.75726 152.83501 -556.43439 4294966740
127.91568 152.74454 -556.62335 4294966740
129.30246 152.65959 -556.59808 4294966740
131.35585 152.55545 -556.71051 4294966740
135.231 152.28976 -556.69031 4294966740
137.51581 152.07709 -556.60461 4294966740
139.57767 151.91855 -556.49011 4294966740
147.82532 151.39088 -556.2464 4294966740
149.37781 151.30679 -556.40826 4294966740
151.19611 151.22743 -556.66779 4294966740
163.6355 150.30479 -556.88989 4294966740
165.33772 150.25656 -556.8114 4294966740
167.66386 150.06697 -556.68146 4294966740
83.227768 155.72604 -556.25165 4294966740
85.510017 155.56593 -556.55682 4294966740
87.756905 155.37428 -556.09979 4294966740
99.26284 154.68343 -556.67603 4294966740
102.91727 154.41084 -556.56488 4294966740
107.34322 154.14751 -556.87811 4294966740
109.49614 153.95662 -556.48566 4294966740
113.45483 153.69478 -556.73615 4294966740
117.3963 153.34587 -556.62799 4294966740
119.45219 153.18187 -556.35608 4294966740
121.5476 153.0486 -556.27173 4294966740
39.286022 158.8199 -556.72742 4294966740
41.486721 158.71564 -556.84692 4294966740
43.390141 158.59682 -556.98511 4294966740
45.542591 158.38962 -556.58685 4294966740
47.551548 158.25369 -556.52466 4294966740
53.429611 157.87108 -556.43378 4294966740
59.227211 157.42743 -556.24023 4294966740
61.355881 157.32823 -556.58246 4294966740
-4.424706 161.74669 -556.7998 4294966740
-2.8668137 161.55998 -556.9671 4294966740
-0.65527582 161.43523 -556.65668 4294966740
1.7665894 161.33812 -556.75555 4294966740
3.9936984 161.12401 -556.41534 4294966740
5.2602682 161.05913 -556.78583 4294966740
9.4300032 160.80453 -556.72284 4294966740
19.286898 160.10963 -556.76257 4294966740
21.394461 159.97685 -556.66968 4294966740
23.480169 159.85168 -556.63788 4294966740
27.432123 159.62024 -556.69305 4294966740
29.423029 159.47054 -556.58508 4294966740
31.056751 159.37274 -556.59106 4294966740
35.31469 159.0994 -556.68781 4294966740
-40.789639 164.58221 -556.86304 4294966740
-36.179432 164.22606 -556.81653 4294966740
-34.694229 164.11775 -556.86206 4294966740
-30.41291 163.70634 -556.61084 4294966740
-27.054695 163.377 -556.96399 4294966740
-24.591541 163.15195 -556.69537 4294966740
-82.762161 168.35997 -556.98663 4294966740
-80.535637 168.80417 -556.07819 4294966740
-78.793694 168.76566 -556.28925 4294966740
-75.190765 168.54457 -556.13159 4294966740
-82.435646 148.53023 -555.33362 4294966741
-76.710144 147.93164 -555.94464 4294966741
-74.523056 147.96193 -555.99542 4294966741
-62.96257 147.7959 -555.1452 4294966741
-60.489761 147.66982 -555.09094 4294966741
-56.525787 147.51256 -555.00171 4294966741
-70.811501 167.96652 -555.7995 4294966741
-66.634682 167.36472 -555.15582 4294966741
-65.211182 167.25691 -555.13953 4294966741
-86.370247 169.15981 -555.07544 4294966741
-85.191292 168.85051 -555.76813 4294966741
-76.657433 168.72845 -555.67572 4294966741
-72.233665 168.13556 -555.36859 4294966741
161.69873 131.87106 -554.18506 4294966742
165.44026 131.53923 -554.45709 4294966742
167.13206 131.43132 -554.16608 4294966742
121.41993 134.73291 -554.46533 4294966742
125.54546 134.50224 -554.24597 4294966742
131.65071 134.10504 -554.06635 4294966742
133.19171 133.99174 -554.00958 4294966742
135.61557 133.77827 -554.24139 4294966742
137.32169 133.66565 -554.15314 4294966742
139.33258 133.50307 -554.3446 4294966742
141.47173 133.3746 -554.06512 4294966742
145.42612 133.03294 -554.19623 4294966742
149.49875 132.66736 -554.16553 4294966742
151.80812 132.50818 -554.11591 4294966742
155.32747 132.27286 -554.54266 4294966742
159.5325 132.05344 -554.14966 4294966742
77.13208 137.97118 -554.39038 4294966742
79.759247 137.79059 -554.13165 4294966742
83.491989 137.51872 -554.04547 4294966742
85.190048 137.39146 -554.09302 4294966742
87.84462 137.20718 -554.87946 4294966742
89.788223 137.08577 -554.10211 4294966742
91.662071 136.92174 -554.78717 4294966742
93.633987 136.73979 -554.51367 4294966742
95.41246 136.67279 -554.04364 4294966742
97.487503 136.52046 -554.34912 4294966742
99.448517 136.40968 -554.0686 4294966742
101.30069 136.25597 -554.25439 4294966742
105.54079 135.92137 -554.22937 4294966742
107.54874 135.77481 -554.0611 4294966742
109.02555 135.62236 -554.52173 4294966742
112.04658 135.43335 -554.02124 4294966742
115.45697 135.16954 -554.33154 4294966742
117.22447 135.0258 -554.45819 4294966742
37.679943 140.8902 -554.15009 4294966742
39.2761 140.74873 -554.35089 4294966742
45.146938 140.27126 -554.84357 4294966742
49.223183 140.0217 -554.43573 4294966742
53.169605 139.7446 -554.2558 4294966742
55.57518 139.55479 -554.21399 4294966742
57.246639 139.40973 -554.36145 4294966742
59.510708 139.26338 -554.18744 4294966742
61.377754 139.13538 -554.10107 4294966742
63.441238 138.98199 -554.14478 4294966742
67.722191 138.63544 -554.48743 4294966742
73.315414 138.26051 -554.31189 4294966742
75.422585 138.08505 -554.53162 4294966742
3.6041467 143.43268 -554.36322 4294966742
5.6295009 143.26561 -554.25848 4294966742
9.4073629 142.92461 -554.78369 4294966742
25.467907 141.75475 -554.35529 4294966742
27.066242 141.60701 -554.74524 4294966742
31.603783 141.27818 -554.55371 4294966742
33.436184 141.15393 -554.39423 4294966742
35.114773 141.00706 -554.802 4294966742
-44.320446 146.9175 -554.77368 4294966742
-42.560593 146.82881 -554.84692 4294966742
-36.63929 146.49606 -554.82007 4294966742
-34.099766 146.37459 -554.67664 4294966742
-31.138588 146.1293 -554.78589 4294966742
-28.389065 145.94856 -554.45746 4294966742
-26.368229 145.77992 -554.68433 4294966742
-24.971563 145.67708 -554.66644 4294966742
-22.292322 145.4623 -554.70978 4294966742
-20.658516 145.31902 -554.85413 4294966742
-18.20385 145.13669 -554.31226 4294966742
-12.492331 144.67961 -554.44751 4294966742
-11.063862 144.54802 -554.82318 4294966742
-8.326889 144.41507 -554.35437 4294966742
-4.4469628 144.10323 -554.36108 4294966742
-80.829384 148.1481 -554.17407 4294966742
-67.915588 147.95834 -554.22717 4294966742
-52.583675 147.38713 -554.83917 4294966742
-49.680687 147.22885 -554.73987 4294966742
99.000938 154.52307 -554.04846 4294966742
38.79031 158.71306 -554.64984 4294966742
41.914524 158.44345 -554.12836 4294966742
43.578415 158.30981 -554.00079 4294966742
-4.1646361 161.49232 -554.1839 4294966742
5.1594644 160.85501 -554.18036 4294966742
9.2985115 160.59088 -554.18536 4294966742
13.478722 160.35583 -554.42682 4294966742
16.723328 160.09863 -554.24841 4294966742
23.008102 159.66711 -554.2735 4294966742
-44.019917 164.62715 -554.40417 4294966742
-42.251842 164.49321 -554.40613 4294966742
-38.579784 164.21683 -554.73163 4294966742
-36.527451 164.02495 -554.16608 4294966742
-32.595673 163.78127 -554.54987 4294966742
-30.435907 163.56071 -554.44952 4294966742
-28.207117 163.31482 -554.30286 4294966742
-24.54377 163.01772 -554.09009 4294966742
-22.626034 162.94106 -554.53571 4294966742
-20.777758 162.85413 -554.80255 4294966742
-18.758108 162.66132 -554.20074 4294966742
-14.946694 162.39877 -554.38983 4294966742
-68.363907 167.57594 -554.87018 4294966742
-84.766136 169.36757 -554.1355 4294966742
129.55383 134.25981 -553.98975 4294966743
-78.913452 148.08052 -553.64319 4294966743
-75.421539 148.05258 -553.40686 4294966743
-64.206894 147.95993 -553.00665 4294966743
165.55197 149.97649 -553.68286 4294966743
121.52965 152.91985 -553.7536 4294966743
125.48491 152.71678 -553.78448 4294966743
129.36879 152.59503 -553.84521 4294966743
133.4904 152.18736 -553.83655 4294966743
135.68164 152.2066 -553.5932 4294966743
137.31679 151.90472 -553.83423 4294966743
139.46356 151.7506 -553.68829 4294966743
141.35219 151.61066 -553.70654 4294966743
147.64368 151.25035 -553.85132 4294966743
153.39656 150.86729 -553.72162 4294966743
159.18642 150.41153 -553.86145 4294966743
161.13754 150.27699 -553.81653 4294966743
77.835258 155.9314 -553.35797 4294966743
79.161926 155.8466 -553.85248 4294966743
81.291718 155.6725 -553.55432 4294966743
82.98661 155.69485 -553.91675 4294966743
85.505325 155.35678 -553.61798 4294966743
89.445267 155.06812 -553.42859 4294966743
91.363464 154.99606 -553.83496 4294966743
93.223007 155.00999 -553.84094 4294966743
95.564964 154.74283 -553.86273 4294966743
97.863167 154.58839 -553.73877 4294966743
101.79057 154.43451 -553.74054 4294966743
105.55402 154.02333 -553.58337 4294966743
107.44684 153.91093 -553.66168 4294966743
109.03217 153.83058 -553.9978 4294966743
110.98733 153.66853 -553.91534 4294966743
113.33758 153.47739 -553.63629 4294966743
117.24841 153.13579 -553.77454 4294966743
33.719475 158.99367 -553.93683 4294966743
35.453461 158.79904 -553.82074 4294966743
37.287983 158.7231 -553.81439 4294966743
47.415161 158.15973 -553.8175 4294966743
51.454632 157.78525 -553.57996 4294966743
53.220448 157.66014 -553.8902 4294966743
57.944195 157.20213 -553.54803 4294966743
61.177456 157.00166 -553.87537 4294966743
64.212502 156.89116 -553.32568 4294966743
65.6744 156.82097 -553.86389 4294966743
1.5764273 161.09668 -553.99835 4294966743
7.5186825 160.67738 -553.8244 4294966743
19.01177 159.90155 -553.97418 4294966743
25.646797 159.61626 -553.88171 4294966743
27.205801 159.32674 -553.86749 4294966743
29.4007 159.28004 -553.89142 4294966743
31.179588 159.17271 -553.91205 4294966743
-70.901985 167.91194 -553.2688 4294966743
-66.601692 167.2744 -553.02203 4294966743
-83.068886 169.35515 -553.96436 4294966743
-80.817757 169.25951 -553.98114 4294966743
-74.778122 168.43571 -553.46954 4294966743
9.2707214 143.1423 -552.06702 4294966744
35.394749 141.17783 -552.09039 4294966744
-40.89394 146.90083 -552.41687 4294966744
-36.792103 146.77496 -552.10187 4294966744
-32.83778 146.5033 -552.3515 4294966744
-28.841049 146.19244 -552.09039 4294966744
-24.476515 145.83856 -552.0191 4294966744
-20.897448 145.52661 -552.07819 4294966744
-14.81138 145.04195 -552.13556 4294966744
-62.355228 147.9398 -552.66492 4294966744
-58.667526 147.80069 -552.96075 4294966744
-56.74828 147.74838 -552.83624 4294966744
-54.412369 147.64516 -552.61511 4294966744
-49.988132 147.38165 -552.65503 4294966744
-48.471375 147.29854 -552.55646 4294966744
-46.382973 147.18471 -552.71338 4294966744
-44.184155 147.12558 -552.12671 4294966744
-42.70665 147.00536 -552.54413 4294966744
-68.556564 167.56453 -552.97412 4294966744
-72.451569 168.10187 -552.89868 4294966744
163.40999 131.7021 -551.68378 4294966745
167.38145 131.54295 -551.4649 4294966745
119.89876 134.73236 -551.63751 4294966745
121.51746 134.76974 -551.80103 4294966745
123.36244 134.55011 -551.61853 4294966745
127.27055 134.5289 -551.62268 4294966745
129.44742 134.15501 -551.49292 4294966745
133.12227 133.92294 -551.7746 4294966745
135.61635 133.9267 -551.42352 4294966745
137.4415 133.63167 -551.60443 4294966745
139.15883 133.5204 -551.89771 4294966745
141.18423 133.40359 -551.69202 4294966745
143.81641 133.18803 -551.63422 4294966745
147.53748 132.75482 -551.16461 4294966745
153.38095 132.39949 -551.34747 4294966745
155.71454 132.2706 -551.52643 4294966745
157.62062 132.1552 -551.62408 4294966745
159.25916 132.05803 -551.74042 4294966745
161.32288 132.05507 -551.74744 4294966745
77.161835 137.92374 -551.81226 4294966745
79.381058 137.92116 -551.93048 4294966745
81.300789 137.64636 -551.80463 4294966745
85.160988 137.33318 -551.84528 4294966745
87.178368 137.33351 -551.75006 4294966745
91.79866 136.91145 -551.50287 4294966745
93.830284 136.75093 -551.48419 4294966745
97.607216 136.37898 -551.63293 4294966745
99.487061 136.25775 -551.70868 4294966745
103.38366 136.14911 -551.76538 4294966745
105.59794 135.82031 -551.88751 4294966745
107.3485 135.66664 -551.85944 4294966745
109.35631 135.45082 -551.39807 4294966745
111.59719 135.37846 -551.77533 4294966745
115.6665 135.20653 -551.97211 4294966745
117.44522 135.06792 -551.95233 4294966745
37.684921 140.98134 -551.74249 4294966745
39.500465 140.80345 -551.5498 4294966745
41.575386 140.65016 -551.71075 4294966745
43.557011 140.54659 -551.82379 4294966745
47.571537 140.28157 -551.66595 4294966745
49.549923 139.98392 -551.65723 4294966745
51.744972 139.98134 -551.63428 4294966745
53.585674 139.66695 -551.62286 4294966745
55.493702 139.5524 -551.74365 4294966745
59.574692 139.20866 -551.79028 4294966745
63.50433 138.88858 -551.58234 4294966745
69.622849 138.57256 -551.6084 4294966745
71.215103 138.48561 -551.84589 4294966745
73.257736 138.18246 -551.62134 4294966745
75.642799 138.065 -551.77838 4294966745
-0.17498776 143.94046 -551.67767 4294966745
1.4830782 143.81218 -551.61676 4294966745
3.5842071 143.47266 -551.66687 4294966745
5.5791731 143.34241 -551.76587 4294966745
7.5334587 143.16428 -551.87158 4294966745
11.883028 142.78383 -551.64478 4294966745
13.879699 142.76982 -551.84174 4294966745
17.423946 142.5211 -551.80011 4294966745
21.45764 142.1985 -551.77032 4294966745
25.502357 141.89943 -551.82111 4294966745
27.313864 141.75899 -551.79486 4294966745
29.523487 141.58682 -551.52338 4294966745
31.43714 141.46968 -551.80737 4294966745
33.265453 141.33183 -551.75586 4294966745
-34.500637 146.66957 -551.97198 4294966745
-30.800753 146.37604 -551.74286 4294966745
-18.556534 145.22568 -551.67383 4294966745
-16.360424 145.1624 -551.88879 4294966745
-12.47592 144.81613 -551.77289 4294966745
-10.546672 144.62798 -551.77905 4294966745
-8.5665512 144.49274 -551.89166 4294966745
-6.5796399 144.53209 -551.94324 4294966745
-4.0750761 144.32671 -551.58685 4294966745
-60.989616 147.97215 -551.02954 4294966745
129.29674 152.96431 -551.78796 4294966745
131.26901 152.87187 -551.72058 4294966745
133.51811 152.74695 -551.57953 4294966745
137.39896 152.44173 -551.68018 4294966745
139.67014 152.27554 -551.69202 4294966745
145.41696 151.72566 -551.89551 4294966745
149.50055 151.64519 -551.69208 4294966745
151.48976 151.52299 -551.65784 4294966745
157.37164 150.9939 -551.74005 4294966745
161.24561 150.78845 -551.62842 4294966745
163.77946 150.65959 -551.61749 4294966745
85.207291 155.84845 -551.87384 4294966745
87.572899 155.77718 -551.53314 4294966745
91.20871 155.48312 -551.69281 4294966745
93.402328 155.3445 -551.65436 4294966745
95.572159 155.23538 -551.53174 4294966745
97.504128 155.07013 -551.57587 4294966745
99.188408 154.99556 -551.54724 4294966745
101.82302 154.80156 -551.76862 4294966745
107.09312 154.44656 -551.76959 4294966745
109.57112 154.34607 -551.70996 4294966745
111.47891 154.17593 -551.81128 4294966745
115.47955 153.84857 -551.7608 4294966745
119.03452 153.56702 -551.95947 4294966745
121.40489 153.42882 -551.71667 4294966745
123.60661 153.29861 -551.81195 4294966745
127.67886 153.10649 -551.66888 4294966745
39.84811 158.95958 -551.1875 4294966745
41.634647 158.79163 -551.45105 4294966745
45.591053 158.61185 -551.70636 4294966745
53.664021 158.37218 -551.01001 4294966745
55.401245 157.93115 -551.62189 4294966745
59.052486 157.59526 -551.73389 4294966745
61.044785 157.44669 -551.72375 4294966745
63.581238 157.35478 -551.5343 4294966745
67.456963 157.01773 -551.56494 4294966745
75.482933 156.51202 -551.50281 4294966745
-10.64347 161.87856 -551.44672 4294966745
-6.6046548 161.64865 -551.39343 4294966745
-4.4371047 161.57268 -551.3949 4294966745
-1.0195376 161.46825 -551.96747 4294966745
1.1692072 161.41019 -551.60931 4294966745
5.1096797 161.04021 -551.69757 4294966745
7.4970608 161.07216 -551.61627 4294966745
9.3801928 160.93947 -551.72565 4294966745
13.802409 160.6396 -551.48071 4294966745
17.401432 160.30573 -551.57916 4294966745
21.244377 160.02846 -551.81641 4294966745
27.335335 159.57457 -551.90723 4294966745
29.61338 159.58145 -551.79376 4294966745
33.723099 159.27823 -551.7005 4294966745
35.477615 159.18393 -551.6969 4294966745
-46.127239 164.62238 -551.70581 4294966745
-42.26807 164.42564 -551.90082 4294966745
-40.471375 164.23628 -551.4978 4294966745
-38.5886 164.27324 -551.79883 4294966745
-36.738518 164.12367 -551.89056 4294966745
-32.298489 163.66846 -551.7038 4294966745
-30.448044 163.64047 -551.64075 4294966745
-28.431492 163.41306 -551.65417 4294966745
-26.508034 163.09628 -551.54065 4294966745
-24.734533 163.02188 -551.65637 4294966745
-22.50135 162.90488 -551.88849 4294966745
-20.500175 163.03136 -551.02081 4294966745
-18.785801 162.73907 -551.76715 4294966745
-15.271666 162.41313 -551.87152 4294966745
-71.012894 167.9079 -551.40771 4294966745
-80.65078 169.23991 -551.30396 4294966745
-76.538727 168.6646 -551.13202 4294966745
149.7516 132.58644 -550.94904 4294966746
153.64818 132.16431 -550.06226 4294966746
97.500046 135.98427 -550.1731 4294966746
99.449463 135.81866 -550.05695 4294966746
101.51813 135.64517 -550.0119 4294966746
45.424397 140.05026 -550.09467 4294966746
-34.372585 146.47334 -550.06415 4294966746
-66.703201 148.12543 -550.7851 4294966746
-64.578735 148.09988 -550.75476 4294966746
-56.784637 147.89662 -550.67651 4294966746
-54.007748 147.78723 -550.03217 4294966746
-52.664165 147.69771 -550.10583 4294966746
-50.086609 147.41389 -550.0932 4294966746
-42.736382 147.01299 -550.11011 4294966746
137.26735 152.9966 -550.59009 4294966746
142.92184 152.39993 -550.68109 4294966746
145.51839 152.72289 -550.20544 4294966746
153.0228 151.85844 -550.50897 4294966746
157.20296 151.5089 -550.48389 4294966746
163.52708 151.12299 -550.60431 4294966746
165.41296 150.83606 -550.56042 4294966746
167.50937 150.92549 -550.54053 4294966746
95.332657 155.71492 -550.4267 4294966746
98.591698 155.54163 -550.34576 4294966746
103.13772 155.23094 -550.5899 4294966746
111.68475 154.97018 -550.22241 4294966746
115.57004 154.85591 -550.02753 4294966746
119.01173 154.12303 -550.74158 4294966746
121.33261 154.05289 -550.53613 4294966746
123.94372 153.72089 -550.68146 4294966746
127.63708 153.60924 -550.52618 4294966746
131.47153 153.5405 -550.25537 4294966746
133.15276 153.28145 -550.5296 4294966746
141.116 153.10356 -550.00635 4294966746
49.210636 158.76198 -550.53485 4294966746
51.178738 158.71353 -550.4129 4294966746
55.339569 158.55211 -550.49377 4294966746
58.949631 158.12863 -550.58704 4294966746
61.297276 157.93416 -550.44714 4294966746
63.200157 157.92316 -550.22394 4294966746
65.74498 157.6618 -550.48846 4294966746
69.309853 157.37526 -550.38452 4294966746
78.866081 156.82343 -550.6098 4294966746
81.789291 156.73438 -550.39703 4294966746
82.933144 156.57474 -550.63135 4294966746
87.360184 156.30876 -550.51672 4294966746
91.050919 156.03154 -550.55621 4294966746
3.6960733 161.69327 -550.21887 4294966746
5.4514165 161.67024 -550.08521 4294966746
9.32761 161.41861 -550.427 4294966746
11.208419 161.25961 -550.58307 4294966746
15.928294 160.9586 -550.42371 4294966746
19.306929 160.71635 -550.20703 4294966746
25.454033 160.37343 -550.5943 4294966746
27.492041 160.25294 -550.44653 4294966746
29.590204 160.11911 -550.41394 4294966746
31.751308 159.9576 -550.30286 4294966746
35.285797 159.74368 -550.17548 4294966746
37.814453 159.56374 -550.25977 4294966746
43.539192 159.08667 -550.39233 4294966746
-36.949753 164.50351 -550.22198 4294966746
-26.792007 163.67209 -550.07587 4294966746
-1.9168093 162.04338 -550.01703 4294966746
-66.744469 167.16278 -550.87445 4294966746
-78.285439 168.8828 -550.43726 4294966746
155.32722 131.94237 -549.83264 4294966747
157.10799 131.83405 -549.95282 4294966747
159.52122 131.68294 -549.9635 4294966747
163.60165 131.28185 -549.77826 4294966747
165.60138 131.18661 -549.81555 4294966747
111.5228 134.8817 -549.70898 4294966747
113.43846 134.78023 -549.81122 4294966747
117.52313 134.46515 -549.82019 4294966747
119.70131 134.3569 -549.94659 4294966747
121.65373 134.19215 -549.89642 4294966747
125.71247 133.98882 -549.97223 4294966747
127.73578 133.79773 -549.74658 4294966747
129.25075 133.78267 -549.9729 4294966747
131.52606 133.63727 -549.88812 4294966747
133.15825 133.54015 -549.93506 4294966747
137.01717 133.26784 -549.83899 4294966747
139.52138 133.22369 -549.82062 4294966747
141.16447 132.97794 -549.7326 4294966747
143.45914 132.94414 -549.66998 4294966747
147.21764 132.56023 -549.80664 4294966747
149.35336 132.51808 -549.67114 4294966747
71.219482 137.8335 -549.88049 4294966747
73.284248 137.75719 -549.92395 4294966747
75.858536 137.55737 -549.78375 4294966747
79.622597 137.26585 -549.80127 4294966747
83.81324 137.02473 -549.80359 4294966747
85.316536 137.0023 -549.70123 4294966747
87.317932 136.73929 -549.7182 4294966747
89.214798 136.617 -549.80658 4294966747
91.860817 136.3551 -549.84631 4294966747
107.43799 135.17439 -549.87213 4294966747
35.400803 140.63434 -549.57953 4294966747
37.420719 140.50755 -549.76135 4294966747
41.599545 140.15836 -549.97852 4294966747
47.66877 139.7034 -549.96283 4294966747
49.545338 139.54303 -549.78101 4294966747
51.641312 139.39609 -549.75269 4294966747
53.249481 139.33609 -549.84796 4294966747
55.307571 139.16689 -549.81293 4294966747
59.583179 138.84282 -549.77118 4294966747
61.546078 138.71991 -549.6358 4294966747
63.065609 138.55534 -549.93646 4294966747
64.609093 138.0975 -549.29187 4294966747
67.555382 138.06036 -549.78229 4294966747
-4.3486357 143.96437 -549.6228 4294966747
-2.9857643 143.96278 -549.97736 4294966747
5.3711624 142.99968 -549.70972 4294966747
9.3176394 142.70158 -549.83661 4294966747
11.784821 142.44827 -549.68982 4294966747
15.496146 142.27098 -549.73596 4294966747
19.273594 141.97694 -549.98279 4294966747
23.641819 141.44986 -549.76971 4294966747
25.519102 141.32506 -549.7821 4294966747
27.225132 141.25613 -549.89484 4294966747
29.697521 141.03951 -549.7276 4294966747
-40.328602 146.71059 -549.77228 4294966747
-38.155117 146.63284 -549.66797 4294966747
-27.959581 145.72978 -549.70251 4294966747
-26.53787 145.71643 -549.93091 4294966747
-22.503416 145.22815 -549.69452 4294966747
-20.125254 144.98929 -549.63336 4294966747
-18.638111 144.93858 -549.73102 4294966747
-16.466141 144.76091 -549.78253 4294966747
-14.715296 144.64218 -549.86249 4294966747
-12.366817 144.46674 -549.79163 4294966747
-10.258703 144.29416 -549.68488 4294966747
-8.6965227 144.26151 -549.95819 4294966747
-6.946641 144.10608 -549.95966 4294966747
-48.504025 147.32137 -549.98303 4294966747
-44.65477 147.06229 -549.95599 4294966747
149.50272 152.74321 -549.86322 4294966747
151.44786 152.47392 -549.88196 4294966747
157.42368 152.5433 -549.15796 4294966747
159.55809 152.58421 -549.04089 4294966747
163.77281 152.23842 -549.20581 4294966747
109.7067 155.24503 -549.9881 4294966747
119.30714 155.16753 -549.41925 4294966747
121.68478 155.10202 -549.29907 4294966747
123.42124 154.52228 -549.71259 4294966747
127.74728 154.65436 -549.27179 4294966747
131.22459 154.76865 -549.03912 4294966747
135.52492 154.46948 -549.08704 4294966747
139.6723 153.28571 -549.88501 4294966747
67.132828 158.69032 -549.02887 4294966747
77.692909 158.16901 -549.04596 4294966747
83.148964 157.54866 -549.26422 4294966747
85.374939 156.89374 -549.85284 4294966747
91.318985 157.11942 -549.22699 4294966747
93.651321 156.50127 -549.58203 4294966747
97.405273 156.55515 -549.26001 4294966747
101.58324 156.20975 -549.37689 4294966747
105.18072 156.51593 -549.05524 4294966747
31.59231 160.86595 -549.02661 4294966747
39.749577 159.58617 -549.95721 4294966747
57.877441 159.22595 -549.25391 4294966747
59.302094 159.13992 -549.19189 4294966747
61.62619 159.05969 -549.07532 4294966747
-42.223808 164.93602 -549.55927 4294966747
-38.223152 164.76718 -549.64288 4294966747
-34.401455 164.56006 -549.69537 4294966747
-32.717026 164.34763 -549.82465 4294966747
-28.452621 163.92303 -549.7998 4294966747
-24.807701 163.65823 -549.66388 4294966747
-22.599602 163.42299 -550 4294966746
-18.063749 163.18048 -549.76019 4294966747
-15.104991 162.88733 -549.64539 4294966747
-12.409429 162.66156 -549.64117 4294966747
-11.183103 162.42361 -549.97406 4294966747
