# .PCD v0.7 - Point Cloud Data file format
VERSION 0.7
FIELDS x y z rgba
SIZE 4 4 4 4
TYPE F F F U
COUNT 1 1 1 1
WIDTH 1147
HEIGHT 1
VIEWPOINT 0 0 0 1 0 0 0
POINTS 1147
DATA ascii
559.78979 2233.5945 -310.79938 4294966986
561.1286 2232.3042 -310.67535 4294966986
576.42651 2484.0347 -310.56775 4294966986
578.3045 2484.834 -310.97427 4294966986
579.26501 2486.4448 -310.96869 4294966986
579.61835 2487.6331 -310.75452 4294966986
580.07086 2494.7278 -310.82462 4294966986
580.30597 2498.9204 -310.96097 4294966986
580.65479 2503.6394 -310.24969 4294966986
580.95703 2508.719 -310.1416 4294966986
581.45227 2525.7227 -310.88596 4294966986
581.87482 2527.1501 -310.85364 4294966986
585.5661 2529.4338 -310.93961 4294966986
587.45667 2529.8862 -310.76291 4294966986
591.58484 2533.4897 -310.75626 4294966986
591.71869 2536.0347 -310.61594 4294966986
591.62042 2538.772 -310.69879 4294966986
592.36713 2545.7046 -310.86783 4294966986
592.42725 2548.1086 -310.74548 4294966986
574.58582 2552.949 -310.62872 4294966986
577.33667 2552.9548 -310.59244 4294966986
579.36249 2552.9458 -310.74701 4294966986
583.54144 2552.9304 -310.72949 4294966986
590.35394 2552.0681 -310.66794 4294966986
591.31531 2551.1221 -310.8718 4294966986
569.04602 2555.0676 -310.58398 4294966986
570.46936 2554.115 -310.77478 4294966986
572.21899 2553.3469 -310.55243 4294966986
586.44189 2553.0132 -310.82413 4294966986
568.45404 2558.5332 -310.95724 4294966986
569.37689 2562.1936 -310.7211 4294966986
570.32733 2566.7397 -310.8851 4294966986
561.5 2231.3611 -309.05298 4294966987
578.21155 2484.887 -309.01898 4294966987
579.80573 2490.1428 -309.86731 4294966987
580.05365 2494.4087 -309.61923 4294966987
580.15796 2496.4053 -309.93045 4294966987
580.49817 2501.3105 -309.90793 4294966987
580.7641 2504.9614 -309.35587 4294966987
581.1543 2512.9026 -309.99185 4294966987
581.27209 2515.7544 -309.25696 4294966987
581.34174 2518.8567 -309.85074 4294966987
581.40442 2520.7959 -309.16962 4294966987
589.31854 2530.4519 -309.02817 4294966987
590.50769 2531.0408 -309.1127 4294966987
592.28223 2549.0146 -309.19147 4294966987
568.75452 2555.6199 -309.01486 4294966987
570.39667 2554.2383 -309.25513 4294966987
572.04309 2553.5647 -309.24988 4294966987
586.69427 2553.0947 -309.09918 4294966987
568.09161 2556.8872 -309.05536 4294966987
561.92889 2228.0242 -308.50415 4294966988
561.77557 2230.3706 -308.82425 4294966988
557.3241 2234.3982 -308.71957 4294966988
558.70007 2234.1177 -308.86047 4294966988
559.65015 2233.6538 -308.94879 4294966988
576.14313 2484.2278 -308.4758 4294966988
579.58087 2487.8972 -308.82446 4294966988
579.95337 2492.7664 -308.35446 4294966988
580.0766 2495.0505 -308.20926 4294966988
580.67175 2503.1875 -308.22327 4294966988
580.8833 2506.8206 -308.86249 4294966988
581.09277 2510.9065 -308.95602 4294966988
581.43909 2525.9275 -308.85492 4294966988
583.10931 2528.8943 -308.82584 4294966988
585.50586 2529.509 -308.97238 4294966988
591.56689 2533.6375 -308.79132 4294966988
591.77838 2536.0366 -308.76379 4294966988
591.7384 2540.8516 -308.7706 4294966988
592.42346 2545.8367 -308.86371 4294966988
588.63892 2552.6689 -308.81482 4294966988
590.0755 2552.1301 -308.94122 4294966988
575.03754 2553.0066 -308.88632 4294966988
581.68164 2553.0464 -308.78497 4294966988
583.64636 2553.0103 -308.69626 4294966988
569.34247 2562.1301 -308.91089 4294966988
570.02515 2564.6221 -308.62714 4294966988
561.42499 2231.6467 -307.03204 4294966989
579.72321 2489.6843 -307.15393 4294966989
580.25641 2497.7358 -307.64835 4294966989
580.53662 2501.2537 -307.6434 4294966989
580.81616 2505.196 -307.39764 4294966989
581.01709 2508.95 -307.79663 4294966989
581.20892 2513.0508 -307.93881 4294966989
581.38629 2518.5498 -307.96094 4294966989
581.47589 2523.978 -307.91614 4294966989
581.67181 2527.3289 -307.25552 4294966989
587.14038 2530.0696 -307.02106 4294966989
591.71051 2538.7227 -307.06934 4294966989
592.38745 2545.5227 -307.04651 4294966989
588.69788 2552.717 -307.05109 4294966989
590.28931 2552.1104 -307.00339 4294966989
577.18683 2553.0762 -307.12024 4294966989
561.23438 2225.0015 -306.86136 4294966990
561.79572 2227.5842 -306.77521 4294966990
561.77216 2230.1792 -306.83264 4294966990
557.37695 2234.5212 -306.77246 4294966990
558.33319 2234.3069 -306.90997 4294966990
560.49023 2233.2813 -306.82208 4294966990
576.10919 2484.3528 -306.63339 4294966990
577.53436 2484.5325 -306.61264 4294966990
578.28503 2484.9136 -306.64429 4294966990
579.21002 2486.479 -306.80188 4294966990
579.90845 2492.04 -306.27698 4294966990
580.03003 2494.5537 -306.11584 4294966990
580.67017 2502.8384 -306.47372 4294966990
580.93848 2507.1289 -306.46616 4294966990
581.13757 2511.0498 -306.78574 4294966990
581.33337 2515.7551 -306.96436 4294966990
581.45386 2520.863 -306.49631 4294966990
582.80151 2528.9436 -306.69537 4294966990
589.95007 2530.8906 -306.60599 4294966990
591.57037 2533.6494 -306.96146 4294966990
591.79797 2536.1643 -306.93784 4294966990
592.32288 2548.9292 -306.84741 4294966990
591.50293 2551.0708 -306.88644 4294966990
569.06635 2555.1458 -306.77606 4294966990
570.82086 2554.123 -306.78116 4294966990
572.32336 2553.5596 -306.68738 4294966990
574.53217 2553.0432 -306.90869 4294966990
579.32196 2553.0981 -306.75452 4294966990
583.6189 2553.0894 -306.78879 4294966990
586.44586 2553.1924 -306.7189 4294966990
567.99127 2556.8696 -306.74509 4294966990
569.17059 2561.8665 -306.72736 4294966990
570.05884 2564.7466 -306.8132 4294966990
560.1452 2212.9287 -305.26758 4294966991
560.38354 2216.52 -305.07684 4294966991
560.96643 2222.8909 -305.04904 4294966991
561.86218 2227.9417 -305.17993 4294966991
561.81213 2229.9839 -305.05588 4294966991
561.00024 2232.7781 -305.03101 4294966991
579.57593 2487.9658 -305.02573 4294966991
580.52728 2500.9583 -305.33218 4294966991
580.84729 2505.377 -305.13428 4294966991
581.0509 2509.1272 -305.47647 4294966991
581.25031 2513.134 -305.88242 4294966991
581.43256 2518.4868 -305.89133 4294966991
585.38086 2529.7722 -305.15964 4294966991
591.12256 2532.3567 -305.08463 4294966991
590.09888 2552.2256 -305.02063 4294966991
577.22168 2553.1482 -305.03281 4294966991
561.23108 2225.1077 -304.95334 4294966992
561.51727 2231.4429 -304.94925 4294966992
554.10443 2234.6321 -304.85818 4294966992
556.41394 2234.7229 -304.80692 4294966992
558.92786 2234.293 -304.8183 4294966992
559.81073 2233.9963 -304.71695 4294966992
576.68341 2484.2131 -304.11267 4294966992
578.32849 2484.8989 -304.9469 4294966992
579.22729 2486.3967 -304.97479 4294966992
579.90283 2491.2827 -304.72202 4294966992
580.22321 2497.4656 -304.71097 4294966992
580.95105 2507.2429 -304.0564 4294966992
581.16284 2511.1646 -304.65002 4294966992
581.33832 2514.7922 -304.9183 4294966992
581.41864 2517.0095 -304.49234 4294966992
581.46436 2524.7229 -304.75421 4294966992
582.56232 2529.1128 -304.92654 4294966992
583.68951 2529.4832 -304.81152 4294966992
591.57581 2533.667 -304.73315 4294966992
592.4325 2545.8447 -304.90738 4294966992
592.29236 2548.9951 -304.89993 4294966992
588.80194 2552.7671 -304.61136 4294966992
591.35913 2551.2544 -304.85828 4294966992
572.19666 2553.5415 -304.82031 4294966992
574.39929 2553.0972 -304.67416 4294966992
583.69214 2553.1826 -304.6571 4294966992
586.57001 2553.2739 -304.72519 4294966992
568.27917 2556.7339 -304.75339 4294966992
569.25854 2562.0632 -304.85712 4294966992
559.95313 2209.7913 -303.01663 4294966993
560.12305 2212.4165 -303.80887 4294966993
560.2533 2214.4651 -303.2934 4294966993
553.46802 2234.6274 -303.17191 4294966993
579.35657 2486.5828 -303.08377 4294966993
580.58002 2501.4436 -303.38278 4294966993
580.72406 2503.3948 -303.62411 4294966993
580.85736 2505.5681 -303.1181 4294966993
581.05383 2509.2559 -303.13672 4294966993
581.26672 2513.1077 -303.94089 4294966993
581.35931 2515.0518 -303.14487 4294966993
581.4707 2520.4497 -303.57727 4294966993
581.31061 2526.6094 -303.11404 4294966993
591.94946 2542.8406 -303.12442 4294966993
592.12909 2549.7822 -303.00256 4294966993
579.36896 2553.2292 -303.11542 4294966993
560.38361 2216.4731 -302.54526 4294966994
560.62421 2219.3914 -302.56378 4294966994
560.96014 2222.7737 -302.38644 4294966994
561.21863 2225.04 -302.755 4294966994
561.79187 2227.8943 -302.74216 4294966994
561.7088 2231.0366 -302.81332 4294966994
557.81848 2234.5676 -302.75568 4294966994
559.71545 2233.9585 -302.96835 4294966994
577.85162 2483.8792 -302.53116 4294966994
578.40619 2484.2197 -302.98923 4294966994
579.815 2491.6479 -302.9115 4294966994
581.21649 2512.3223 -302.41309 4294966994
581.44476 2517.4697 -302.32327 4294966994
581.43976 2523.4329 -302.98972 4294966994
581.66028 2527.6628 -302.76172 4294966994
583.13348 2529.3062 -302.90701 4294966994
585.03949 2529.8528 -302.72083 4294966994
587.36969 2530.2944 -302.82919 4294966994
592.43005 2548.0347 -302.80536 4294966994
588.63922 2552.8835 -302.88623 4294966994
589.87268 2552.3677 -302.7316 4294966994
591.35754 2551.2512 -302.88431 4294966994
570.88794 2554.2708 -302.89447 4294966994
574.51007 2553.1511 -302.64053 4294966994
583.6181 2553.2659 -302.84506 4294966994
559.80066 2206.9868 -301.47421 4294966995
560.15997 2212.7942 -301.99313 4294966995
560.44122 2217.1401 -301.04846 4294966995
561.65045 2227.4143 -301.25433 4294966995
579.66357 2488.0386 -301.04196 4294966995
580.7533 2503.9824 -301.66534 4294966995
580.90698 2506.9465 -301.13861 4294966995
581.47864 2519.7241 -301.03177 4294966995
582.19409 2528.7949 -301.04825 4294966995
592.55133 2548.0996 -301.04837 4294966995
589.95074 2552.3657 -301.07031 4294966995
591.32727 2551.2246 -301.05017 4294966995
560.10968 2211.6736 -300.51645 4294966996
560.31348 2215.1414 -300.95889 4294966996
560.52875 2218.1792 -300.44675 4294966996
560.90155 2222.0364 -300.26627 4294966996
561.19806 2224.9414 -300.95432 4294966996
561.74048 2230.771 -300.9342 4294966996
554.12573 2234.6782 -300.14456 4294966996
557.35358 2234.6072 -300.74808 4294966996
559.86206 2233.9973 -300.90408 4294966996
561.03357 2233.1909 -300.80942 4294966996
572.57092 2482.6936 -300.29916 4294966996
576.37384 2482.6118 -300.44418 4294966996
577.40448 2482.9026 -300.79077 4294966996
581.04559 2509.6855 -300.86432 4294966996
581.16571 2511.981 -300.53485 4294966996
581.32831 2514.9172 -300.61212 4294966996
581.44958 2517.5159 -300.69965 4294966996
581.44824 2523.4253 -300.45871 4294966996
582.13324 2528.8013 -300.70892 4294966996
585.58344 2530.053 -300.74316 4294966996
591.66339 2538.5837 -300.77106 4294966996
591.90692 2543.053 -300.75916 4294966996
592.26038 2545.4954 -300.90866 4294966996
592.02368 2549.8804 -300.59418 4294966996
588.61401 2552.9424 -300.97321 4294966996
570.80072 2554.1274 -300.93161 4294966996
586.41986 2553.4578 -300.84427 4294966996
559.77618 2205.884 -299.36237 4294966997
559.90845 2208.0896 -299.56531 4294966997
560.0473 2210.2617 -299.20041 4294966997
560.22882 2213.4482 -299.76382 4294966997
560.66571 2219.5708 -299.37 4294966997
556.53961 2234.8015 -299.2923 4294966997
578.63092 2482.9514 -299.12769 4294966997
579.31879 2485.2134 -299.28894 4294966997
579.67279 2488.2161 -299.40051 4294966997
580.73651 2504.2837 -299.84634 4294966997
580.81946 2505.946 -299.34668 4294966997
580.94196 2508.3718 -299.32397 4294966997
581.3916 2516.6174 -299.2215 4294966997
581.46045 2518.6094 -299.58926 4294966997
581.44873 2520.7805 -299.00571 4294966997
581.65692 2527.7212 -299.05936 4294966997
591.82977 2542.8831 -299.13425 4294966997
588.67596 2552.9751 -299.0451 4294966997
569.29126 2555.3884 -299.09451 4294966997
583.70544 2553.4304 -299.00412 4294966997
586.56403 2553.5278 -299.13806 4294966997
560.18115 2212.2178 -298.32755 4294966998
560.34198 2215.0461 -298.9332 4294966998
560.4826 2217.1172 -298.71918 4294966998
561.21863 2224.8306 -298.88931 4294966998
561.64197 2227.8408 -298.56546 4294966998
561.63202 2231.1323 -298.7247 4294966998
553.91913 2234.6665 -298.81827 4294966998
559.27112 2234.3003 -298.70261 4294966998
572.67609 2480.6306 -298.42538 4294966998
576.55188 2480.9919 -298.5834 4294966998
578.07208 2481.4324 -298.48721 4294966998
580.86133 2506.9727 -298.95465 4294966998
581.00452 2510.1655 -298.11386 4294966998
581.15338 2512.791 -298.20813 4294966998
581.42438 2518.5259 -298.26904 4294966998
582.40204 2528.9956 -298.24335 4294966998
583.44525 2529.6692 -298.61652 4294966998
587.14484 2530.4998 -298.81693 4294966998
591.3299 2533.9153 -298.75821 4294966998
591.67523 2536.0891 -298.83075 4294966998
591.62158 2539.7061 -298.9213 4294966998
592.14325 2545.4067 -298.63205 4294966998
591.96545 2549.8882 -298.67966 4294966998
592.29614 2548.0461 -298.83508 4294966998
589.70001 2552.5195 -298.76221 4294966998
591.26581 2551.3005 -298.85712 4294966998
572.11115 2553.7373 -298.84036 4294966998
559.86316 2206.6655 -297.11914 4294966999
560.35583 2214.8086 -297.5881 4294966999
560.67078 2219.3579 -297.09421 4294966999
560.90759 2222.1414 -297.05777 4294966999
561.53516 2227.6292 -297.19748 4294966999
572.21356 2478.9504 -297.23718 4294966999
575.86993 2478.8108 -297.21649 4294966999
577.16882 2480.231 -297.9133 4294966999
579.36804 2485.1309 -297.36136 4294966999
581.29248 2515.5347 -297.6394 4294966999
581.39282 2518.7729 -297.02524 4294966999
581.32788 2524.552 -297.19287 4294966999
585.51215 2530.2166 -297.04181 4294966999
592.09009 2545.5559 -297.01718 4294966999
592.39813 2548.0725 -297.0029 4294966999
588.45673 2553.1155 -297.36145 4294966999
560.00214 2208.8809 -296.97903 4294967000
560.20648 2212.0024 -296.35297 4294967000
560.49115 2216.5901 -296.55841 4294967000
560.57654 2217.8799 -296.43564 4294967000
561.22943 2225.3479 -296.57141 4294967000
561.62952 2231.2368 -296.78839 4294967000
551.5639 2234.5281 -296.62375 4294967000
553.33136 2234.564 -296.74286 4294967000
557.08893 2234.584 -296.51035 4294967000
559.90576 2234.0144 -296.5993 4294967000
572.96887 2461.2251 -296.18884 4294967000
573.5415 2463.5625 -296.40912 4294967000
573.59814 2466.7012 -296.71848 4294967000
576.38843 2467.7827 -296.1113 4294967000
574.21564 2473.0505 -296.36533 4294967000
574.9317 2475.0635 -296.34006 4294967000
575.65466 2477.1631 -296.46869 4294967000
577.90155 2479.1619 -296.60632 4294967000
578.48401 2480.7217 -296.93048 4294967000
581.15137 2513.554 -296.54239 4294967000
581.33698 2517.365 -296.4942 4294967000
581.39209 2520.6011 -296.83334 4294967000
581.62024 2527.7512 -296.6015 4294967000
582.17932 2528.803 -296.61533 4294967000
583.56378 2529.4661 -296.89157 4294967000
590.12982 2532.1189 -296.82959 4294967000
591.53284 2535.9426 -296.3573 4294967000
591.52325 2538.646 -296.5369 4294967000
591.86865 2543.4546 -296.99722 4294967000
591.91223 2549.938 -296.99664 4294967000
591.2724 2551.2507 -296.90256 4294967000
574.12463 2553.4114 -296.73773 4294967000
560.40869 2215.0266 -295.71698 4294967001
560.68146 2219.1951 -295.01282 4294967001
560.76746 2220.5188 -295.74741 4294967001
561.63867 2229.9512 -295.05768 4294967001
570.46741 2434.7971 -295.06342 4294967001
570.76855 2437.8306 -295.27475 4294967001
572.80139 2438.8669 -295.17368 4294967001
572.68115 2443.6982 -295.33929 4294967001
574.07556 2446.7722 -295.00894 4294967001
574.6922 2452.8391 -295.59323 4294967001
574.40717 2456.8826 -295.91077 4294967001
573.64899 2458.9299 -295.96979 4294967001
574.74597 2461.0696 -295.8688 4294967001
576.72137 2462.8086 -295.09659 4294967001
576.38452 2464.5698 -295.97397 4294967001
575.84436 2473.3401 -295.90311 4294967001
577.60126 2476.9695 -295.87692 4294967001
579.25476 2483.1191 -295.61804 4294967001
581.5575 2527.6287 -295.12689 4294967001
585.41827 2530.3445 -295.04694 4294967001
591.6474 2540.9248 -295.81992 4294967001
592.00403 2545.7546 -295.2139 4294967001
591.2149 2551.3406 -295.02243 4294967001
586.56805 2553.71 -295.16455 4294967001
559.867 2206.2849 -294.7334 4294967002
560.09528 2209.7935 -294.5712 4294967002
560.29651 2212.8779 -294.29196 4294967002
560.55463 2217.0679 -294.52704 4294967002
561.125 2224.741 -294.52206 4294967002
561.44427 2227.6997 -294.87405 4294967002
549.38013 2234.6042 -294.59656 4294967002
553.59967 2234.6255 -294.69937 4294967002
557.48108 2234.6379 -294.7337 4294967002
561.22571 2232.8867 -294.67847 4294967002
568.30042 2410.6597 -294.05078 4294967002
568.27856 2413.731 -294.17053 4294967002
570.23883 2414.9084 -294.02164 4294967002
570.91205 2418.8401 -294.24777 4294967002
571.39191 2422.7222 -294.37912 4294967002
571.8595 2425.5945 -294.43649 4294967002
572.94269 2424.321 -294.30771 4294967002
571.69055 2428.844 -294.61783 4294967002
572.9267 2429.1069 -294.43134 4294967002
570.49945 2432.9609 -294.93918 4294967002
571.70892 2430.5525 -294.70981 4294967002
572.5567 2432.7607 -294.71747 4294967002
573.75134 2431.9006 -294.39511 4294967002
572.50867 2435.0403 -294.85129 4294967002
573.95062 2434.9775 -294.40646 4294967002
572.54144 2436.6743 -294.98514 4294967002
573.9776 2438.7444 -294.67642 4294967002
574.1687 2436.8582 -294.60123 4294967002
575.13287 2439.1177 -294.0141 4294967002
574.14227 2443.7881 -294.9325 4294967002
575.23553 2444.8464 -294.30154 4294967002
575.40271 2448.9338 -294.55734 4294967002
575.78668 2451.9294 -294.76123 4294967002
575.9812 2456.1689 -294.96216 4294967002
576.74512 2456.9456 -294.09058 4294967002
576.68982 2458.8958 -294.42358 4294967002
576.48303 2461.0867 -294.99036 4294967002
577.29211 2465.1426 -294.87198 4294967002
577.78839 2469.249 -294.71268 4294967002
577.63306 2474.2842 -294.85345 4294967002
581.18878 2515.158 -294.711 4294967002
581.31494 2518.9915 -294.33978 4294967002
581.31848 2522.6785 -294.56729 4294967002
581.27728 2526.0596 -294.8631 4294967002
583.41309 2529.5366 -294.84058 4294967002
590.00061 2532.2654 -294.87054 4294967002
591.03186 2533.9773 -294.61783 4294967002
591.45178 2536.0276 -294.77921 4294967002
591.513 2538.4783 -294.9082 4294967002
591.78564 2543.2573 -294.52643 4294967002
591.88336 2549.8921 -294.82031 4294967002
592.15546 2547.9985 -294.85013 4294967002
589.67505 2552.665 -294.84521 4294967002
570.37866 2555.01 -294.83054 4294967002
571.94995 2553.9636 -294.76749 4294967002
568.71356 2558.7024 -294.7095 4294967002
560.45166 2215.1943 -293.67477 4294967003
560.85278 2221.627 -293.83984 4294967003
561.3407 2227.3445 -293.20496 4294967003
561.59631 2230.0583 -293.26559 4294967003
561.38147 2232.6536 -293.56287 4294967003
569.50885 2394.7207 -293.04196 4294967003
570.53552 2396.6846 -293.03531 4294967003
569.98163 2398.6421 -293.29861 4294967003
569.35175 2401.1621 -293.48505 4294967003
570.69177 2401.7551 -293.37201 4294967003
568.55719 2403.6584 -293.60309 4294967003
569.41071 2404.9031 -293.63593 4294967003
570.88452 2404.6694 -293.43689 4294967003
567.9856 2408.897 -293.93832 4294967003
568.84882 2406.8586 -293.93341 4294967003
570.9411 2408.7659 -293.55786 4294967003
571.0885 2406.8052 -293.51157 4294967003
570.63141 2410.7996 -293.89832 4294967003
571.85876 2410.9971 -293.42407 4294967003
571.74121 2412.9158 -293.46613 4294967003
572.06317 2416.6184 -293.56433 4294967003
572.7608 2420.6038 -293.83179 4294967003
573.96759 2421.7141 -293.21741 4294967003
574.46069 2425.8511 -293.46643 4294967003
574.72394 2428.9197 -293.54373 4294967003
575.08527 2430.792 -293.17194 4294967003
574.99652 2435.2332 -293.84558 4294967003
575.12762 2433.7058 -293.29443 4294967003
575.35022 2436.9624 -293.5267 4294967003
575.89221 2442.0337 -293.24561 4294967003
575.87805 2446.9885 -293.79132 4294967003
576.54913 2449.9067 -293.3028 4294967003
576.92078 2454.9668 -293.71066 4294967003
577.19006 2458.9807 -293.29471 4294967003
577.63092 2462.8386 -293.36697 4294967003
578.02185 2467.3909 -293.38693 4294967003
578.12817 2472.708 -293.60986 4294967003
578.87408 2478.5039 -293.62393 4294967003
579.09406 2480.3359 -293.95239 4294967003
591.60333 2541.1697 -293.12506 4294967003
591.86133 2544.9351 -293.41129 4294967003
591.90222 2547.3374 -293.30878 4294967003
560.1106 2209.7217 -292.44293 4294967004
560.67743 2218.9463 -292.27176 4294967004
549.33099 2234.9961 -292.45401 4294967004
557.57159 2234.9722 -292.68073 4294967004
559.25311 2234.5535 -292.89099 4294967004
561.05298 2233.5161 -292.4704 4294967004
553.73425 2235.1125 -292.89505 4294967004
568.55603 2377.4224 -292.23901 4294967004
568.8501 2380.8904 -292.38733 4294967004
570.11877 2383.8389 -292.16086 4294967004
568.60449 2386.1182 -292.60968 4294967004
570.28876 2386.844 -292.17651 4294967004
568.4314 2388.7341 -292.77936 4294967004
570.43335 2390.6614 -292.42862 4294967004
570.54523 2392.7961 -292.64185 4294967004
571.71887 2392.8645 -292.03766 4294967004
571.68683 2394.968 -292.36465 4294967004
572.35828 2398.791 -292.57483 4294967004
572.62317 2402.0371 -292.48441 4294967004
572.47766 2404.9307 -292.70346 4294967004
572.56177 2406.6736 -292.77151 4294967004
573.62164 2419.01 -292.88055 4294967004
574.43958 2422.8208 -292.80322 4294967004
575.10797 2424.6013 -292.20059 4294967004
575.28204 2428.6345 -292.05478 4294967004
575.5946 2432.8367 -292.16675 4294967004
576.01813 2436.8594 -292.15067 4294967004
576.35461 2440.8396 -292.17172 4294967004
576.41364 2442.863 -292.15988 4294967004
576.72046 2446.6565 -292.10382 4294967004
577.21838 2450.5168 -292.04431 4294967004
577.35779 2455.7239 -292.13232 4294967004
577.68726 2460.8782 -292.2663 4294967004
578.18066 2464.8347 -292.7681 4294967004
581.31085 2522.1006 -292.80945 4294967004
581.2027 2525.6616 -292.91992 4294967004
581.58459 2527.7654 -292.71332 4294967004
582.06976 2528.7092 -292.97241 4294967004
585.31769 2530.4626 -292.95804 4294967004
586.91296 2531.0542 -292.86755 4294967004
589.685 2533.3186 -292.70062 4294967004
590.84174 2535.5696 -292.6925 4294967004
591.32776 2538.0857 -292.86969 4294967004
591.73901 2543.21 -292.49872 4294967004
591.80237 2549.9031 -292.76111 4294967004
591.21399 2551.2729 -292.5426 4294967004
570.53491 2555.0273 -292.84537 4294967004
586.62872 2553.8391 -292.67783 4294967004
588.54169 2553.2805 -292.51712 4294967004
568.76898 2559.0923 -292.89505 4294967004
560.36188 2213.5874 -291.991 4294967005
560.53217 2216.3176 -291.9166 4294967005
560.81055 2221.415 -291.06287 4294967005
561.01611 2224.2737 -291.53168 4294967005
561.56158 2229.7483 -291.09595 4294967005
561.57324 2232.1765 -291.14145 4294967005
570.21405 2374.8616 -291.25461 4294967005
569.61029 2378.6794 -291.89117 4294967005
570.05688 2376.7712 -291.49576 4294967005
569.87354 2380.7844 -291.98987 4294967005
571.28094 2380.8745 -291.01248 4294967005
571.82904 2386.9534 -291.04089 4294967005
571.72937 2389.8713 -291.5282 4294967005
573.01892 2397.0369 -291.32108 4294967005
573.49463 2404.5923 -291.43097 4294967005
573.53735 2408.0063 -291.67688 4294967005
573.65167 2410.9373 -291.86191 4294967005
573.59149 2412.8875 -291.82916 4294967005
574.08936 2416.4712 -291.6257 4294967005
574.47937 2419.4297 -291.6286 4294967005
575.25336 2425.5713 -291.10852 4294967005
576.63068 2444.8423 -291.9559 4294967005
577.1875 2452.9617 -291.96274 4294967005
577.59467 2458.9075 -291.69897 4294967005
578.11035 2462.9553 -291.57846 4294967005
591.77026 2544.8293 -291.48273 4294967005
591.67694 2547.7639 -291.00198 4294967005
570.46411 2555.2014 -291.06812 4294967005
560.24548 2211.8237 -290.40009 4294967006
560.45587 2215.0613 -290.55884 4294967006
560.60498 2217.6694 -290.71875 4294967006
561.2132 2226.8662 -290.96869 4294967006
560.9563 2234.3718 -290.71359 4294967006
551.40106 2235.7671 -290.97549 4294967006
553.48444 2235.8855 -290.95258 4294967006
558.08313 2235.6733 -290.80029 4294967006
571.40479 2378.9363 -290.41135 4294967006
571.73846 2383.8149 -290.92786 4294967006
572.35046 2386.7043 -290.10892 4294967006
572.8288 2392.7415 -290.23981 4294967006
572.94537 2394.6418 -290.58456 4294967006
573.38599 2398.7444 -290.86798 4294967006
573.61658 2402.7673 -290.74426 4294967006
574.10358 2408.9807 -290.12982 4294967006
574.21649 2413.0903 -290.34238 4294967006
574.68372 2416.5725 -290.09848 4294967006
574.75928 2418.5867 -290.36105 4294967006
575.01141 2420.6934 -290.6207 4294967006
575.0401 2422.5308 -290.90128 4294967006
575.46313 2428.9553 -290.9086 4294967006
575.71472 2431.6631 -290.64377 4294967006
575.99683 2434.7576 -290.737 4294967006
576.63861 2438.936 -290.87216 4294967006
576.54596 2440.9521 -290.81723 4294967006
576.77936 2443.7676 -290.32678 4294967006
577.16583 2446.6819 -290.42953 4294967006
577.2522 2448.644 -290.41998 4294967006
581.27136 2522.8818 -290.84686 4294967006
581.19885 2525.8699 -290.97772 4294967006
581.47101 2527.5266 -290.77325 4294967006
583.02411 2529.6282 -290.84543 4294967006
585.38104 2530.6345 -290.75095 4294967006
588.68994 2532.6855 -290.65762 4294967006
590.15796 2534.7434 -290.34866 4294967006
590.99023 2537.2595 -290.72745 4294967006
591.39313 2539.7646 -290.97153 4294967006
591.62891 2542.24 -290.95789 4294967006
591.35962 2549.6875 -290.7941 4294967006
572.16486 2554.2815 -290.99228 4294967006
581.43359 2553.7849 -290.80255 4294967006
568.79382 2559.1638 -290.36557 4294967006
560.52753 2216.3928 -289.80136 4294967007
560.63556 2218.8457 -289.21304 4294967007
561.73035 2231.8547 -289.49561 4294967007
571.57153 2377.9456 -289.69238 4294967007
573.09918 2394.5869 -289.3024 4294967007
573.46082 2398.6714 -289.20987 4294967007
577.31598 2450.8308 -289.5835 4294967007
577.44092 2452.8887 -289.88855 4294967007
577.56543 2454.8333 -289.56552 4294967007
577.71045 2457.9343 -289.87445 4294967007
577.97589 2460.8262 -289.68253 4294967007
578.12091 2462.7209 -289.70865 4294967007
581.53119 2527.7705 -289.32034 4294967007
582.10999 2528.8774 -289.23477 4294967007
583.1424 2529.6084 -289.11691 4294967007
584.90576 2530.4915 -289.20538 4294967007
586.89594 2531.45 -289.96951 4294967007
591.17963 2538.7244 -289.20956 4294967007
591.65552 2543.5193 -289.19214 4294967007
591.63727 2546.0017 -289.21326 4294967007
589.99133 2552.6577 -289.0072 4294967007
590.55115 2550.7827 -289.09113 4294967007
568.97876 2559.5728 -289.08624 4294967007
560.9585 2224.8804 -288.9404 4294967008
561.14203 2226.9658 -288.71765 4294967008
561.32037 2234.8845 -288.8941 4294967008
553.90302 2237.4565 -288.71005 4294967008
559.69543 2236.8267 -288.73953 4294967008
560.89941 2236.2527 -288.28384 4294967008
571.86707 2376.8132 -288.30722 4294967008
572.13342 2378.6772 -288.14676 4294967008
572.28461 2380.7456 -288.35349 4294967008
572.78229 2384.7778 -288.91318 4294967008
572.93597 2388.6467 -288.91672 4294967008
573.04883 2390.7173 -288.47562 4294967008
573.18555 2396.6565 -288.65591 4294967008
573.87396 2400.7241 -288.39496 4294967008
574.02332 2402.6057 -288.63837 4294967008
574.22278 2404.7295 -288.87064 4294967008
574.38281 2406.7683 -288.5455 4294967008
574.72412 2413.9414 -288.13995 4294967008
581.20471 2524.6599 -288.95972 4294967008
588.2301 2532.3682 -288.93262 4294967008
589.35089 2533.4578 -288.94232 4294967008
590.01105 2534.6226 -288.38614 4294967008
590.63959 2536.5862 -288.13409 4294967008
591.46075 2540.9075 -288.85123 4294967008
591.22363 2548.4307 -288.57669 4294967008
570.38123 2555.2881 -288.75018 4294967008
582.06165 2553.8154 -288.50034 4294967008
586.64777 2554.0256 -288.84793 4294967008
588.70935 2553.3635 -288.79694 4294967008
569.31885 2557.123 -288.88495 4294967008
561.39191 2228.8877 -287.24469 4294967009
561.79352 2231.7756 -287.59097 4294967009
551.46356 2238.0115 -287.99399 4294967009
553.51886 2238.5098 -287.69348 4294967009
557.64398 2238.5188 -287.68536 4294967009
558.8222 2238.4436 -287.61963 4294967009
571.58228 2371.6348 -287.92929 4294967009
571.85931 2374.541 -287.96802 4294967009
573.16766 2392.6877 -287.67813 4294967009
574.44727 2408.801 -287.96698 4294967009
574.83643 2416.752 -287.50375 4294967009
574.99146 2418.6292 -287.6217 4294967009
575.10199 2420.7781 -287.54486 4294967009
575.20282 2422.5176 -287.76096 4294967009
581.28101 2522.7393 -287.35184 4294967009
581.38269 2526.9204 -287.13257 4294967009
582.02924 2528.9568 -287.04913 4294967009
584.18982 2530.1558 -287.50888 4294967009
586.72101 2531.5684 -287.37253 4294967009
588.57147 2532.7981 -287.64963 4294967009
589.43219 2533.7571 -287.61673 4294967009
591.31287 2539.8818 -287.2074 4294967009
591.55554 2542.3025 -287.11276 4294967009
591.53259 2545.5371 -287.50925 4294967009
588.79669 2552.1973 -287.19748 4294967009
571.00769 2555.1104 -287.14804 4294967009
585.74884 2553.4333 -287.04459 4294967009
561.32782 2236.8147 -286.86627 4294967010
557.3714 2240.9138 -286.61472 4294967010
560.07855 2240.5608 -286.16666 4294967010
561.03253 2238.7219 -286.34915 4294967010
557.90295 2242.4224 -286.15192 4294967010
562.84991 2261.0776 -286.29248 4294967010
561.75586 2264.8416 -286.98703 4294967010
561.87103 2268.9163 -286.75809 4294967010
563.13281 2270.9946 -286.39822 4294967010
563.91785 2273.5508 -286.24109 4294967010
564.47168 2276.6858 -286.08618 4294967010
572.12708 2376.4382 -286.07016 4294967010
572.63678 2382.8186 -286.60339 4294967010
572.85803 2390.7241 -286.0889 4294967010
573.04919 2394.3887 -286.47693 4294967010
573.3681 2398.6243 -286.5704 4294967010
587.71149 2532.353 -286.0705 4294967010
588.41632 2532.8904 -286.57623 4294967010
589.83765 2534.7681 -286.8494 4294967010
590.8548 2537.5515 -286.23526 4294967010
591.55084 2543.7002 -286.15408 4294967010
591.42126 2545.4104 -286.00027 4294967010
590.17999 2549.9956 -286.40668 4294967010
572.05548 2554.5728 -286.96545 4294967010
578.01276 2553.908 -286.82654 4294967010
569.41608 2557.0259 -286.92603 4294967010
568.99744 2559.4741 -286.83453 4294967010
569.38281 2562.4287 -286.8486 4294967010
561.78528 2231.4646 -285.39911 4294967011
561.78577 2233.5964 -285.76831 4294967011
561.66058 2237.1333 -285.50049 4294967011
561.573 2240.8054 -285.31497 4294967011
560.81989 2242.5022 -285.53931 4294967011
561.14667 2243.2129 -285.15912 4294967011
563.52271 2260.772 -285.06305 4294967011
563.10089 2266.8274 -285.64996 4294967011
563.10126 2268.8752 -285.8172 4294967011
571.95868 2374.6851 -285.62201 4294967011
572.28687 2378.8667 -285.5809 4294967011
572.4375 2380.77 -285.80792 4294967011
572.5412 2387.2209 -285.05734 4294967011
572.9613 2392.7354 -285.76434 4294967011
573.07971 2396.3381 -285.05417 4294967011
573.44043 2400.4004 -285.2016 4294967011
573.79663 2404.8992 -285.5423 4294967011
581.08075 2526.094 -285.03622 4294967011
584.55908 2530.4114 -285.38977 4294967011
586.68884 2531.7444 -285.3006 4294967011
590.33582 2536.0911 -285.8688 4294967011
591.40234 2540.5974 -285.92087 4294967011
591.50653 2542.2712 -285.30017 4294967011
590.82404 2548.0798 -285.68832 4294967011
586.81396 2552.8357 -285.26614 4294967011
574.46094 2554.3091 -285.17868 4294967011
581.83813 2553.7288 -285.6893 4294967011
584.53613 2553.4275 -285.08365 4294967011
561.80017 2239.3169 -284.24283 4294967012
561.59314 2244.1941 -284.82138 4294967012
563.46497 2258.8752 -284.97733 4294967012
563.52374 2263.8789 -284.82239 4294967012
563.75024 2266.5864 -284.12961 4294967012
565.10266 2274.79 -284.21292 4294967012
573.55371 2402.7554 -284.91122 4294967012
581.28223 2522.9236 -284.97211 4294967012
582.0545 2528.833 -284.71368 4294967012
587.89307 2532.7644 -284.78592 4294967012
589.32391 2534.425 -284.84952 4294967012
590.42822 2536.5537 -284.66705 4294967012
591.24005 2539.6763 -284.58374 4294967012
591.24756 2545.0491 -284.43079 4294967012
590.57538 2548.0513 -284.17279 4294967012
588.59509 2551.5344 -284.78064 4294967012
570.96039 2555.2017 -284.79599 4294967012
578.58405 2553.915 -284.01651 4294967012
580.95166 2553.7368 -284.17532 4294967012
569.33008 2557.083 -284.9606 4294967012
561.75629 2233.5669 -283.07867 4294967013
561.90717 2236.3584 -283.67197 4294967013
562.79199 2251.7495 -283.64697 4294967013
563.11426 2254.5022 -283.53064 4294967013
563.55035 2256.6257 -283.3725 4294967013
563.73175 2264.7324 -283.74597 4294967013
571.61676 2374.8286 -283.02164 4294967013
571.87671 2377.7637 -283.25586 4294967013
572.75702 2392.9438 -283.06125 4294967013
573.16644 2398.6533 -283.70181 4294967013
573.37793 2402.9563 -283.00412 4294967013
583.92096 2529.9822 -283.12198 4294967013
586.22205 2531.6716 -283.17157 4294967013
588.25848 2533.3884 -283.24384 4294967013
590.59509 2537.1313 -283.61649 4294967013
591.07434 2538.864 -283.06866 4294967013
591.44971 2542.4805 -283.77185 4294967013
591.31427 2544.1812 -283.44666 4294967013
589.76569 2549.6626 -283.84961 4294967013
587.09021 2552.4795 -283.96622 4294967013
588.82227 2550.8589 -283.28134 4294967013
570.91559 2555.2217 -283.05161 4294967013
580.58081 2553.7087 -283.02264 4294967013
582.61493 2553.563 -283.9025 4294967013
585.03625 2553.1001 -283.35696 4294967013
563.88043 2259.8965 -282.73654 4294967014
564.0368 2262.792 -282.0347 4294967014
564.32373 2269.1387 -282.59384 4294967014
572.02094 2380.7175 -282.83926 4294967014
572.94525 2396.5657 -282.56631 4294967014
573.26959 2400.9417 -282.98901 4294967014
573.65771 2406.7644 -282.51263 4294967014
581.06885 2525.7734 -282.40021 4294967014
581.36407 2527.5698 -282.92343 4294967014
588.60266 2533.8484 -282.22012 4294967014
589.56921 2535.1306 -282.73557 4294967014
591.33618 2540.8252 -282.58115 4294967014
591.32422 2542.9607 -282.25146 4294967014
591.01068 2545.1997 -282.2135 4294967014
589.38147 2549.6062 -282.1149 4294967014
590.21564 2547.8357 -282.09702 4294967014
586.67004 2552.3787 -282.61389 4294967014
587.70837 2551.8215 -282.99597 4294967014
589.17175 2550.2195 -282.72842 4294967014
572.27704 2554.6062 -282.91864 4294967014
575.19965 2554.269 -282.23227 4294967014
580.58008 2553.6648 -282.09314 4294967014
581.78937 2553.5605 -282.5618 4294967014
583.50403 2553.3396 -282.61279 4294967014
568.84766 2557.7563 -282.94043 4294967014
569.59869 2556.1287 -282.83762 4294967014
562.1123 2239.324 -281.56757 4294967015
562.62689 2244.1606 -281.75119 4294967015
563.3313 2254.7349 -281.78867 4294967015
563.64081 2257.7139 -281.60413 4294967015
564.09247 2264.5933 -281.96088 4294967015
564.79193 2272.6919 -281.71066 4294967015
564.84369 2274.2834 -281.06741 4294967015
582.52423 2528.5193 -281.26102 4294967015
584.62463 2530.5513 -281.34366 4294967015
587.66742 2532.9773 -281.77948 4294967015
588.75171 2534.1633 -281.23041 4294967015
590.50275 2537.0767 -281.9458 4294967015
591.05524 2538.9827 -281.37317 4294967015
585.70282 2552.6206 -281.7085 4294967015
587.02338 2551.854 -281.46542 4294967015
588.4198 2550.7566 -281.81311 4294967015
578.80273 2553.8657 -281.32443 4294967015
580.95569 2553.6064 -281.52994 4294967015
582.50562 2553.4194 -281.58475 4294967015
584.02917 2553.1309 -281.54089 4294967015
572.39941 2390.1885 -280.11841 4294967016
572.61572 2393.166 -280.46667 4294967016
572.79492 2395.8713 -280.66129 4294967016
573.00006 2399.0813 -280.72095 4294967016
573.1842 2401.9839 -280.88126 4294967016
573.349 2404.3101 -280.93082 4294967016
581.17859 2525.9375 -280.97449 4294967016
586.25092 2531.9119 -280.72742 4294967016
589.71057 2535.5557 -280.86261 4294967016
590.47656 2537.2112 -280.24512 4294967016
591.17004 2542.5127 -280.69141 4294967016
590.6153 2546.1804 -280.79575 4294967016
588.95404 2549.6443 -280.61224 4294967016
584.40112 2552.9109 -280.41498 4294967016
585.79974 2552.3201 -280.12048 4294967016
587.43701 2551.1978 -280.09607 4294967016
570.80585 2555.303 -280.78619 4294967016
572.18213 2554.697 -280.95282 4294967016
580.64496 2553.6423 -280.25412 4294967016
562.59125 2244.8125 -279.97998 4294967017
563.04205 2250.9985 -279.78491 4294967017
563.24481 2254.4858 -279.27649 4294967017
563.6925 2260.7419 -279.52005 4294967017
573.22046 2403.5117 -279.64764 4294967017
581.17371 2524.3979 -279.03302 4294967017
581.50873 2527.824 -279.34418 4294967017
586.58301 2532.3362 -279.17773 4294967017
587.79517 2533.3184 -279.96619 4294967017
588.94385 2534.5466 -279.95862 4294967017
589.67651 2535.6904 -279.26669 4294967017
590.97809 2539.1738 -279.63947 4294967017
591.14038 2541.4858 -279.05936 4294967017
590.6192 2545.7612 -279.43533 4294967017
589.79395 2547.9504 -279.47598 4294967017
570.81561 2555.0615 -279.00809 4294967017
575.01776 2554.3735 -279.72818 4294967017
580.46771 2553.6958 -279.0444 4294967017
582.35968 2553.3899 -279.66956 4294967017
562.57458 2246.7976 -278.77341 4294967018
572.12701 2387.4268 -278.11035 4294967018
572.51514 2392.7063 -278.66895 4294967018
572.66266 2394.9565 -278.83734 4294967018
572.87244 2398.5557 -278.41159 4294967018
573.0907 2401.9553 -278.57104 4294967018
573.41028 2406.3867 -278.72549 4294967018
584.87292 2530.9556 -278.75439 4294967018
586.3916 2532.292 -278.06094 4294967018
587.58301 2533.3416 -278.03125 4294967018
588.69867 2534.4438 -278.64142 4294967018
590.37708 2537.3049 -278.52045 4294967018
590.92621 2543.9336 -278.39709 4294967018
584.10797 2552.9297 -278.96463 4294967018
586.01825 2552.0586 -278.16208 4294967018
588.22784 2550.1782 -278.70163 4294967018
578.39526 2553.998 -278.51669 4294967018
562.34143 2245.9307 -277.30341 4294967019
572.63373 2394.9404 -277.27032 4294967019
582.73022 2529.0952 -277.93295 4294967019
585.88184 2531.9375 -277.41757 4294967019
588.56219 2534.4658 -277.24881 4294967019
589.47418 2535.677 -277.63406 4294967019
590.88177 2539.313 -277.79727 4294967019
591.00183 2541.6948 -277.08542 4294967019
590.30426 2546.3403 -277.79135 4294967019
589.22546 2548.6853 -277.29654 4294967019
580.37476 2553.7969 -277.73001 4294967019
582.15259 2553.5391 -277.49478 4294967019
583.95148 2553.0652 -277.53354 4294967019
569.06635 2556.8291 -277.01456 4294967019
572.32562 2390.4724 -276.82263 4294967020
572.49353 2392.8979 -276.4415 4294967020
572.7688 2397.2065 -276.49561 4294967020
572.94806 2400.0701 -276.32211 4294967020
573.1947 2403.8403 -276.14462 4294967020
573.42639 2407.2813 -276.41827 4294967020
581.30438 2527.6711 -276.80023 4294967020
583.8783 2530.3123 -276.48828 4294967020
585.38385 2531.6426 -276.12582 4294967020
586.84613 2532.8369 -276.60645 4294967020
587.96716 2533.917 -276.53128 4294967020
590.19678 2537.3318 -276.68903 4294967020
590.72955 2544.2568 -276.36948 4294967020
584.71771 2552.9009 -276.6254 4294967020
586.13416 2552.1985 -276.04245 4294967020
587.71863 2550.7371 -276.76804 4294967020
574.88818 2554.511 -276.9772 4294967020
580.4964 2553.8862 -276.51788 4294967020
569.62549 2566.897 -276.87262 4294967020
572.12842 2388.0732 -275.8428 4294967021
572.66553 2395.2476 -275.0426 4294967021
572.83765 2398.0713 -275.04611 4294967021
587.82867 2533.8955 -275.48193 4294967021
589.02411 2535.3354 -275.71957 4294967021
590.73309 2539.4866 -275.85843 4294967021
590.8421 2541.9336 -275.01544 4294967021
589.99896 2546.8418 -275.76218 4294967021
588.90601 2549.2524 -275.31662 4294967021
578.41022 2554.2507 -275.11758 4294967021
581.0777 2553.8884 -275.81305 4294967021
582.98181 2553.5542 -275.83414 4294967021
584.63495 2553.1404 -275.0954 4294967021
568.76794 2568.7856 -275.38223 4294967021
562.32159 2248.7627 -274.59778 4294967022
572.45734 2392.239 -274.49387 4294967022
573.13983 2402.6025 -274.379 4294967022
581.12103 2525.5447 -274.76752 4294967022
582.79645 2529.312 -274.62262 4294967022
584.33167 2530.8252 -274.57614 4294967022
585.59924 2531.9368 -274.22903 4294967022
586.88361 2533.0266 -274.71826 4294967022
588.28528 2534.4866 -274.19632 4294967022
590.09027 2537.5093 -274.76041 4294967022
590.48767 2544.6206 -274.15942 4294967022
586.08826 2552.5085 -274.32819 4294967022
587.52576 2551.1479 -274.87634 4294967022
574.90344 2554.5911 -274.94086 4294967022
581.2384 2554.0356 -274.47308 4294967022
568.45117 2559.0745 -274.50439 4294967022
572.02234 2386.7705 -273.99982 4294967023
572.25891 2389.6538 -273.79465 4294967023
572.86761 2397.7554 -273.45593 4294967023
573.02631 2400.2881 -273.4581 4294967023
573.39996 2406.0386 -273.34863 4294967023
585.02386 2531.4666 -273.36835 4294967023
585.84924 2532.1541 -273.09399 4294967023
586.54065 2532.7402 -273.40799 4294967023
587.60474 2533.7456 -273.02408 4294967023
589.31866 2535.9778 -273.6546 4294967023
590.61694 2539.6726 -273.85443 4294967023
588.63641 2549.8323 -273.39374 4294967023
589.7312 2547.3792 -273.63406 4294967023
587.32898 2551.6504 -273.13477 4294967023
583.09802 2553.8474 -273.65533 4294967023
584.81726 2553.311 -273.69574 4294967023
571.94226 2385.7329 -272.12329 4294967024
572.52747 2392.5732 -272.44727 4294967024
573.22174 2402.9116 -272.66208 4294967024
581.3717 2527.8416 -272.95605 4294967024
584.24274 2530.7366 -272.35001 4294967024
585.47784 2531.8262 -272.48203 4294967024
588.61011 2534.9216 -272.73581 4294967024
590.05603 2537.7429 -272.81757 4294967024
590.65228 2542.1101 -272.82721 4294967024
585.93274 2552.8975 -272.74615 4294967024
570.97156 2555.4602 -272.98431 4294967024
580.69049 2554.3745 -272.41815 4294967024
584.47516 2553.6902 -272.42563 4294967024
568.70929 2558.0293 -272.67926 4294967024
568.16748 2560.7568 -272.82089 4294967024
568.08325 2564.5186 -272.99179 4294967024
567.66534 2566.7974 -272.76126 4294967024
572.13458 2387.9309 -271.72314 4294967025
572.34082 2390.0264 -271.11365 4294967025
572.82813 2396.1816 -271.99625 4294967025
573.02893 2398.7764 -271.39191 4294967025
573.21082 2401.3672 -271.03513 4294967025
585.56903 2531.8545 -271.5871 4294967025
586.62238 2532.7803 -271.94522 4294967025
588.07336 2534.2786 -271.20139 4294967025
589.28479 2536.0525 -271.67963 4294967025
590.45197 2539.7305 -271.87363 4294967025
590.26093 2545.0364 -271.39319 4294967025
589.43591 2548.313 -271.67532 4294967025
587.00092 2552.2556 -271.76553 4294967025
588.29163 2550.7732 -271.45975 4294967025
572.4469 2554.907 -271.11414 4294967025
577.47131 2554.6213 -271.68707 4294967025
583.07739 2554.196 -271.86765 4294967025
584.28339 2553.9692 -271.51755 4294967025
572.55719 2392.1282 -270.49509 4294967026
572.79327 2394.5276 -270.0119 4294967026
573.43457 2404.905 -270.76538 4294967026
581.04126 2525.9829 -270.74115 4294967026
582.48047 2528.9321 -270.80466 4294967026
583.82715 2530.3667 -270.66653 4294967026
585.00793 2531.3782 -270.38052 4294967026
586.13776 2532.2883 -270.73682 4294967026
587.00446 2533.082 -270.15894 4294967026
588.78284 2535.2932 -270.09201 4294967026
589.68982 2537.1387 -270.54401 4294967026
590.26239 2539.5098 -270.0065 4294967026
590.47107 2541.7908 -270.7002 4294967026
587.29053 2552.2434 -270.57956 4294967026
582.1095 2554.5452 -270.53555 4294967026
583.9223 2554.2412 -270.74521 4294967026
585.66217 2553.4573 -270.96292 4294967026
568.56226 2558.0608 -270.81631 4294967026
567.54877 2562.1101 -270.98227 4294967026
566.69519 2566.7322 -270.66345 4294967026
566.40765 2568.9919 -270.96146 4294967026
572.03888 2386.5957 -269.9646 4294967027
572.23364 2388.5603 -269.70322 4294967027
573.02795 2397.0977 -269.41803 4294967027
581.19257 2524.2358 -269.07465 4294967027
583.77808 2530.4104 -269.04956 4294967027
586.08496 2532.2429 -269.63971 4294967027
587.95001 2534.1736 -269.26559 4294967027
589.75861 2537.666 -269.24374 4294967027
590.33264 2543.3145 -269.16644 4294967027
589.50403 2548.3979 -269.90137 4294967027
586.90826 2552.9163 -269.65265 4294967027
588.26184 2551.4475 -269.26294 4294967027
579.72119 2554.729 -269.95895 4294967027
583.61707 2554.5466 -269.51056 4294967027
584.82477 2554.301 -269.46686 4294967027
585.95331 2553.8552 -269.13214 4294967027
566.55975 2564.6174 -269.20688 4294967027
571.94299 2385.4512 -268.5372 4294967028
572.44696 2390.3735 -268.84113 4294967028
572.72876 2392.7856 -268.13702 4294967028
573.23511 2399.7039 -268.94794 4294967028
573.39899 2402.2537 -268.82547 4294967028
573.52026 2404.5828 -268.84875 4294967028
573.62518 2406.8462 -268.69769 4294967028
581.33295 2527.739 -268.89734 4294967028
585.29156 2531.6567 -268.56567 4294967028
586.73883 2532.9004 -268.36697 4294967028
588.91663 2535.7783 -268.3866 4294967028
590.00909 2539.1655 -268.2583 4294967028
590.28253 2541.0994 -268.80023 4294967028
590.18732 2545.4014 -268.92258 4294967028
589.75024 2547.9517 -268.21683 4294967028
587.31036 2552.9941 -268.32788 4294967028
588.99933 2550.5525 -268.03897 4294967028
589.06451 2550.1248 -268.95419 4294967028
581.91748 2554.8232 -268.21298 4294967028
584.21368 2554.6306 -268.08572 4294967028
585.50439 2554.3157 -268.12128 4294967028
568.33881 2558.1492 -268.92001 4294967028
567.46826 2559.7825 -268.99231 4294967028
566.80127 2562.6716 -268.85464 4294967028
566.08325 2566.8962 -268.85324 4294967028
572.22516 2387.8604 -267.22629 4294967029
573.00793 2395.3491 -267.46536 4294967029
573.6554 2405.4011 -267.02759 4294967029
587.84143 2534.157 -267.69431 4294967029
589.50623 2537.4492 -267.51279 4294967029
590.05933 2540.4741 -267.2345 4294967029
590.15601 2542.4502 -267.13797 4294967029
590.14783 2544.9473 -267.36768 4294967029
588.47656 2551.877 -267.11792 4294967029
579.2757 2554.9919 -267.12695 4294967029
586.54688 2553.8831 -267.67062 4294967029
566.48456 2561.8616 -267.02582 4294967029
566.58051 2580.9917 -267.18439 4294967029
571.92725 2385.1199 -266.8595 4294967030
572.59247 2390.7939 -266.50113 4294967030
573.2655 2397.9663 -266.72198 4294967030
573.46527 2400.6438 -266.42651 4294967030
573.58551 2403.2231 -266.73248 4294967030
581.2226 2525.728 -266.93915 4294967030
581.32611 2527.6621 -266.90268 4294967030
581.91388 2529.1174 -266.93216 4294967030
584.30103 2531.0227 -266.94885 4294967030
585.76062 2532.1326 -266.99231 4294967030
586.96948 2533.3 -266.36108 4294967030
588.32611 2535.0525 -266.19958 4294967030
589.04077 2536.2842 -266.91766 4294967030
589.73151 2538.9116 -266.44034 4294967030
590.08624 2544.2551 -266.27454 4294967030
589.83673 2547.8201 -266.24304 4294967030
589.38177 2550.0793 -266.49097 4294967030
583.52948 2554.8467 -266.56586 4294967030
585.79529 2554.3711 -266.42209 4294967030
586.86969 2553.896 -266.81061 4294967030
587.40649 2553.4836 -266.48074 4294967030
567.11462 2559.8455 -266.7569 4294967030
565.90558 2564.9976 -266.85843 4294967030
565.74664 2566.8379 -266.90625 4294967030
572.03668 2385.8293 -265.36502 4294967031
572.46289 2389.3384 -265.44452 4294967031
572.96515 2393.5562 -265.28799 4294967031
573.23621 2396.238 -265.1503 4294967031
589.12445 2536.9207 -265.55719 4294967031
589.82813 2540.8284 -265.23892 4294967031
589.72699 2549.2109 -265.0882 4294967031
588.32617 2552.6853 -265.27628 4294967031
589.08044 2551.3374 -265.48523 4294967031
572.31177 2387.8301 -264.25278 4294967032
573.68286 2402.0024 -264.285 4294967032
581.25769 2525.6135 -264.64246 4294967032
583.34369 2530.5063 -264.88516 4294967032
585.46222 2532.0615 -264.76013 4294967032
587.44867 2533.9988 -264.26492 4294967032
588.46857 2535.5359 -264.36191 4294967032
589.44263 2538.7139 -264.37866 4294967032
589.93176 2543.2029 -264.92191 4294967032
589.93005 2545.6631 -264.54138 4294967032
589.86371 2547.9888 -264.11133 4294967032
589.51538 2550.3511 -264.88443 4294967032
581.36737 2555.1948 -264.62363 4294967032
584.23419 2554.9211 -264.95908 4294967032
585.96008 2554.6101 -264.31384 4294967032
587.37958 2553.8374 -264.65942 4294967032
565.94238 2562.7305 -264.98685 4294967032
565.59448 2566.6047 -264.79922 4294967032
566.73761 2583.0149 -264.97397 4294967032
572.02954 2385.3003 -263.39789 4294967033
572.6842 2390.6011 -263.84372 4294967033
573.29602 2395.7102 -263.39056 4294967033
573.55005 2398.7964 -263.16861 4294967033
586.64301 2533.1189 -263.13565 4294967033
588.85828 2536.8992 -263.02875 4294967033
589.55212 2540.0747 -263.30887 4294967033
589.73853 2542.8857 -263.09439 4294967033
589.71869 2549.5718 -263.70145 4294967033
588.60596 2552.9187 -263.02023 4294967033
589.27716 2551.2712 -263.60135 4294967033
566.61212 2579.1008 -263.14612 4294967033
566.83685 2584.8645 -263.13919 4294967033
572.2818 2387.1018 -262.19788 4294967034
572.50458 2388.8257 -262.48822 4294967034
573.12079 2393.5564 -262.03659 4294967034
573.75323 2401.3506 -262.47644 4294967034
581.26196 2525.322 -262.92636 4294967034
581.55713 2528.2646 -262.76227 4294967034
583.44366 2530.6926 -262.60641 4294967034
585.63794 2532.0667 -262.98734 4294967034
587.51904 2534.2092 -262.3595 4294967034
588.17035 2535.1809 -262.83899 4294967034
589.29156 2538.7402 -262.62689 4294967034
589.81592 2546.0259 -262.43152 4294967034
589.8374 2548.5139 -262.65088 4294967034
579.1095 2555.2539 -262.52582 4294967034
584.31403 2555.3608 -262.65912 4294967034
587.78979 2554.3359 -262.67554 4294967034
566.5802 2559.9722 -262.95593 4294967034
572.48663 2388.3931 -261.29688 4294967035
581.84314 2529.2249 -261.01797 4294967035
585.5625 2532.1538 -261.02069 4294967035
