# .PCD v0.7 - Point Cloud Data file format
VERSION 0.7
FIELDS x y z rgba
SIZE 4 4 4 4
TYPE F F F U
COUNT 1 1 1 1
WIDTH 1147
HEIGHT 1
VIEWPOINT 0 0 0 1 0 0 0
POINTS 1147
DATA ascii
275.98474 2559.3762 -678.1582 4294966618
276.76346 2559.2056 -678.245 4294966618
123.60356 2563.6628 -678.56818 4294966618
125.46651 2563.7881 -678.82458 4294966618
207.32953 2564.8904 -678.15637 4294966618
209.50377 2564.751 -678.14075 4294966618
213.36133 2564.437 -678.1759 4294966618
215.26616 2564.3203 -678.19971 4294966618
227.41129 2563.3953 -678.11542 4294966618
229.46893 2563.2585 -678.00403 4294966618
231.40543 2563.196 -678.18408 4294966618
235.4538 2563.1536 -678.48578 4294966618
237.57475 2563.2356 -678.11273 4294966618
241.19771 2562.8181 -678.25995 4294966618
243.65616 2562.5332 -678.32898 4294966618
247.44481 2562.1885 -678.07776 4294966618
249.43253 2562.2026 -678.10565 4294966618
117.95491 2567.3743 -678.12018 4294966618
119.44791 2567.5244 -678.28235 4294966618
121.50235 2566.6948 -678.466 4294966618
123.67902 2566.9507 -678.71027 4294966618
125.83421 2566.8962 -678.90778 4294966618
159.37895 2567.9268 -678.11285 4294966618
163.68608 2567.6946 -678.14014 4294966618
167.49834 2567.4971 -678.28741 4294966618
177.50204 2566.8433 -678.24609 4294966618
179.62363 2566.7444 -678.22607 4294966618
181.48508 2566.4658 -678.75989 4294966618
183.41164 2566.4556 -678.28052 4294966618
185.27914 2566.3464 -678.16681 4294966618
191.34355 2566.0183 -678.07764 4294966618
195.2617 2565.7266 -678.34357 4294966618
197.26111 2565.5605 -678.37952 4294966618
203.34845 2565.1768 -678.27112 4294966618
205.51459 2565.0486 -678.18756 4294966618
117.66636 2568.0574 -678.09784 4294966618
121.32488 2568.1116 -678.36914 4294966618
125.44566 2569.3379 -678.29816 4294966618
127.32175 2568.8496 -678.44489 4294966618
129.72475 2568.6646 -678.6463 4294966618
131.4485 2569.1013 -678.2699 4294966618
137.38103 2568.6638 -678.57819 4294966618
147.28548 2568.7256 -678.23792 4294966618
149.31134 2568.6682 -678.29376 4294966618
153.53362 2568.4302 -678.27271 4294966618
157.53722 2568.0986 -678.02698 4294966618
333.58774 2531.8918 -677.81274 4294966619
335.68686 2531.7605 -677.87524 4294966619
337.74799 2531.9514 -677.58344 4294966619
293.50146 2534.6541 -677.94629 4294966619
297.54898 2534.4163 -677.96808 4294966619
299.40265 2534.2847 -677.91553 4294966619
301.45776 2534.1768 -677.90521 4294966619
303.72772 2533.9578 -677.80798 4294966619
307.57782 2533.6792 -677.98816 4294966619
309.1517 2533.5325 -677.95111 4294966619
311.31161 2533.3108 -677.95233 4294966619
325.59171 2532.4663 -677.9715 4294966619
329.71326 2532.1602 -677.83649 4294966619
331.41629 2532.0652 -677.91119 4294966619
340.73727 2532.113 -677.63049 4294966619
251.31186 2537.9355 -677.77966 4294966619
257.31424 2537.4629 -677.70184 4294966619
259.49924 2537.3384 -677.83966 4294966619
261.28134 2537.1431 -677.70319 4294966619
263.14905 2536.9832 -677.85303 4294966619
265.34427 2536.7974 -677.94922 4294966619
267.55548 2536.6084 -677.84857 4294966619
269.22305 2536.9607 -677.30536 4294966619
270.84079 2536.8428 -677.37366 4294966619
272.03308 2536.9028 -677.55164 4294966619
273.34952 2536.9763 -677.6759 4294966619
274.50577 2536.8184 -677.2149 4294966619
276.25778 2536.9937 -677.65002 4294966619
280.33417 2536.718 -677.65338 4294966619
282.82214 2536.54 -677.62317 4294966619
285.1196 2536.1746 -677.67999 4294966619
286.31876 2535.7456 -677.12799 4294966619
287.81744 2535.6904 -677.54486 4294966619
289.79468 2535.4526 -677.40588 4294966619
291.74677 2535.1741 -677.64417 4294966619
209.69331 2540.9597 -677.76178 4294966619
221.5513 2540.2947 -677.64417 4294966619
223.36449 2540.1387 -677.59998 4294966619
225.35835 2539.9717 -677.34814 4294966619
227.40405 2539.8486 -677.31757 4294966619
229.46733 2539.6504 -677.20563 4294966619
231.48785 2539.5271 -677.27051 4294966619
233.41141 2539.3254 -677.26141 4294966619
237.31747 2538.8674 -677.37964 4294966619
245.37888 2538.3159 -677.81006 4294966619
249.295 2538.1042 -677.802 4294966619
173.46422 2543.9263 -677.17194 4294966619
175.3172 2543.7625 -677.16504 4294966619
177.65515 2543.5679 -677.18671 4294966619
179.33783 2543.4993 -677.25311 4294966619
183.49472 2543.2043 -677.20013 4294966619
185.58031 2542.9351 -677.21069 4294966619
186.90521 2542.8801 -677.33289 4294966619
191.20834 2542.5422 -677.25873 4294966619
193.91429 2542.3064 -677.37439 4294966619
196.76425 2542.0388 -677.52948 4294966619
199.56969 2541.844 -677.53308 4294966619
201.25777 2541.8022 -677.83038 4294966619
203.382 2541.6165 -677.80408 4294966619
205.81244 2541.3877 -677.59326 4294966619
139.51279 2546.7839 -677.47156 4294966619
147.56982 2545.7644 -677.05341 4294966619
149.47647 2545.6526 -677.17786 4294966619
151.76355 2545.4529 -677.09344 4294966619
157.43112 2545.1636 -677.23492 4294966619
159.53714 2545.0378 -677.1756 4294966619
163.40401 2545.241 -677.74548 4294966619
165.05099 2545.1724 -677.78375 4294966619
167.49069 2545.0322 -677.85876 4294966619
169.87291 2544.2048 -677.02124 4294966619
117.38744 2549.9595 -677.21698 4294966619
119.41846 2549.9658 -677.51862 4294966619
121.09352 2549.8855 -677.72913 4294966619
123.72553 2548.5657 -677.35822 4294966619
125.54826 2548.3735 -677.73694 4294966619
129.24042 2547.7087 -677.578 4294966619
131.46553 2547.3999 -677.58124 4294966619
133.53806 2547.2603 -677.646 4294966619
135.41048 2547.198 -677.74805 4294966619
137.63354 2547.1509 -677.80554 4294966619
109.95029 2551.4316 -677.00299 4294966619
110.76451 2551.7268 -677.17279 4294966619
113.57833 2551.7073 -677.40826 4294966619
115.47163 2551.4731 -677.52252 4294966619
117.54651 2551.8091 -677.85101 4294966619
107.81905 2553.7849 -677.20203 4294966619
110.82316 2553.8181 -677.42981 4294966619
113.24922 2553.7073 -677.72131 4294966619
115.09569 2554.2141 -677.82123 4294966619
333.50082 2555.939 -677.96619 4294966619
335.60739 2555.8442 -677.97931 4294966619
340.21201 2555.2102 -677.43738 4294966619
109.14303 2556.6086 -677.04114 4294966619
110.90392 2556.5959 -677.20459 4294966619
113.1841 2556.6284 -677.37354 4294966619
114.8557 2558.769 -677.367 4294966619
117.77102 2556.7046 -677.76758 4294966619
280.62381 2558.9563 -677.48682 4294966619
285.2467 2558.6494 -677.94073 4294966619
287.12103 2558.5916 -677.82501 4294966619
295.36737 2558.5896 -677.99274 4294966619
297.42688 2558.4812 -677.97534 4294966619
299.59717 2558.238 -677.96613 4294966619
305.39893 2557.6951 -677.9837 4294966619
271.75574 2560.3276 -677.35364 4294966619
273.77521 2560.0037 -677.29034 4294966619
275.31018 2559.7593 -677.39624 4294966619
278.98514 2559.1274 -677.57056 4294966619
117.68976 2563.5437 -677.86145 4294966619
219.56165 2564.1106 -677.87769 4294966619
223.44942 2563.7751 -677.97668 4294966619
239.39981 2563.178 -677.96307 4294966619
245.28496 2562.4009 -677.87323 4294966619
111.30392 2565.8662 -677.65424 4294966619
113.80206 2567.4531 -677.8382 4294966619
115.34562 2567.0896 -677.93542 4294966619
175.72163 2567.0178 -677.99481 4294966619
187.51768 2566.2537 -677.90314 4294966619
199.90172 2565.469 -677.91583 4294966619
109.33531 2568.1499 -677.09949 4294966619
111.36202 2569.3562 -677.15417 4294966619
115.56441 2568.7898 -677.67523 4294966619
117.1084 2569.6382 -677.40057 4294966619
118.80834 2569.5388 -677.57208 4294966619
121.43849 2570.25 -677.10638 4294966619
123.27432 2569.7673 -677.867 4294966619
124.90233 2569.9021 -677.77991 4294966619
127.52969 2570.2119 -677.19141 4294966619
129.60631 2569.9177 -677.14154 4294966619
137.05554 2569.314 -677.40533 4294966619
139.72653 2569.187 -677.39941 4294966619
141.53519 2569.0374 -677.81036 4294966619
145.6394 2568.8699 -677.74084 4294966619
147.27049 2568.8721 -677.03015 4294966619
153.46658 2568.5815 -677.38232 4294966619
325.74832 2531.9199 -676.21167 4294966620
327.39368 2531.8118 -676.35712 4294966620
329.5394 2531.8135 -676.02545 4294966620
333.47171 2531.582 -676.23108 4294966620
335.42227 2531.229 -676.2204 4294966620
337.45026 2531.1531 -676.34015 4294966620
339.4201 2531.6858 -676.23108 4294966620
293.59918 2534.3667 -676.09784 4294966620
295.24075 2534.2634 -676.07941 4294966620
297.39236 2534.1006 -676.23651 4294966620
299.41327 2533.9534 -676.03955 4294966620
303.57745 2533.4741 -676.32202 4294966620
305.31583 2533.3694 -676.7392 4294966620
309.55127 2533.2415 -676.94678 4294966620
311.51361 2533.0903 -676.89783 4294966620
313.37024 2532.9543 -676.87408 4294966620
315.57431 2532.8245 -676.86237 4294966620
317.47144 2532.7158 -676.77179 4294966620
319.49481 2532.5576 -676.52771 4294966620
323.4682 2532.2417 -676.23358 4294966620
247.26868 2537.9629 -676.13861 4294966620
249.32449 2537.7512 -676.13708 4294966620
253.21117 2537.2266 -676.29559 4294966620
255.0661 2537.0889 -676.20258 4294966620
257.25122 2537.126 -676.00372 4294966620
263.31262 2536.6482 -676.00494 4294966620
265.44113 2536.4556 -676.11432 4294966620
267.54935 2536.3098 -676.09595 4294966620
278.50354 2536.3572 -676.22247 4294966620
280.94128 2536.1543 -676.36511 4294966620
282.26862 2535.9595 -676.04285 4294966620
209.49599 2540.8435 -676.21326 4294966620
221.37939 2539.7532 -676.2085 4294966620
225.33034 2539.6174 -676.0379 4294966620
235.43303 2538.8328 -676.04077 4294966620
243.7244 2538.0867 -676.05731 4294966620
180.96642 2543.0112 -676.09387 4294966620
193.58788 2541.9468 -676.07281 4294966620
201.50542 2541.1716 -676.32599 4294966620
203.1423 2541.0679 -676.21875 4294966620
205.33257 2541.1367 -676.27063 4294966620
135.06622 2546.3652 -676.11542 4294966620
145.3181 2545.386 -676.0144 4294966620
147.36528 2545.4141 -676.04474 4294966620
157.63661 2544.7432 -676.05768 4294966620
113.4745 2549.2417 -676.21521 4294966620
117.45366 2549.0452 -676.56238 4294966620
119.35127 2548.8157 -676.71912 4294966620
121.55466 2548.5466 -676.92444 4294966620
105.25173 2551.7654 -676.48077 4294966620
107.73166 2551.1167 -676.59058 4294966620
111.10036 2550.4365 -676.70068 4294966620
113.53993 2550.3677 -676.89996 4294966620
105.26471 2553.843 -676.83118 4294966620
339.27243 2555.9302 -676.07056 4294966620
103.88643 2556.5791 -676.23578 4294966620
282.96588 2558.9668 -676.4201 4294966620
285.73141 2558.9312 -676.27576 4294966620
291.34293 2558.676 -676.16455 4294966620
335.61758 2556.2854 -676.03143 4294966620
105.37148 2560.9028 -676.0965 4294966620
255.69888 2561.8186 -676.34021 4294966620
277.14252 2559.5603 -676.90924 4294966620
227.31473 2563.8555 -676.06464 4294966620
229.46469 2563.6873 -676.00287 4294966620
233.30949 2563.644 -676.08344 4294966620
241.27303 2563.241 -676.09332 4294966620
243.56557 2562.9221 -676.18384 4294966620
247.57826 2562.4041 -676.04126 4294966620
103.51083 2565.9058 -676.34027 4294966620
105.18265 2565.7061 -676.65051 4294966620
107.43439 2565.8511 -676.96008 4294966620
169.73608 2567.8137 -676.65149 4294966620
171.28265 2567.7241 -676.14667 4294966620
175.4613 2567.2976 -676.13068 4294966620
177.59213 2567.1697 -676.07507 4294966620
179.5226 2567.0466 -676.20782 4294966620
181.50314 2566.9006 -676.05261 4294966620
187.4464 2566.5227 -676.34546 4294966620
191.4381 2566.3293 -676.16394 4294966620
195.04514 2566.0588 -676.16589 4294966620
197.39265 2565.8931 -676.1178 4294966620
199.61032 2565.7219 -676.07617 4294966620
201.37967 2565.7561 -676.18237 4294966620
205.39621 2565.3403 -676.0672 4294966620
101.60833 2568.1858 -676.01794 4294966620
105.00686 2569.3093 -676.10376 4294966620
107.38537 2569.3047 -676.45148 4294966620
109.46375 2570.5657 -676.05011 4294966620
115.44127 2570.2642 -676.75531 4294966620
129.39859 2570.3245 -676.30273 4294966620
131.60265 2570.0994 -676.24042 4294966620
133.63036 2569.9998 -676.16833 4294966620
135.40158 2569.9526 -676.35406 4294966620
149.34956 2568.8027 -676.66461 4294966620
155.46103 2568.3894 -676.84296 4294966620
159.6467 2568.2156 -676.68225 4294966620
163.45995 2568.2522 -676.81287 4294966620
165.28302 2568.1177 -676.83154 4294966620
291.55249 2534.812 -675.98029 4294966621
261.39453 2536.8269 -675.99701 4294966621
271.12076 2536.5515 -675.94879 4294966621
273.28098 2536.5039 -675.89362 4294966621
275.66031 2536.3943 -675.69208 4294966621
284.28952 2535.7271 -675.75488 4294966621
287.27884 2535.3748 -675.77539 4294966621
289.23953 2535.0645 -675.27954 4294966621
213.11629 2540.4124 -675.95074 4294966621
223.18401 2539.7678 -675.94312 4294966621
227.55371 2539.4751 -675.85144 4294966621
241.32191 2538.2776 -675.98468 4294966621
167.76645 2543.7654 -675.7525 4294966621
173.37216 2543.469 -675.91003 4294966621
175.45549 2543.3403 -675.92847 4294966621
177.56567 2543.2161 -675.93945 4294966621
183.7298 2542.645 -675.74017 4294966621
187.36951 2542.3572 -675.59045 4294966621
196.90094 2541.7766 -675.95245 4294966621
131.74596 2546.6028 -675.87018 4294966621
139.158 2545.9258 -675.92566 4294966621
149.4917 2545.2598 -675.98364 4294966621
151.24585 2545.1304 -675.99713 4294966621
153.61488 2544.9561 -675.98828 4294966621
155.5665 2544.845 -675.97174 4294966621
159.58943 2544.5859 -675.90906 4294966621
161.25378 2544.4917 -675.9798 4294966621
165.02507 2544.262 -675.94849 4294966621
107.24944 2549.2322 -675.39984 4294966621
109.41837 2549.1079 -675.62878 4294966621
111.158 2549.137 -675.87842 4294966621
115.11755 2548.6782 -675.84448 4294966621
117.75633 2547.9658 -675.2818 4294966621
123.1644 2547.4844 -675.53967 4294966621
125.87674 2547.144 -675.53601 4294966621
127.30525 2547.0596 -675.8797 4294966621
103.62109 2550.1692 -675.65509 4294966621
100.85644 2553.5764 -675.86035 4294966621
288.0723 2558.7861 -675.89746 4294966621
295.37289 2558.9282 -675.66888 4294966621
297.37387 2558.843 -675.78644 4294966621
299.44748 2558.7427 -675.79248 4294966621
301.38364 2558.6062 -675.92303 4294966621
303.41068 2558.3982 -675.78137 4294966621
305.44778 2558.1765 -675.85858 4294966621
307.53448 2557.9412 -675.76337 4294966621
309.20795 2557.8088 -675.99384 4294966621
311.49176 2557.5688 -675.89856 4294966621
313.50882 2557.4387 -675.94257 4294966621
317.5867 2557.2471 -675.9306 4294966621
319.37802 2557.1533 -675.9906 4294966621
321.44568 2556.988 -675.92029 4294966621
323.65457 2556.7463 -675.96771 4294966621
325.44733 2556.51 -675.88806 4294966621
327.47388 2556.354 -675.92242 4294966621
329.39383 2556.2822 -675.96863 4294966621
331.49268 2556.2605 -675.94672 4294966621
103.67506 2560.8743 -675.83704 4294966621
257.43591 2561.6948 -675.92206 4294966621
259.43918 2561.5574 -675.88708 4294966621
261.43423 2561.4238 -675.8963 4294966621
265.58646 2561.0959 -675.81152 4294966621
267.25546 2560.9509 -675.77576 4294966621
269.46552 2560.7917 -675.81952 4294966621
271.4151 2560.6777 -675.79828 4294966621
273.30304 2560.6028 -675.85474 4294966621
275.0567 2560.0459 -675.71674 4294966621
279.74854 2559.3813 -675.86322 4294966621
293.52875 2559.0222 -675.81677 4294966621
100.85055 2562.9817 -675.26453 4294966621
103.6161 2562.8674 -675.9057 4294966621
211.54201 2564.938 -675.92621 4294966621
213.42957 2564.7046 -675.90179 4294966621
215.52763 2564.7061 -675.80939 4294966621
219.65268 2564.365 -675.79132 4294966621
221.46426 2564.2488 -675.93274 4294966621
225.44565 2564.0208 -675.94592 4294966621
231.65543 2563.5549 -675.54297 4294966621
237.58913 2563.6582 -675.44336 4294966621
239.59715 2563.373 -675.91357 4294966621
245.35912 2562.6172 -675.95276 4294966621
249.22748 2562.344 -675.89282 4294966621
251.46521 2562.2869 -675.99396 4294966621
253.52492 2562.0459 -675.69751 4294966621
99.279594 2565.7756 -675.18481 4294966621
101.44342 2566.0078 -675.81409 4294966621
173.47935 2567.583 -675.91711 4294966621
183.56316 2566.7883 -675.97552 4294966621
185.43451 2566.6475 -675.78522 4294966621
209.61681 2565.0876 -675.79791 4294966621
97.799004 2568.2161 -675.04437 4294966621
99.191689 2568.595 -675.13519 4294966621
104.10381 2569.6682 -675.91388 4294966621
107.41496 2570.9609 -675.49469 4294966621
117.21196 2570.8647 -675.71539 4294966621
119.01057 2570.6694 -675.97662 4294966621
121.24239 2570.6545 -675.93243 4294966621
127.0153 2570.6492 -675.22815 4294966621
139.51318 2569.5593 -675.97797 4294966621
143.66788 2569.2627 -675.8941 4294966621
103.69229 2571.0488 -675.07166 4294966621
111.55978 2571.3423 -675.21844 4294966621
115.74188 2571.0803 -675.39325 4294966621
249.26318 2537.7373 -674.07782 4294966622
251.25734 2537.574 -674.01422 4294966622
281.18347 2535.9155 -674.29816 4294966622
201.23839 2541.3403 -674.11212 4294966622
127.11956 2546.5732 -674.13519 4294966622
132.9957 2546.0671 -674.29327 4294966622
137.45546 2545.7712 -674.08002 4294966622
138.93068 2545.6545 -674.17145 4294966622
143.27423 2545.3347 -674.12915 4294966622
147.61507 2545.0825 -674.05585 4294966622
149.34309 2545.1108 -674.0033 4294966622
153.54767 2544.8027 -674.00537 4294966622
155.72235 2544.6455 -674.11133 4294966622
159.4946 2544.3799 -674.03271 4294966622
161.40698 2544.0933 -674.02893 4294966622
163.13518 2544.1404 -674.04895 4294966622
110.55955 2548.0977 -674.22986 4294966622
113.26984 2548.2019 -674.94916 4294966622
119.04675 2547.199 -674.01807 4294966622
121.21516 2547.2561 -674.15112 4294966622
122.39756 2547.1985 -674.30328 4294966622
99.175407 2563.1074 -674.85754 4294966622
97.463905 2565.5576 -674.65576 4294966622
95.172516 2569.1394 -674.02576 4294966622
99.124855 2570.0225 -674.87073 4294966622
101.83526 2570.9678 -674.92413 4294966622
123.45583 2570.8662 -674.5387 4294966622
125.34588 2570.7834 -674.88293 4294966622
129.27847 2570.7961 -674.0155 4294966622
131.29297 2570.6082 -674.0957 4294966622
133.394 2570.4661 -674.17694 4294966622
137.29236 2570.1519 -674.32098 4294966622
97.718819 2571.062 -674.21576 4294966622
99.216431 2571.1655 -674.3764 4294966622
115.87952 2571.5286 -674.11725 4294966622
119.01461 2571.2119 -674.41132 4294966622
329.35669 2531.897 -673.50854 4294966623
331.5249 2531.7341 -673.58679 4294966623
333.47382 2531.6135 -673.47302 4294966623
335.30881 2531.4309 -673.82349 4294966623
337.81366 2531.3047 -673.70581 4294966623
340.72137 2531.4541 -673.08325 4294966623
289.67819 2534.8293 -673.56012 4294966623
293.4671 2534.5127 -673.6579 4294966623
295.49332 2534.4153 -673.31158 4294966623
297.39963 2534.2417 -673.51233 4294966623
299.23285 2534.0935 -673.62561 4294966623
302.95956 2533.8147 -673.6618 4294966623
305.46707 2533.5747 -673.74255 4294966623
309.46469 2533.2996 -673.72443 4294966623
311.52393 2533.1279 -673.97595 4294966623
323.56546 2532.2705 -673.94061 4294966623
327.01831 2532.0542 -673.63843 4294966623
247.47238 2537.9463 -673.73627 4294966623
253.48061 2537.4365 -673.62994 4294966623
255.29829 2537.2549 -673.7309 4294966623
257.34863 2537.1057 -673.73315 4294966623
259.75281 2537.0273 -673.29889 4294966623
261.44016 2536.8796 -673.62616 4294966623
263.2059 2536.791 -673.46368 4294966623
265.44321 2536.5852 -673.69617 4294966623
267.44617 2536.4216 -673.66577 4294966623
269.24371 2536.2583 -673.79053 4294966623
272.07919 2536.4055 -673.51788 4294966623
274.46368 2536.3142 -673.44586 4294966623
277.36105 2536.1768 -673.60205 4294966623
283.61102 2535.6519 -673.76288 4294966623
285.62341 2535.4639 -673.53162 4294966623
288.03537 2535.1982 -673.38098 4294966623
209.5459 2540.8474 -673.78796 4294966623
211.41966 2540.7222 -673.70184 4294966623
219.37596 2540.0503 -673.78564 4294966623
223.43571 2539.7195 -673.70227 4294966623
225.21614 2539.5286 -673.87518 4294966623
227.40215 2539.3384 -673.90399 4294966623
229.19904 2539.2061 -673.8454 4294966623
231.57269 2539.0823 -673.56702 4294966623
233.29344 2538.9175 -673.78351 4294966623
235.27763 2538.7581 -673.78595 4294966623
237.50606 2538.636 -673.56665 4294966623
239.34657 2538.4905 -673.70038 4294966623
241.53972 2538.3655 -673.68616 4294966623
243.33824 2538.2417 -673.80005 4294966623
245.23842 2538.094 -673.87622 4294966623
167.61339 2543.6077 -673.98785 4294966623
169.55524 2543.4175 -673.9494 4294966623
171.44385 2543.2837 -673.96991 4294966623
175.39125 2543.22 -673.86871 4294966623
179.07246 2542.8967 -673.78735 4294966623
181.17871 2542.7852 -673.66852 4294966623
183.42715 2542.613 -673.72705 4294966623
185.14949 2542.4946 -673.61151 4294966623
187.23544 2542.3494 -673.59399 4294966623
189.40945 2542.1912 -673.61029 4294966623
191.48492 2542.0391 -673.78418 4294966623
193.53514 2541.9814 -673.4411 4294966623
195.38841 2541.7888 -673.72668 4294966623
197.24701 2541.6536 -673.73114 4294966623
199.5518 2541.5037 -673.75085 4294966623
203.64844 2541.3167 -673.50024 4294966623
207.64435 2541.0217 -673.64368 4294966623
125.31121 2546.8933 -673.89984 4294966623
135.724 2545.8953 -673.81091 4294966623
141.38782 2545.4944 -673.84314 4294966623
145.24437 2545.2029 -673.9834 4294966623
152.09422 2544.8044 -673.78229 4294966623
157.86189 2544.4719 -673.87659 4294966623
109.50954 2548.1843 -673.99744 4294966623
113.40111 2547.7905 -673.83679 4294966623
116.797 2547.6289 -673.98785 4294966623
335.45605 2555.9841 -673.3728 4294966623
337.47607 2555.8145 -673.32159 4294966623
339.50754 2555.583 -673.26324 4294966623
285.45935 2558.95 -673.3299 4294966623
295.36118 2558.6921 -673.01721 4294966623
299.32983 2558.4612 -673.07574 4294966623
311.65921 2557.0632 -673.05792 4294966623
313.36566 2556.9878 -673.12061 4294966623
317.42221 2556.9895 -673.18896 4294966623
319.57492 2556.9539 -673.05658 4294966623
325.25421 2556.3098 -673.07678 4294966623
329.35611 2556.0493 -673.13599 4294966623
333.35907 2556.0752 -673.39923 4294966623
271.34335 2560.3665 -673.14636 4294966623
273.33261 2560.2188 -673.0249 4294966623
277.36203 2559.7256 -673.72992 4294966623
281.38474 2559.2837 -673.07593 4294966623
217.71188 2564.3291 -673.15039 4294966623
219.60262 2564.2373 -673.25214 4294966623
221.49384 2564.095 -673.26678 4294966623
225.33646 2563.6914 -673.17645 4294966623
227.26634 2563.5017 -673.2168 4294966623
231.57715 2563.2368 -673.07526 4294966623
235.46284 2563.2461 -673.03033 4294966623
239.56197 2563.0654 -673.08801 4294966623
241.26453 2562.8735 -673.31696 4294966623
243.51263 2562.5833 -673.05518 4294966623
245.31645 2562.4521 -673.19165 4294966623
247.33028 2562.3081 -673.11578 4294966623
249.20251 2562.1824 -673.19458 4294966623
165.101 2567.908 -673.52148 4294966623
167.24838 2567.7236 -673.36792 4294966623
169.42885 2567.5493 -673.15436 4294966623
173.22134 2567.3118 -673.26843 4294966623
177.35233 2567.0088 -673.0882 4294966623
179.59641 2566.8359 -673.0921 4294966623
185.37839 2566.5183 -673.17084 4294966623
193.59244 2565.9946 -673.11285 4294966623
195.22441 2565.8489 -673.12976 4294966623
197.72043 2565.6968 -673.00128 4294966623
201.28397 2565.387 -673.05176 4294966623
203.45093 2565.241 -673.01929 4294966623
205.27036 2565.1196 -673.16473 4294966623
94.126686 2570.4219 -673.5553 4294966623
135.72548 2570.2639 -673.7691 4294966623
139.22969 2569.9329 -673.79456 4294966623
141.27515 2569.6809 -673.60858 4294966623
147.57297 2569.0457 -673.19891 4294966623
149.18149 2568.877 -673.42841 4294966623
157.28625 2568.228 -673.17493 4294966623
159.53258 2568.146 -673.20441 4294966623
163.25424 2568.0317 -673.60193 4294966623
96.344734 2571.3411 -673.86536 4294966623
97.44796 2572.1831 -673.5415 4294966623
99.276665 2572.2583 -673.19025 4294966623
101.05495 2572.0901 -673.71771 4294966623
103.32561 2572.0928 -673.62842 4294966623
107.25752 2571.9832 -673.9024 4294966623
109.4098 2571.9963 -673.89258 4294966623
121.7572 2571.1455 -673.6745 4294966623
105.20242 2547.9783 -672.22516 4294966624
115.07439 2547.512 -672.28223 4294966624
341.59787 2555.3403 -672.94702 4294966624
323.65247 2556.533 -672.98145 4294966624
327.43405 2556.0894 -672.96167 4294966624
251.49222 2561.9653 -672.95337 4294966624
207.75826 2564.877 -672.67114 4294966624
171.5538 2567.3967 -672.94482 4294966624
175.53732 2567.1331 -672.98065 4294966624
187.65599 2566.3938 -672.9292 4294966624
91.474289 2571.7944 -672.55957 4294966624
93.517059 2572.3926 -672.73352 4294966624
95.30529 2572.7078 -672.60834 4294966624
97.153519 2573.0955 -672.01709 4294966624
98.845421 2572.7686 -672.19104 4294966624
101.16121 2572.5564 -672.2428 4294966624
103.21939 2572.4814 -672.41705 4294966624
105.13316 2572.5391 -672.72705 4294966624
107.00281 2572.5115 -672.69434 4294966624
108.93452 2572.5833 -672.45441 4294966624
111.4313 2572.5647 -672.23322 4294966624
113.38519 2572.2161 -672.11005 4294966624
117.595 2571.7815 -672.12408 4294966624
124.97291 2571.0679 -672.70386 4294966624
333.31308 2531.9812 -671.02661 4294966625
335.36914 2531.8491 -671.01825 4294966625
295.46646 2534.7944 -671.04736 4294966625
297.52927 2534.6243 -671.06726 4294966625
325.21881 2532.5413 -671.02399 4294966625
329.41983 2532.2561 -671.08209 4294966625
259.32736 2537.3911 -671.03644 4294966625
263.36673 2537.2249 -671.04248 4294966625
269.16919 2536.8108 -671.03003 4294966625
283.3782 2535.8455 -671.55243 4294966625
227.31467 2540.0681 -671.02612 4294966625
229.34764 2539.8877 -671.11591 4294966625
243.51141 2538.7634 -671.03986 4294966625
249.4566 2538.2571 -671.05621 4294966625
173.44199 2543.6135 -671.55756 4294966625
175.30437 2543.5911 -671.18585 4294966625
177.55779 2543.4705 -671.15985 4294966625
183.1209 2543.0771 -671.22699 4294966625
191.63556 2542.522 -671.00079 4294966625
199.22382 2542.0042 -671.1203 4294966625
203.3407 2541.7 -671.18286 4294966625
122.87856 2546.9663 -671.70685 4294966625
127.33377 2546.792 -671.31732 4294966625
129.22739 2546.6218 -671.71161 4294966625
131.39091 2546.4858 -671.69055 4294966625
137.30907 2546.1506 -671.37073 4294966625
143.27925 2545.7285 -671.54193 4294966625
145.36722 2545.6572 -671.30084 4294966625
147.42152 2545.5217 -671.38318 4294966625
151.70883 2545.2791 -671.01422 4294966625
153.48444 2545.0574 -671.54614 4294966625
155.81854 2544.8677 -671.59595 4294966625
157.5627 2544.8184 -671.02515 4294966625
159.45779 2544.6145 -671.37079 4294966625
161.4171 2544.4502 -671.50171 4294966625
111.56747 2547.5679 -671.73077 4294966625
118.10249 2547.3542 -671.1123 4294966625
119.11086 2547.1365 -671.8717 4294966625
329.50406 2555.9055 -671.04199 4294966625
333.43378 2555.9705 -671.05603 4294966625
335.51483 2555.8848 -671.00562 4294966625
339.51993 2555.4331 -671.00018 4294966625
315.75177 2556.8877 -671.2522 4294966625
325.44989 2556.2656 -671.02612 4294966625
221.35634 2564.0376 -671.05377 4294966625
161.58575 2567.948 -671.24799 4294966625
167.19576 2567.5815 -671.07159 4294966625
129.32973 2570.4885 -671.12909 4294966625
131.64389 2570.293 -671.18567 4294966625
135.28444 2570.0115 -671.41608 4294966625
93.590454 2573.7688 -671.17511 4294966625
95.055275 2573.574 -671.50409 4294966625
115.59859 2572.0208 -671.89758 4294966625
119.62605 2571.4844 -671.19897 4294966625
123.36014 2571.1355 -671.48236 4294966625
337.48849 2531.6985 -670.98346 4294966626
301.55884 2534.3657 -670.94678 4294966626
305.55997 2534.0095 -670.91516 4294966626
327.53906 2532.4441 -670.83478 4294966626
255.72551 2537.7019 -670.93054 4294966626
261.57422 2537.3093 -670.97968 4294966626
273.47296 2536.478 -670.96161 4294966626
279.354 2536.2334 -670.94348 4294966626
287.27948 2535.4521 -670.96765 4294966626
289.38943 2535.2888 -670.96893 4294966626
291.34335 2535.1294 -670.93005 4294966626
223.4584 2540.3628 -670.98468 4294966626
231.42377 2539.7664 -670.81726 4294966626
235.25908 2539.3823 -670.89459 4294966626
241.7601 2538.8135 -670.85669 4294966626
247.44896 2538.498 -670.97833 4294966626
251.51147 2538.1479 -670.96057 4294966626
181.29532 2543.2732 -670.84247 4294966626
185.49818 2542.9465 -670.92682 4294966626
193.34348 2542.4185 -670.95612 4294966626
201.63753 2541.9453 -670.797 4294966626
205.56081 2541.6982 -670.82227 4294966626
207.46246 2541.5461 -670.98004 4294966626
321.37024 2556.8647 -670.8172 4294966626
323.47617 2556.5723 -670.99359 4294966626
253.36839 2561.5679 -670.85834 4294966626
281.48767 2559.1848 -670.72467 4294966626
223.54686 2563.7371 -670.8847 4294966626
227.50191 2563.2766 -670.81458 4294966626
165.51419 2567.7031 -670.92761 4294966626
169.69594 2567.3931 -670.88507 4294966626
175.47121 2567.0007 -670.78503 4294966626
179.49989 2566.6917 -670.86176 4294966626
183.36955 2566.5139 -670.97968 4294966626
185.6718 2566.3826 -670.78082 4294966626
193.70461 2565.8586 -670.87097 4294966626
195.50417 2565.6853 -670.96777 4294966626
199.51994 2565.3452 -670.88245 4294966626
201.38095 2565.2651 -670.98743 4294966626
203.66698 2565.0715 -670.97241 4294966626
127.7151 2570.5723 -670.62097 4294966626
137.44412 2569.7393 -670.89648 4294966626
139.2285 2569.585 -670.97394 4294966626
141.08763 2569.3933 -670.9967 4294966626
143.35995 2569.2158 -670.98737 4294966626
149.82874 2568.7183 -670.64587 4294966626
94.968147 2573.7346 -670.48187 4294966626
97.151718 2573.3345 -670.71631 4294966626
101.1637 2572.9392 -670.26831 4294966626
90.99984 2574.1519 -670.69049 4294966626
93.129807 2574.1189 -670.0874 4294966626
289.26801 2535.644 -669.03882 4294966627
189.77318 2542.8774 -669.22772 4294966627
135.28917 2546.6685 -669.005 4294966627
139.12376 2546.3911 -669.09662 4294966627
143.24713 2546.1174 -669.04431 4294966627
147.33372 2545.825 -669.12671 4294966627
151.46791 2545.593 -669.05365 4294966627
165.037 2544.5063 -669.24432 4294966627
113.49565 2547.8044 -669.49048 4294966627
114.71168 2547.6992 -669.75702 4294966627
124.58335 2547.3279 -669.15613 4294966627
127.36179 2547.1895 -669.05609 4294966627
317.37009 2556.9333 -669.00165 4294966627
181.25336 2566.4453 -669.01343 4294966627
187.52034 2566.1377 -669.0874 4294966627
129.2184 2570.4397 -669.17535 4294966627
133.11685 2570.0056 -669.18756 4294966627
137.44655 2569.574 -669.07605 4294966627
144.80107 2569.2686 -669.66803 4294966627
99.232735 2573.1399 -669.93323 4294966627
103.54401 2572.7966 -669.66791 4294966627
105.30737 2572.6982 -669.8692 4294966627
106.97941 2572.5942 -669.6944 4294966627
111.29124 2572.2825 -669.69012 4294966627
115.43826 2571.8516 -669.01917 4294966627
122.90441 2571.0068 -669.09485 4294966627
90.865868 2574.2991 -669.0293 4294966627
92.285614 2574.1584 -669.65118 4294966627
299.6629 2534.9839 -668.67462 4294966628
303.43423 2534.7458 -668.72943 4294966628
323.58972 2533.103 -668.85217 4294966628
327.63242 2532.804 -668.81451 4294966628
331.65686 2532.5579 -668.55878 4294966628
333.18689 2532.3945 -668.83899 4294966628
335.6402 2532.2183 -668.74658 4294966628
261.54584 2537.7429 -668.82013 4294966628
265.54382 2537.6135 -668.66711 4294966628
267.27667 2537.407 -668.93011 4294966628
269.5968 2537.2371 -668.80078 4294966628
279.60672 2536.4773 -668.82623 4294966628
285.3696 2536.0923 -668.79333 4294966628
291.38889 2535.532 -668.82166 4294966628
293.47342 2535.4053 -668.71161 4294966628
295.41257 2535.2644 -668.77661 4294966628
297.05817 2535.135 -668.83179 4294966628
237.02908 2539.6899 -668.87 4294966628
241.44945 2539.4006 -668.71332 4294966628
253.23907 2538.3962 -668.7066 4294966628
255.90585 2538.0188 -668.99176 4294966628
179.28963 2543.7275 -668.74823 4294966628
183.93329 2543.425 -668.72284 4294966628
197.0899 2542.5127 -668.9007 4294966628
199.55243 2542.3647 -668.87408 4294966628
149.3774 2545.7366 -668.91559 4294966628
153.74472 2545.4595 -668.95007 4294966628
173.48668 2544.0549 -668.92212 4294966628
117.57085 2547.7163 -668.85919 4294966628
121.73132 2547.5347 -668.89856 4294966628
129.27927 2547.0317 -668.9151 4294966628
327.51218 2555.8445 -668.83331 4294966628
329.31665 2555.7476 -668.95636 4294966628
331.39954 2555.7517 -668.85126 4294966628
333.5076 2555.7712 -668.77966 4294966628
335.63651 2555.7036 -668.8172 4294966628
339.42233 2555.2876 -668.7951 4294966628
341.55261 2555.0269 -668.7121 4294966628
283.4574 2558.7813 -668.66064 4294966628
315.62576 2556.8162 -668.90332 4294966628
319.34409 2557.0603 -668.61218 4294966628
321.12015 2556.8582 -668.70447 4294966628
323.43954 2556.479 -668.75903 4294966628
255.46835 2561.1267 -668.67047 4294966628
279.25989 2559.1792 -668.45245 4294966628
281.2814 2559.0164 -668.7934 4294966628
203.66823 2564.8735 -668.6134 4294966628
221.35315 2563.9409 -668.8028 4294966628
225.4922 2563.3945 -668.77197 4294966628
231.45724 2562.8054 -668.79974 4294966628
157.49573 2567.696 -668.42029 4294966628
159.1772 2567.7407 -668.97528 4294966628
163.22467 2567.6045 -668.78015 4294966628
165.74234 2567.4666 -668.68805 4294966628
167.46246 2567.353 -668.73163 4294966628
171.67191 2567.0977 -668.85327 4294966628
173.5274 2566.9839 -668.70984 4294966628
177.40865 2566.7058 -668.70392 4294966628
179.40665 2566.553 -668.77704 4294966628
183.3898 2566.3049 -668.60919 4294966628
185.25055 2566.2744 -668.94989 4294966628
191.45212 2565.9404 -668.82355 4294966628
195.24962 2565.551 -668.82306 4294966628
197.51228 2565.2991 -668.63824 4294966628
201.41681 2565.0166 -668.72925 4294966628
126.14881 2570.5979 -668.81683 4294966628
135.67978 2569.7029 -668.69464 4294966628
141.37048 2569.2231 -668.69775 4294966628
110.15485 2572.2783 -668.42908 4294966628
117.46749 2571.5933 -668.99164 4294966628
119.588 2571.3271 -668.7049 4294966628
133.10011 2547.2087 -667.0174 4294966629
146.16156 2569.7646 -667.58582 4294966629
95.749992 2573.71 -667.64569 4294966629
97.43055 2573.4287 -667.90576 4294966629
99.615494 2573.0344 -667.56403 4294966629
103.34255 2572.6077 -667.12549 4294966629
105.42603 2572.5022 -667.22955 4294966629
109.50182 2572.2844 -667.26935 4294966629
111.21482 2572.1675 -667.14923 4294966629
305.51157 2534.98 -666.34326 4294966630
307.46741 2534.8208 -666.39996 4294966630
309.39957 2534.7046 -666.1322 4294966630
325.58401 2533.3931 -666.37823 4294966630
327.40103 2533.283 -666.24524 4294966630
329.51309 2533.0811 -666.45776 4294966630
331.45535 2532.9241 -666.38171 4294966630
335.45862 2532.552 -666.6377 4294966630
337.38892 2532.3982 -666.62323 4294966630
341.38782 2532.1838 -666.48688 4294966630
269.55133 2537.552 -666.69617 4294966630
275.35822 2537.2229 -666.31293 4294966630
279.46964 2537.0459 -666.1604 4294966630
281.29245 2536.7874 -666.56561 4294966630
283.49902 2536.6846 -666.15228 4294966630
285.23737 2536.4739 -666.42682 4294966630
287.59146 2536.3096 -666.32166 4294966630
289.74521 2536.1365 -666.39966 4294966630
293.44263 2535.8923 -666.30597 4294966630
295.67987 2535.7058 -666.37646 4294966630
299.44852 2535.4136 -666.37897 4294966630
301.12976 2535.2698 -666.48352 4294966630
303.72552 2535.1133 -666.3559 4294966630
237.20499 2540.1213 -666.44098 4294966630
255.56274 2538.4565 -666.66583 4294966630
259.57092 2538.2642 -666.18604 4294966630
265.36478 2538.0322 -666.34558 4294966630
183.54926 2543.7302 -666.85278 4294966630
189.92116 2543.3174 -666.60828 4294966630
193.61697 2543.0964 -666.7348 4294966630
195.25255 2542.9543 -666.75153 4294966630
197.16582 2542.8127 -666.80414 4294966630
199.62697 2542.6697 -666.69836 4294966630
203.48943 2542.4624 -666.68817 4294966630
143.55803 2546.5696 -666.71198 4294966630
147.77002 2546.3291 -666.7373 4294966630
149.46468 2546.2292 -666.83881 4294966630
151.15445 2545.9824 -666.98615 4294966630
153.61972 2545.8469 -666.72522 4294966630
155.54092 2545.6497 -666.90778 4294966630
157.52484 2545.5576 -666.70038 4294966630
159.64415 2545.2739 -666.93066 4294966630
161.51309 2545.1406 -666.71838 4294966630
163.27173 2545.0664 -666.82501 4294966630
169.18105 2544.6504 -666.85492 4294966630
173.58328 2544.4417 -666.68939 4294966630
175.34755 2544.3069 -666.80658 4294966630
177.73824 2544.167 -666.61743 4294966630
127.42673 2547.5869 -666.92981 4294966630
129.37836 2547.6606 -666.40619 4294966630
327.50928 2555.7224 -666.21216 4294966630
329.30518 2555.6018 -666.11456 4294966630
333.29462 2555.6248 -666.1828 4294966630
337.49194 2555.3953 -666.17889 4294966630
341.22189 2554.9363 -666.28369 4294966630
283.33725 2558.7073 -666.23993 4294966630
285.21014 2558.5627 -666.12085 4294966630
289.50275 2558.3152 -666.08868 4294966630
297.37628 2557.8938 -666.04401 4294966630
303.16965 2557.2961 -666.08716 4294966630
313.17374 2556.6267 -666.26672 4294966630
315.2471 2556.771 -666.41052 4294966630
319.16098 2557.0632 -666.18719 4294966630
323.49164 2556.5237 -666.18713 4294966630
325.23273 2556.1062 -666.15686 4294966630
251.28358 2561.4199 -666.24774 4294966630
253.7251 2561.1865 -666.04358 4294966630
255.47049 2561.0479 -666.29761 4294966630
257.41806 2560.9167 -666.19336 4294966630
259.23676 2560.77 -666.22412 4294966630
201.57596 2564.8997 -666.10394 4294966630
203.25215 2564.8223 -666.68793 4294966630
205.53773 2564.6738 -666.15485 4294966630
209.21098 2564.4258 -666.37549 4294966630
215.2319 2564.2451 -666.39423 4294966630
221.18086 2564.0083 -666.37268 4294966630
235.55695 2562.5422 -666.26245 4294966630
155.23021 2567.8933 -666.23059 4294966630
159.13638 2567.5662 -666.38556 4294966630
161.614 2567.512 -666.44629 4294966630
165.51961 2567.3467 -666.43433 4294966630
167.32172 2567.2634 -666.72705 4294966630
169.48611 2567.0894 -666.34125 4294966630
171.4435 2566.9651 -666.34644 4294966630
173.38887 2566.8896 -666.7149 4294966630
175.52382 2566.7634 -666.49829 4294966630
179.37428 2566.499 -666.77979 4294966630
181.47525 2566.2832 -666.51489 4294966630
185.10297 2566.1868 -666.85376 4294966630
187.78989 2566.085 -666.42792 4294966630
189.15514 2566.0088 -666.37152 4294966630
191.50734 2565.7993 -666.05182 4294966630
193.48416 2565.6155 -666.2406 4294966630
195.16411 2565.4465 -666.37622 4294966630
199.29997 2565.0496 -666.46722 4294966630
125.49547 2570.5569 -666.84473 4294966630
127.81624 2570.3333 -666.84833 4294966630
129.64018 2570.1079 -666.70032 4294966630
131.16423 2569.9373 -666.88483 4294966630
133.20386 2569.7561 -666.75433 4294966630
135.51775 2569.509 -666.72711 4294966630
139.72569 2569.137 -666.46002 4294966630
101.75635 2572.7087 -666.97803 4294966630
107.68646 2572.3257 -666.42603 4294966630
113.67126 2571.9282 -666.87317 4294966630
117.48773 2571.4961 -666.80585 4294966630
121.30401 2571.0332 -666.69995 4294966630
335.62329 2555.5227 -665.63745 4294966631
281.45877 2558.8499 -665.9408 4294966631
299.44754 2557.6794 -665.84076 4294966631
321.26556 2556.9514 -665.97638 4294966631
277.62076 2559.1223 -665.99158 4294966631
151.37639 2569.6313 -665.09869 4294966631
92.839149 2573.6233 -665.1424 4294966631
95.068085 2573.3594 -665.51862 4294966631
97.132378 2573.0305 -665.15851 4294966631
103.40163 2572.4727 -665.31976 4294966631
323.20953 2533.8823 -664.1496 4294966632
329.33331 2533.4446 -664.17316 4294966632
335.3259 2532.9819 -664.04584 4294966632
341.02112 2532.5342 -664.24768 4294966632
267.37552 2537.9924 -664.18732 4294966632
269.67752 2537.6536 -664.49475 4294966632
273.24023 2537.4451 -664.12866 4294966632
287.36099 2536.6848 -664.01868 4294966632
289.63788 2536.4773 -664.10236 4294966632
291.72308 2536.3333 -664.05554 4294966632
295.28571 2536.104 -664.10925 4294966632
299.39151 2535.7502 -664.08459 4294966632
301.53214 2535.6033 -664.05237 4294966632
251.39081 2539.0759 -664.05634 4294966632
253.33601 2538.8845 -664.09558 4294966632
257.87292 2538.5483 -664.00305 4294966632
185.14958 2543.9934 -664.13214 4294966632
187.6067 2543.8228 -664.01923 4294966632
193.38557 2543.324 -664.42053 4294966632
197.47688 2543.0154 -664.54114 4294966632
199.38676 2542.9397 -664.19482 4294966632
201.57069 2542.8325 -664.19409 4294966632
145.633 2546.8733 -664.21747 4294966632
147.57877 2546.707 -664.38007 4294966632
149.35614 2546.5605 -664.31097 4294966632
153.54425 2546.2322 -664.30939 4294966632
157.44247 2545.9167 -664.06311 4294966632
161.39394 2545.5022 -664.06305 4294966632
165.34164 2545.2126 -664.41132 4294966632
171.42743 2544.9497 -664.13611 4294966632
173.51196 2544.8196 -664.13965 4294966632
175.53755 2544.6606 -664.18121 4294966632
177.74361 2544.4653 -664.15479 4294966632
181.45488 2544.2502 -664.05475 4294966632
119.27001 2548.3167 -664.59943 4294966632
125.13226 2548.0955 -664.56903 4294966632
127.56931 2548.0251 -664.38324 4294966632
129.94711 2547.9243 -664.06116 4294966632
131.18054 2547.7769 -664.4671 4294966632
133.18045 2547.6338 -664.43738 4294966632
135.82909 2547.4443 -664.31238 4294966632
137.47816 2547.2793 -664.35632 4294966632
139.18939 2547.105 -664.76654 4294966632
141.73653 2547.0486 -664.21448 4294966632
295.10696 2558.2429 -664.15802 4294966632
259.36304 2561.1057 -664.04865 4294966632
283.34634 2559.0313 -664.00647 4294966632
213.40395 2564.4348 -664.01904 4294966632
223.46161 2563.8401 -664.17261 4294966632
182.88857 2566.1006 -664.04999 4294966632
131.38481 2569.8164 -664.05383 4294966632
133.33925 2569.5845 -664.13312 4294966632
135.45711 2569.2798 -664.04254 4294966632
139.50085 2569.0012 -664.25732 4294966632
150.50047 2570.5481 -664.14532 4294966632
99.268158 2572.7166 -664.69189 4294966632
105.67944 2572.2974 -664.74835 4294966632
111.32016 2571.9631 -664.79089 4294966632
113.68233 2571.7056 -664.57208 4294966632
115.26125 2571.5732 -664.66565 4294966632
120.03531 2571.0405 -664.56836 4294966632
309.44058 2534.9165 -663.81207 4294966633
333.78592 2533.1147 -663.99255 4294966633
337.68393 2532.8225 -663.90448 4294966633
339.61243 2532.6724 -663.91821 4294966633
277.33649 2537.5576 -663.85974 4294966633
281.40628 2537.1875 -663.79449 4294966633
283.38828 2536.9331 -663.93689 4294966633
297.48187 2535.9209 -663.81927 4294966633
303.55295 2535.4619 -663.98993 4294966633
305.55939 2535.301 -663.61652 4294966633
307.28165 2535.1299 -663.97998 4294966633
191.59137 2543.5244 -663.89618 4294966633
151.37297 2546.4871 -663.67065 4294966633
167.47531 2545.1833 -663.98132 4294966633
327.39514 2555.731 -663.59442 4294966633
329.35013 2555.5994 -663.51715 4294966633
333.60577 2555.5525 -663.45825 4294966633
335.65112 2555.7705 -663.04163 4294966633
339.42007 2555.3743 -663.02905 4294966633
289.40457 2558.7188 -663.94495 4294966633
291.28693 2558.5781 -663.9624 4294966633
297.54361 2558.1125 -663.74573 4294966633
303.3699 2557.6406 -663.75757 4294966633
307.49313 2557.2483 -663.64691 4294966633
309.35846 2557.0569 -663.72198 4294966633
313.13983 2556.8921 -663.70349 4294966633
315.71146 2557.1006 -663.4682 4294966633
317.25238 2557.2686 -663.68066 4294966633
325.14938 2556.2805 -663.66968 4294966633
253.48842 2561.4141 -663.89764 4294966633
255.47162 2561.3188 -663.93829 4294966633
275.31284 2559.6394 -663.8645 4294966633
277.53323 2559.5837 -663.99902 4294966633
281.17117 2559.3188 -663.99823 4294966633
285.40125 2559.0833 -663.92584 4294966633
209.26642 2564.5964 -663.53406 4294966633
211.26251 2564.4519 -663.95087 4294966633
219.98599 2564.3647 -663.73962 4294966633
225.35062 2563.7422 -663.85907 4294966633
229.17941 2563.1282 -663.93481 4294966633
231.41573 2562.9719 -663.68542 4294966633
235.78612 2562.7124 -663.6499 4294966633
239.35126 2562.4895 -663.92438 4294966633
157.00882 2567.73 -663.67761 4294966633
158.89194 2567.4678 -663.84296 4294966633
161.5015 2567.3215 -663.70905 4294966633
163.23323 2567.2666 -663.6366 4294966633
167.61113 2567.0293 -663.37244 4294966633
169.2498 2566.9749 -663.85211 4294966633
171.09265 2566.9727 -663.81342 4294966633
173.51158 2566.7754 -663.54089 4294966633
175.40875 2566.7522 -663.9126 4294966633
177.39742 2566.4885 -663.92511 4294966633
185.22908 2565.9985 -663.65802 4294966633
187.57974 2565.9424 -663.78748 4294966633
191.41148 2565.8547 -663.84985 4294966633
193.46443 2565.7595 -663.67969 4294966633
195.12482 2565.614 -663.72131 4294966633
199.57562 2565.0906 -663.74805 4294966633
203.24219 2565.0471 -663.74597 4294966633
152.01897 2570.2043 -663.17279 4294966633
93.588264 2573.0759 -663.07361 4294966633
97.202026 2572.6187 -663.09589 4294966633
107.21616 2572.1606 -663.29987 4294966633
325.15604 2533.5459 -662.27814 4294966634
275.23529 2537.2747 -662.44659 4294966634
279.40018 2537.1882 -662.11346 4294966634
289.52692 2536.3501 -662.02118 4294966634
293.49207 2536.0452 -662.16772 4294966634
255.20232 2538.4771 -662.50836 4294966634
122.01203 2548.5854 -662.13538 4294966634
337.54224 2555.6077 -662.97784 4294966634
341.47791 2555.1177 -662.90601 4294966634
293.31531 2558.946 -662.65765 4294966634
295.55545 2558.8484 -662.36316 4294966634
299.36755 2558.5801 -662.12115 4294966634
303.29794 2558.2683 -662.15869 4294966634
319.20563 2557.6453 -662.12012 4294966634
321.24677 2557.2795 -662.79572 4294966634
323.25452 2557.0652 -662.2923 4294966634
277.45932 2560.179 -662.5423 4294966634
281.28494 2560.0049 -662.42188 4294966634
283.33932 2559.9104 -662.39746 4294966634
285.34732 2559.7898 -662.42645 4294966634
287.32489 2559.5601 -662.36572 4294966634
291.35925 2559.3987 -662.38361 4294966634
207.5309 2564.8706 -662.89862 4294966634
211.48096 2564.8132 -662.06921 4294966634
227.39227 2564.0767 -662.11755 4294966634
237.53021 2563.1653 -662.01453 4294966634
253.55356 2562.1409 -662.0495 4294966634
197.38199 2565.7905 -662.33862 4294966634
203.31726 2565.5391 -662.01379 4294966634
205.12646 2565.4077 -662.08289 4294966634
141.44061 2569.5042 -662.12006 4294966634
155.1031 2568.823 -662.01117 4294966634
99.454803 2572.4536 -662.95886 4294966634
102.1869 2572.311 -662.98901 4294966634
105.29679 2572.1941 -662.77039 4294966634
109.73106 2571.8843 -662.57831 4294966634
113.87173 2571.5645 -662.5575 4294966634
116.8744 2571.2693 -662.22321 4294966634
305.58456 2534.9341 -661.92401 4294966635
307.48676 2534.9304 -661.88641 4294966635
331.082 2533.1426 -661.79449 4294966635
333.78418 2532.8015 -661.81641 4294966635
335.23456 2532.6992 -661.73279 4294966635
339.33109 2532.4319 -661.76917 4294966635
341.2496 2532.3054 -661.77039 4294966635
281.38968 2537.0552 -661.94604 4294966635
283.67194 2536.7942 -661.80579 4294966635
287.68954 2536.5215 -661.89471 4294966635
299.53473 2535.3464 -661.78589 4294966635
303.30557 2535.113 -661.95111 4294966635
247.4747 2539.0967 -661.91595 4294966635
185.46524 2543.9561 -661.88788 4294966635
189.28877 2543.6033 -661.86169 4294966635
193.50471 2543.4043 -661.93982 4294966635
195.64342 2543.1941 -661.73865 4294966635
197.64523 2543.042 -661.84418 4294966635
199.39009 2542.8567 -661.54053 4294966635
201.74065 2542.6511 -661.76001 4294966635
205.64938 2542.5391 -661.96973 4294966635
149.53622 2546.7185 -661.48669 4294966635
155.34245 2546.3669 -661.85864 4294966635
157.55406 2546.1794 -661.72894 4294966635
161.29817 2545.7737 -661.30969 4294966635
165.50026 2545.363 -661.5304 4294966635
167.71307 2545.2339 -661.58337 4294966635
169.1205 2545.1533 -661.18549 4294966635
171.58417 2545.043 -661.21222 4294966635
173.37328 2544.8826 -661.07605 4294966635
175.46342 2544.7139 -661.23297 4294966635
177.55202 2544.4995 -661.2005 4294966635
181.34433 2544.3901 -661.3504 4294966635
183.66931 2544.0779 -661.79114 4294966635
123.35527 2548.4407 -661.97339 4294966635
127.83152 2548.4551 -661.5415 4294966635
129.30653 2548.2703 -661.9516 4294966635
133.7518 2548.0315 -661.39526 4294966635
135.64078 2547.719 -661.82043 4294966635
137.44725 2547.4531 -661.88855 4294966635
139.21236 2547.1829 -661.99866 4294966635
143.2581 2547.0544 -661.87292 4294966635
145.38469 2547.0349 -661.57159 4294966635
339.59766 2555.6467 -661.77789 4294966635
301.4519 2558.4607 -661.9397 4294966635
307.35419 2557.8831 -661.97015 4294966635
311.49933 2557.5938 -661.96838 4294966635
313.29633 2557.6135 -661.9303 4294966635
325.09949 2556.7451 -661.79718 4294966635
329.13873 2556.2158 -661.81683 4294966635
333.59204 2556.0376 -661.69513 4294966635
335.66348 2556.0615 -661.81677 4294966635
277.67419 2561.207 -661.07599 4294966635
289.61087 2560.5339 -661.11414 4294966635
213.34279 2564.9524 -661.97638 4294966635
217.41292 2564.9937 -661.81946 4294966635
233.64319 2563.4988 -661.90613 4294966635
257.41586 2562.292 -661.8418 4294966635
259.52994 2562.2422 -661.83215 4294966635
161.52074 2567.7019 -661.66864 4294966635
165.5183 2567.667 -661.66992 4294966635
171.35873 2567.3494 -661.40833 4294966635
175.41895 2567.0752 -661.71155 4294966635
181.31113 2566.6475 -661.75195 4294966635
183.28232 2566.6321 -661.44818 4294966635
187.61459 2566.5042 -661.62439 4294966635
189.47108 2566.4165 -661.71942 4294966635
191.42517 2566.3667 -661.76746 4294966635
195.29926 2566.1335 -661.78198 4294966635
199.3111 2566.3616 -661.19031 4294966635
201.51974 2565.7134 -661.93103 4294966635
207.95087 2565.3945 -661.38947 4294966635
119.57662 2570.9348 -661.82428 4294966635
135.59476 2569.3262 -661.56189 4294966635
137.65346 2569.1245 -661.73804 4294966635
139.86406 2569.1819 -661.46533 4294966635
