# .PCD v0.7 - Point Cloud Data file format
VERSION 0.7
FIELDS x y z rgba
SIZE 4 4 4 4
TYPE F F F U
COUNT 1 1 1 1
WIDTH 1147
HEIGHT 1
VIEWPOINT 0 0 0 1 0 0 0
POINTS 1147
DATA ascii
249.53839 2147.9543 -121.25993 4294967295
251.43498 2147.7432 -121.15784 4294967295
255.44354 2146.9185 -121.67237 4294967295
257.48468 2146.8853 -121.50578 4294967295
263.29349 2146.6355 -121.59055 4294967295
265.39862 2146.6204 -121.3868 4294967295
269.19818 2146.4543 -121.27692 4294967295
271.16306 2146.4424 -121.09715 4294967295
274.42029 2145.929 -121.67992 4294967295
275.5824 2146.2385 -121.27261 4294967295
277.33673 2145.887 -121.74461 4294967295
281.54791 2145.2693 -121.97713 4294967295
205.7029 2150.9414 -121.37314 4294967295
209.09203 2150.7793 -121.14577 4294967295
211.62279 2150.4463 -121.41022 4294967295
215.94371 2150.1726 -121.42178 4294967295
219.56087 2149.8271 -121.45032 4294967295
225.67876 2149.0603 -121.78864 4294967295
231.31427 2148.8027 -121.79453 4294967295
233.60692 2148.5247 -121.94624 4294967295
237.64708 2148.3816 -121.77451 4294967295
243.13246 2148.0925 -121.77051 4294967295
245.61911 2148.1238 -121.50277 4294967295
169.29707 2153.7129 -121.94662 4294967295
187.45499 2152.4504 -121.4853 4294967295
189.10187 2152.4314 -121.20295 4294967295
191.25272 2152.2229 -121.09083 4294967295
193.74672 2151.9324 -121.32436 4294967295
195.21317 2151.8511 -121.24418 4294967295
199.46303 2151.4775 -121.41593 4294967295
101.36279 2156.9214 -121.8875 4294967295
129.32155 2156.8574 -121.68571 4294967295
134.944 2156.6511 -121.52625 4294967295
153.30067 2155.2075 -121.88837 4294967295
161.46025 2154.2834 -121.99256 4294967295
162.38866 2154.6912 -121.05493 4294967295
509.31311 2155.1523 -121.54556 4294967295
88.150497 2159.2085 -121.98473 4294967295
99.242249 2157.0142 -121.99332 4294967295
106.4285 2157.4209 -121.37043 4294967295
108.44929 2157.5637 -121.48393 4294967295
110.05077 2157.5806 -121.62341 4294967295
111.66817 2157.5339 -121.5885 4294967295
456.7598 2159.2415 -121.88111 4294967295
478.16666 2158.1079 -121.9221 4294967295
483.8483 2158.1604 -121.14055 4294967295
500.28702 2157.9236 -121.59441 4294967295
79.409019 2161.1697 -121.04381 4294967295
85.004936 2160.386 -121.16206 4294967295
416.91449 2161.8923 -121.96853 4294967295
425.64362 2161.075 -121.31789 4294967295
427.60913 2161.394 -121.99695 4294967295
431.09146 2161.2002 -121.95876 4294967295
433.03717 2161.0789 -121.80392 4294967295
437.02847 2160.6907 -121.89026 4294967295
443.03754 2160.4329 -121.57274 4294967295
369.33423 2165.8743 -121.25784 4294967295
379.09207 2165.3186 -121.21235 4294967295
381.72754 2165.1943 -121.42989 4294967295
395.32468 2163.8945 -121.76781 4294967295
397.59244 2163.6008 -121.51117 4294967295
399.35043 2163.5012 -121.45856 4294967295
401.29858 2163.4817 -121.86347 4294967295
403.33884 2163.3135 -121.96364 4294967295
405.28812 2163.1155 -121.90179 4294967295
335.49838 2168.9934 -121.55728 4294967295
337.39536 2168.3516 -121.09801 4294967295
339.43832 2168.8271 -121.85292 4294967295
341.42258 2168.6689 -121.89544 4294967295
345.21304 2168.1619 -121.89835 4294967295
347.73734 2167.4402 -121.29495 4294967295
349.37613 2167.4778 -121.3024 4294967295
351.5397 2167.2717 -121.19359 4294967295
355.56024 2166.9458 -121.1117 4294967295
357.34235 2166.8149 -121.10725 4294967295
359.70218 2166.71 -121.23405 4294967295
361.54834 2166.5728 -121.29385 4294967295
365.64798 2166.1306 -121.30016 4294967295
367.77249 2166.0286 -121.44278 4294967295
291.50208 2171.8818 -121.11089 4294967295
295.2883 2171.7112 -121.25589 4294967295
297.63879 2171.4797 -121.19164 4294967295
299.27866 2171.2749 -121.09109 4294967295
301.27335 2171.2163 -121.19033 4294967295
303.54044 2170.9128 -121.24004 4294967295
305.19522 2171.0615 -121.29095 4294967295
309.38242 2170.9387 -121.5937 4294967295
311.64502 2170.3997 -121.25835 4294967295
313.05923 2170.7371 -121.62072 4294967295
315.57822 2170.2483 -121.6116 4294967295
319.19821 2169.6279 -121.07063 4294967295
321.45068 2169.4575 -121.11314 4294967295
323.7023 2169.3923 -121.24939 4294967295
325.45471 2169.2942 -121.27665 4294967295
327.16757 2169.364 -121.48386 4294967295
329.24469 2169.1641 -121.32746 4294967295
331.68906 2169.0376 -121.32487 4294967295
333.48911 2169.1304 -121.53804 4294967295
253.57022 2174.6335 -121.45177 4294967295
257.69138 2174.5374 -121.87298 4294967295
259.2359 2174.0566 -121.63789 4294967295
263.14423 2173.5071 -121.20448 4294967295
265.49057 2173.3381 -121.1787 4294967295
267.5607 2173.2478 -121.18735 4294967295
269.45898 2173.3171 -121.39838 4294967295
271.32245 2172.9736 -121.08768 4294967295
273.23523 2173.1831 -121.41372 4294967295
276.95889 2172.925 -121.4271 4294967295
279.38092 2172.873 -121.44518 4294967295
283.77289 2172.658 -121.41923 4294967295
287.28833 2172.4976 -121.60207 4294967295
289.1871 2172.5601 -121.58718 4294967295
290.80389 2172.8555 -121.9857 4294967295
187.29735 2177.949 -121.47897 4294967295
191.91096 2177.8022 -121.44317 4294967295
195.30142 2177.5396 -121.52183 4294967295
198.19644 2177.2654 -121.3055 4294967295
199.64267 2177.2546 -121.51553 4294967295
203.51233 2176.9468 -121.31601 4294967295
221.40945 2176.408 -121.89091 4294967295
222.75342 2175.729 -121.09483 4294967295
225.7438 2175.6721 -121.42418 4294967295
226.88205 2175.5149 -121.20377 4294967295
229.54866 2175.5989 -121.28537 4294967295
231.23451 2175.4646 -121.04436 4294967295
233.54254 2175.6172 -121.28928 4294967295
235.35715 2175.5732 -121.37363 4294967295
237.29503 2175.2529 -121.04067 4294967295
241.35547 2175.0022 -121.34468 4294967295
245.50714 2175.0244 -121.62153 4294967295
249.32996 2175.1821 -121.60521 4294967295
251.4613 2175.0176 -121.5167 4294967295
135.15355 2180.7771 -121.9378 4294967295
155.25981 2179.5652 -121.77011 4294967295
158.10153 2179.4089 -121.65941 4294967295
161.26434 2179.2009 -121.59468 4294967295
165.94553 2178.8811 -121.89822 4294967295
171.33653 2178.7864 -121.98835 4294967295
173.04305 2178.7175 -121.98046 4294967295
175.06471 2178.6394 -121.94088 4294967295
177.78424 2178.5117 -121.87127 4294967295
181.46106 2178.2163 -121.35381 4294967295
183.00377 2178.2314 -121.57542 4294967295
185.63171 2178.02 -121.36399 4294967295
476.89349 2132.1702 -120.76805 4294967295
482.01425 2131.4343 -120.7094 4294967295
483.59607 2131.2131 -120.94164 4294967295
489.58405 2130.6196 -120.22742 4294967295
491.63733 2130.4783 -120.25261 4294967295
493.31155 2130.3484 -120.00055 4294967295
495.92188 2130.1245 -120.03017 4294967295
503.54446 2130.3096 -120.17088 4294967295
509.01163 2131.9192 -120.0792 4294967295
418.0004 2134.95 -120.28714 4294967295
423.29773 2135.467 -120.05597 4294967295
427.41107 2135.9734 -120.26624 4294967295
431.17966 2135.647 -120.20585 4294967295
433.34503 2135.0239 -120.80344 4294967295
437.16971 2134.8645 -120.6063 4294967295
439.5545 2134.5286 -120.60291 4294967295
441.50891 2134.4004 -120.57819 4294967295
447.60495 2133.9939 -120.448 4294967295
450.03424 2133.6973 -120.08767 4294967295
453.41064 2133.7529 -120.00562 4294967295
381.28897 2138.8137 -120.17402 4294967295
385.45953 2138.5518 -120.09451 4294967295
395.62512 2137.9348 -120.02918 4294967295
401.02518 2137.4746 -120.01028 4294967295
343.72751 2141.4673 -120.41846 4294967295
345.57159 2141.4856 -120.09752 4294967295
347.3421 2141.3662 -120.00382 4294967295
351.39923 2141.0449 -120.10075 4294967295
353.60779 2140.9863 -120.35323 4294967295
357.66327 2140.7898 -120.33796 4294967295
369.82333 2139.8044 -120.21925 4294967295
377.55438 2139.0559 -120.26369 4294967295
379.40503 2139.001 -120.07229 4294967295
301.51773 2144.4875 -120.22547 4294967295
303.71744 2144.2451 -120.25675 4294967295
306.72147 2144.0117 -120.44711 4294967295
311.18839 2143.5117 -120.9053 4294967295
317.46146 2143.2734 -120.1358 4294967295
325.95126 2142.676 -120.29544 4294967295
327.2554 2142.7234 -120.09258 4294967295
331.58118 2142.5083 -120.19303 4294967295
333.51511 2142.3542 -120.13605 4294967295
335.62747 2142.1467 -120.14631 4294967295
337.26584 2142.021 -120.10814 4294967295
255.63821 2147.6912 -120.15044 4294967295
259.54889 2147.4373 -120.07008 4294967295
263.36679 2147.3398 -120.04369 4294967295
265.24213 2147.2043 -120.04693 4294967295
267.50195 2147.0686 -120.11942 4294967295
273.40955 2146.6721 -120.08459 4294967295
274.9747 2146.4397 -120.30145 4294967295
279.28024 2146.1367 -120.92099 4294967295
282.65939 2145.6973 -120.93859 4294967295
283.27872 2146.0876 -120.13323 4294967295
293.60062 2145.0205 -120.17419 4294967295
213.90691 2150.6758 -120.266 4294967295
220.30508 2150.0767 -120.66901 4294967295
225.75139 2149.8516 -120.08332 4294967295
229.23512 2149.3884 -120.80786 4294967295
233.74121 2149.4148 -120.1227 4294967295
235.23293 2149.2971 -120.01945 4294967295
237.74463 2149.0181 -120.28185 4294967295
238.89166 2149.02 -120.02751 4294967295
241.55663 2148.7903 -120.08724 4294967295
247.44765 2148.3303 -120.56393 4294967295
184.08778 2153.271 -120.3345 4294967295
185.53102 2153.2188 -120.24999 4294967295
189.7334 2152.6646 -120.28851 4294967295
195.27058 2152.1912 -120.10208 4294967295
197.68791 2152.0823 -120.3112 4294967295
207.49124 2151.2561 -120.36904 4294967295
509.52048 2153.0298 -120.62796 4294967295
130.39493 2156.9929 -120.90845 4294967295
151.63646 2155.7827 -120.15005 4294967295
155.56305 2155.3372 -120.39943 4294967295
168.02338 2154.2371 -120.8217 4294967295
169.62996 2154.2109 -120.09507 4294967295
505.44644 2156.2434 -120.75863 4294967295
508.02026 2154.1221 -120.2664 4294967295
89.417397 2159.2571 -120.9973 4294967295
91.382645 2158.8474 -120.87672 4294967295
93.594604 2158.6226 -120.49194 4294967295
109.56438 2158.1221 -120.26133 4294967295
113.33029 2157.9458 -120.08891 4294967295
131.82138 2157.1208 -120.01138 4294967295
479.3566 2158.2776 -120.8922 4294967295
481.80753 2158.1926 -120.92302 4294967295
485.72339 2158.3101 -120.21505 4294967295
490.40378 2158.4526 -120.70033 4294967295
492.88867 2158.3672 -120.4863 4294967295
495.2641 2158.0735 -120.19669 4294967295
83.084579 2160.8191 -120.73916 4294967295
405.33313 2162.7402 -120.13357 4294967295
407.29971 2162.4482 -120.1323 4294967295
409.22202 2162.3015 -120.16051 4294967295
411.47046 2162.0593 -120.15717 4294967295
417.10559 2161.5896 -120.19057 4294967295
423.51208 2161.105 -120.25967 4294967295
429.45187 2161.0349 -120.29417 4294967295
369.39795 2165.3193 -120.01399 4294967295
397.9985 2163.2695 -120.11738 4294967295
343.47519 2167.1201 -120.04033 4294967295
289.33923 2171.3789 -120.03617 4294967295
237.42453 2174.593 -120.11344 4294967295
238.9778 2174.9363 -120.77058 4294967295
244.25612 2174.405 -120.52345 4294967295
245.19914 2174.012 -120.00826 4294967295
261.07043 2173.5249 -120.99907 4294967295
263.30078 2172.7019 -120.04945 4294967295
275.13455 2172.6055 -120.8119 4294967295
178.02579 2177.8982 -120.09536 4294967295
183.44572 2177.5046 -120.00608 4294967295
185.74126 2177.3572 -120.08447 4294967295
193.25346 2177.1184 -120.06242 4294967295
195.81697 2176.9695 -120.19528 4294967295
197.36978 2176.7849 -120.03419 4294967295
199.85951 2176.6389 -120.01974 4294967295
203.30328 2176.4656 -120.28702 4294967295
206.10733 2176.137 -120.01943 4294967295
145.16472 2179.8818 -120.14433 4294967295
159.71133 2178.9382 -120.17131 4294967295
161.42569 2178.8337 -120.0952 4294967295
167.84308 2178.6992 -120.87611 4294967295
169.16476 2178.636 -120.85918 4294967295
171.43329 2178.4209 -120.11469 4294967295
172.92659 2178.354 -120.23065 4294967295
175.58057 2178.0112 -120.13136 4294967295
473.49634 2132.5339 -119.09846 4294967295
497.91879 2130.0491 -119.70383 4294967295
501.89453 2130.2195 -119.89645 4294967295
445.03592 2134.323 -119.68672 4294967295
451.46054 2133.6873 -119.86842 4294967295
455.35678 2133.8228 -119.79493 4294967295
457.27615 2133.7896 -119.83404 4294967295
459.26181 2133.6765 -119.38653 4294967295
461.55081 2133.5632 -119.90221 4294967295
391.50522 2138.1936 -119.96976 4294967295
393.13007 2138.1787 -119.7808 4294967295
398.91565 2137.7793 -119.60422 4294967295
339.52606 2141.8354 -119.99292 4294967295
341.04657 2141.7351 -119.87596 4294967295
349.48779 2141.2903 -119.87492 4294967295
363.52307 2140.4087 -119.95024 4294967295
367.62405 2140.062 -119.99365 4294967295
375.44559 2139.4426 -119.98161 4294967295
311.77731 2143.877 -119.08236 4294967295
313.24304 2143.6636 -119.91246 4294967295
321.09973 2143.092 -119.62711 4294967295
261.08109 2147.384 -119.89449 4294967295
277.48895 2146.3926 -119.00713 4294967295
285.71561 2145.7988 -119.9099 4294967295
286.10516 2145.9045 -119.03304 4294967295
289.62009 2145.4141 -119.84052 4294967295
291.32843 2145.2778 -119.7935 4294967295
295.53043 2145.2825 -119.10475 4294967295
209.20477 2150.9563 -119.83353 4294967295
211.04716 2150.981 -119.88792 4294967295
217.17729 2150.6963 -119.38315 4294967295
223.79337 2150.0239 -119.96384 4294967295
227.39903 2149.835 -119.87749 4294967295
229.5218 2149.6777 -119.87775 4294967295
231.58351 2149.5525 -119.95966 4294967295
242.75639 2148.8313 -119.52253 4294967295
191.37299 2152.574 -119.99228 4294967295
198.98717 2152.1265 -119.89145 4294967295
135.52342 2156.9749 -119.95305 4294967295
137.79309 2156.9346 -119.37931 4294967295
140.31151 2156.7678 -119.26202 4294967295
157.4046 2155.2964 -119.72832 4294967295
159.11537 2155.1821 -119.79816 4294967295
163.4373 2154.8413 -119.96423 4294967295
503.4053 2155.5645 -119.08004 4294967295
89.942581 2159.8838 -119.2316 4294967295
95.889984 2158.5725 -119.96726 4294967295
98.253616 2158.4465 -119.71859 4294967295
100.53033 2158.2336 -119.75888 4294967295
102.74348 2158.1262 -119.72136 4294967295
105.01311 2158.1843 -119.4893 4294967295
106.57723 2158.2952 -119.33263 4294967295
108.21612 2158.3308 -119.35007 4294967295
111.068 2158.1587 -119.94759 4294967295
127.70448 2157.627 -119.13555 4294967295
133.26198 2157.1887 -119.0825 4294967295
449.52393 2159.8623 -119.8503 4294967295
451.54105 2159.823 -119.36578 4294967295
452.99304 2159.6467 -119.77045 4294967295
455.15186 2159.5178 -119.07841 4294967295
457.24115 2159.418 -119.09804 4294967295
480.40979 2158.429 -119.01039 4294967295
488.39731 2158.4009 -119.10406 4294967295
491.89175 2158.2332 -119.12765 4294967295
497.70328 2157.1565 -119.46574 4294967295
80.749062 2161.2703 -119.73164 4294967295
84.73999 2160.7988 -119.59174 4294967295
87.214302 2160.2537 -119.81266 4294967295
403.4379 2162.8433 -119.80141 4294967295
419.03067 2161.5112 -119.76887 4294967295
427.12115 2161.0247 -119.8861 4294967295
431.39932 2160.9456 -119.94524 4294967295
433.35367 2160.7275 -119.76974 4294967295
435.33481 2160.7053 -119.79771 4294967295
437.13669 2160.6255 -119.84894 4294967295
439.39713 2160.4197 -119.8233 4294967295
441.67154 2160.2495 -119.97354 4294967295
443.66089 2160.1697 -119.85349 4294967295
447.01987 2160.0327 -119.56493 4294967295
357.43579 2165.9431 -119.60517 4294967295
361.202 2165.6597 -119.53537 4294967295
363.56876 2165.5828 -119.94145 4294967295
367.61804 2165.4263 -119.96992 4294967295
371.71213 2165.2148 -119.88824 4294967295
381.09656 2164.5903 -119.51578 4294967295
393.64746 2163.3467 -119.75541 4294967295
395.45486 2163.1914 -119.69168 4294967295
399.22412 2163.1045 -119.94595 4294967295
401.45352 2163.0083 -119.95847 4294967295
319.17447 2168.9504 -119.84675 4294967295
321.29834 2168.8091 -119.91697 4294967295
323.37265 2168.6245 -119.81493 4294967295
325.56342 2168.5095 -119.88232 4294967295
327.69812 2168.3386 -119.79543 4294967295
331.85043 2168.1765 -119.90784 4294967295
335.61359 2167.9246 -119.94866 4294967295
339.11676 2167.3665 -119.63308 4294967295
341.09888 2167.1924 -119.69701 4294967295
349.18112 2166.7188 -119.70519 4294967295
353.24615 2166.4402 -119.79794 4294967295
276.96939 2171.5698 -119.47617 4294967295
278.91614 2171.6365 -119.72517 4294967295
284.32196 2171.5027 -119.88464 4294967295
287.33487 2171.2883 -119.8871 4294967295
291.02863 2171.0964 -119.765 4294967295
295.06201 2170.7278 -119.65405 4294967295
297.39944 2170.4849 -119.63886 4294967295
301.11859 2170.1968 -119.76896 4294967295
303.56766 2169.9243 -119.66212 4294967295
304.89667 2169.9812 -119.83711 4294967295
307.73434 2169.6814 -119.62608 4294967295
315.68716 2169.1401 -119.95668 4294967295
225.35342 2174.6919 -119.66843 4294967295
227.04022 2174.9199 -119.99104 4294967295
229.32481 2174.7512 -119.76147 4294967295
231.14693 2174.7756 -119.75945 4294967295
233.35316 2174.7122 -119.82386 4294967295
235.18947 2174.6155 -119.80487 4294967295
239.19691 2174.2661 -119.68574 4294967295
241.16971 2173.9407 -119.44405 4294967295
247.51332 2173.8005 -119.70934 4294967295
251.32396 2173.8943 -119.93285 4294967295
255.30959 2173.2505 -119.59126 4294967295
257.67035 2172.9072 -119.51362 4294967295
259.52139 2172.7686 -119.75252 4294967295
261.44928 2172.6343 -119.88893 4294967295
267.50119 2172.3171 -119.73734 4294967295
269.65952 2172.2312 -119.8215 4294967295
271.58264 2172.0466 -119.6656 4294967295
191.65764 2177.1033 -119.75052 4294967295
209.68285 2175.9575 -119.87048 4294967295
217.29291 2175.5925 -119.80152 4294967295
221.27501 2175.1404 -119.92654 4294967295
134.22571 2180.5403 -119.85465 4294967295
137.57678 2180.4578 -119.89985 4294967295
139.69873 2180.2886 -119.85191 4294967295
142.40565 2180.0239 -119.952 4294967295
158.28629 2179.1067 -119.80176 4294967295
163.13947 2178.8479 -119.92333 4294967295
477.45782 2132.1399 -118.93538 4294967295
489.20364 2131.137 -118.27436 4294967295
493.93173 2130.6484 -118.12862 4294967295
499.53525 2130.7869 -118.12042 4294967295
503.32361 2131.0952 -118.69727 4294967295
505.59488 2132.2375 -118.45261 4294967295
389.65717 2138.7129 -118.57496 4294967295
391.55539 2138.6619 -118.17698 4294967295
507.92694 2136.2446 -118.8204 4294967295
345.72153 2141.9856 -118.41568 4294967295
349.51865 2141.5681 -118.15889 4294967295
353.34467 2141.3479 -118.03378 4294967295
355.37689 2141.085 -118.06883 4294967295
359.87827 2140.8528 -118.448 4294967295
369.52536 2140.2473 -118.0883 4294967295
377.45291 2139.6516 -118.02183 4294967295
305.28885 2144.333 -118.94477 4294967295
309.41208 2144.0225 -118.9528 4294967295
313.60858 2143.905 -118.43969 4294967295
317.3161 2143.8748 -118.20495 4294967295
319.57056 2143.6331 -118.23484 4294967295
337.33191 2142.4631 -118.13207 4294967295
339.78906 2142.2932 -118.22397 4294967295
261.70969 2147.6458 -118.3474 4294967295
279.38809 2146.2527 -118.59783 4294967295
281.67352 2146.1477 -118.93566 4294967295
283.16522 2146.0737 -118.5696 4294967295
287.3027 2146.0696 -118.42712 4294967295
289.99207 2145.7964 -118.34925 4294967295
291.43784 2145.5137 -118.14172 4294967295
217.65956 2150.9209 -118.30841 4294967295
222.15115 2150.5486 -118.50893 4294967295
227.55836 2150.0476 -118.03596 4294967295
229.43661 2150.1721 -118.26216 4294967295
233.3438 2149.9199 -118.21352 4294967295
239.32097 2149.3264 -118.19035 4294967295
241.40436 2149.2671 -118.00256 4294967295
247.94392 2148.8655 -118.07343 4294967295
249.64215 2148.7646 -118.14992 4294967295
251.12042 2148.6687 -118.14433 4294967295
253.87427 2148.394 -118.62868 4294967295
255.53336 2148.2375 -118.34656 4294967295
257.83234 2148.0691 -118.40973 4294967295
187.304 2153.4714 -118.0507 4294967295
189.61337 2153.0935 -118.11826 4294967295
200.08046 2152.2893 -118.07138 4294967295
204.32518 2151.7107 -118.42777 4294967295
209.70508 2151.1821 -118.04117 4294967295
171.52411 2154.1975 -118.11511 4294967295
501.1413 2155.5837 -118.89087 4294967295
505.69684 2154.0315 -118.95026 4294967295
92.114517 2159.7036 -118.75442 4294967295
94.330734 2159.7446 -118.03555 4294967295
110.05667 2158.5078 -118.79904 4294967295
458.49313 2159.5452 -118.012 4294967295
460.99643 2159.3386 -118.92917 4294967295
475.0116 2158.5532 -118.45073 4294967295
478.15271 2158.4263 -118.63383 4294967295
483.06641 2158.4365 -118.14705 4294967295
490.46655 2158.3269 -118.75738 4294967295
493.91849 2157.6506 -118.49893 4294967295
495.73282 2157.3855 -118.73875 4294967295
82.966782 2161.3611 -118.52565 4294967295
371.95364 2164.8997 -118.163 4294967295
321.39996 2168.3081 -118.06951 4294967295
325.34439 2167.9075 -118.04263 4294967295
329.03552 2167.6929 -118.09602 4294967295
331.5304 2167.5256 -118.02679 4294967295
333.35864 2167.4087 -118.00741 4294967295
337.61575 2167.0852 -118.21004 4294967295
340.88052 2166.8193 -118.01881 4294967295
343.06213 2166.6885 -118.08962 4294967295
345.65872 2166.5549 -118.1481 4294967295
278.78448 2171.1208 -118.09908 4294967295
282.00488 2171.1099 -118.16198 4294967295
285.63748 2170.8489 -118.05645 4294967295
295.56274 2170.2588 -118.37666 4294967295
223.8311 2174.5732 -118.29243 4294967295
239.83414 2173.6941 -118.25277 4294967295
246.37975 2173.4863 -118.09488 4294967295
251.49184 2173.1865 -118.29118 4294967295
253.03493 2173.0217 -118.09864 4294967295
262.22778 2172.1055 -118.01844 4294967295
211.70399 2175.6072 -118.1941 4294967295
213.48335 2175.6768 -118.05994 4294967295
163.52055 2178.8223 -118.14135 4294967295
485.41205 2131.0334 -117.77938 4294967295
492.80945 2131.1697 -117.59286 4294967295
495.52649 2130.7761 -117.69555 4294967295
497.94714 2130.7095 -117.87956 4294967295
501.28394 2131.262 -117.74809 4294967295
503.62665 2132.3296 -117.53799 4294967295
449.77127 2133.7786 -117.18925 4294967295
451.51495 2133.7776 -117.07912 4294967295
459.79663 2133.5681 -117.18649 4294967295
503.48245 2133.6743 -117.00817 4294967295
505.55338 2133.4724 -117.82686 4294967295
385.72269 2138.9304 -117.71051 4294967295
387.55756 2138.8225 -117.90453 4294967295
395.45096 2138.2344 -117.66753 4294967295
397.22067 2138.001 -117.69158 4294967295
505.6777 2137.2795 -117.7897 4294967295
347.21219 2141.9155 -117.99914 4294967295
351.30539 2141.4641 -117.83223 4294967295
357.50519 2141.0276 -117.96421 4294967295
361.23401 2140.7622 -117.99359 4294967295
365.45737 2140.5403 -117.76667 4294967295
367.43051 2140.4058 -117.40316 4294967295
371.79794 2140.074 -117.88174 4294967295
373.32245 2139.9617 -117.90838 4294967295
375.50589 2139.7058 -117.89497 4294967295
381.16827 2139.3477 -117.74384 4294967295
383.34827 2139.1409 -117.856 4294967295
321.25879 2143.4817 -117.90714 4294967295
323.48477 2143.3247 -117.80498 4294967295
329.16254 2143.0466 -117.69965 4294967295
334.98248 2142.625 -117.879 4294967295
343.14838 2142.0925 -117.9334 4294967295
259.1391 2147.8535 -117.93891 4294967295
263.29263 2147.6074 -117.91367 4294967295
265.3324 2147.6396 -117.90712 4294967295
273.12048 2146.9033 -117.8231 4294967295
275.5354 2146.6589 -117.79898 4294967295
218.9606 2150.7847 -117.55783 4294967295
236.89519 2149.6328 -117.43269 4294967295
244.87167 2148.9648 -117.73724 4294967295
191.55217 2152.9114 -117.81397 4294967295
195.51706 2152.5901 -117.59956 4294967295
201.06596 2152.1501 -117.67403 4294967295
213.16885 2151.157 -117.7067 4294967295
501.67911 2153.1633 -117.4634 4294967295
503.91888 2151.6111 -117.66374 4294967295
165.76273 2154.8027 -117.33965 4294967295
495.99084 2156.1375 -117.34969 4294967295
498.30029 2155.7644 -117.95056 4294967295
99.750847 2159.4849 -117.3053 4294967295
101.94818 2159.175 -117.4875 4294967295
104.15968 2159.0593 -117.3662 4294967295
109.53037 2158.8828 -117.12735 4294967295
111.92102 2158.6628 -117.50542 4294967295
129.31779 2157.6331 -117.22916 4294967295
135.11855 2157.3074 -117.01501 4294967295
138.23291 2157.1501 -117.18362 4294967295
486.09659 2158.3972 -117.44057 4294967295
489.9194 2158.1362 -117.55196 4294967295
491.85303 2157.6711 -117.4215 4294967295
80.684578 2161.8176 -117.69734 4294967295
85.328835 2161.2461 -117.84528 4294967295
87.052879 2160.9929 -117.75175 4294967295
88.661514 2160.7969 -117.61091 4294967295
90.669716 2160.5085 -117.49533 4294967295
399.30478 2162.9888 -117.63759 4294967295
401.3667 2162.8721 -117.82453 4294967295
405.13345 2162.7527 -117.51283 4294967295
424.14941 2161.4963 -117.47817 4294967295
425.45029 2161.4248 -117.11916 4294967295
427.48593 2161.3838 -117.17971 4294967295
429.17606 2161.1934 -117.05115 4294967295
431.39667 2161.1919 -117.03974 4294967295
433.70978 2161.022 -117.15405 4294967295
435.63596 2160.9492 -117.0379 4294967295
441.37735 2160.6414 -117.27717 4294967295
451.42365 2160.0217 -117.27977 4294967295
355.52084 2165.7803 -117.86018 4294967295
359.43372 2165.5283 -117.61692 4294967295
363.46121 2165.2524 -117.72455 4294967295
365.73672 2165.2407 -117.97269 4294967295
369.43243 2165.0601 -117.85959 4294967295
374.98465 2164.8174 -117.71931 4294967295
377.73062 2164.6917 -117.60966 4294967295
379.4989 2164.5771 -117.72272 4294967295
393.97186 2163.3359 -117.73421 4294967295
395.55887 2163.2363 -117.5643 4294967295
309.33054 2168.9106 -117.88245 4294967295
313.50888 2168.7249 -117.9921 4294967295
315.54309 2168.5786 -117.31825 4294967295
317.42349 2168.4863 -117.94324 4294967295
323.31055 2168.168 -117.91955 4294967295
335.33215 2167.2529 -117.80638 4294967295
348.93863 2166.272 -117.94578 4294967295
352.00421 2166.0332 -117.91793 4294967295
267.30618 2171.8865 -117.94445 4294967295
270.0351 2171.5361 -117.372 4294967295
273.41367 2171.3186 -117.9377 4294967295
275.2865 2171.1812 -117.86469 4294967295
284.00885 2170.9402 -117.96658 4294967295
288.86325 2170.7231 -117.66845 4294967295
292.0842 2170.5439 -117.97717 4294967295
293.37454 2170.2944 -117.77764 4294967295
297.33182 2169.9546 -117.78901 4294967295
299.00851 2169.656 -117.7683 4294967295
301.2121 2169.4519 -117.93732 4294967295
303.59018 2169.2603 -117.66369 4294967295
304.49945 2169.3967 -117.86079 4294967295
221.11664 2174.8623 -117.80208 4294967295
226.7789 2174.3909 -117.73463 4294967295
229.68622 2174.4312 -117.84655 4294967295
231.25305 2174.3755 -117.97665 4294967295
233.12506 2174.2903 -117.85403 4294967295
235.11186 2174.1321 -117.96841 4294967295
241.34406 2173.5818 -117.87296 4294967295
249.32739 2173.21 -117.62585 4294967295
255.55241 2172.718 -117.46368 4294967295
257.81528 2172.4624 -117.4091 4294967295
259.42798 2172.2991 -117.6693 4294967295
265.71445 2172.0046 -117.93368 4294967295
177.62662 2177.9197 -117.80441 4294967295
181.46046 2177.6208 -117.66607 4294967295
183.32578 2177.4053 -117.55681 4294967295
185.68004 2177.1472 -117.73394 4294967295
187.43715 2177.0723 -117.65815 4294967295
191.20099 2176.9153 -117.53687 4294967295
192.8743 2176.8252 -117.57529 4294967295
197.29483 2176.4451 -117.80292 4294967295
201.60669 2176.1213 -117.78015 4294967295
203.2327 2175.991 -117.86307 4294967295
207.28421 2175.7068 -117.96906 4294967295
217.29163 2175.2156 -117.93908 4294967295
219.17017 2175.0537 -117.66285 4294967295
134.36078 2180.8994 -117.1993 4294967295
135.13554 2180.8425 -117.01382 4294967295
137.66928 2180.7327 -117.04298 4294967295
140.608 2180.51 -117.33873 4294967295
142.64378 2180.4248 -117.09536 4294967295
159.99388 2179.1086 -117.54053 4294967295
161.96802 2178.9653 -117.5546 4294967295
165.13165 2178.8713 -117.30474 4294967295
169.51505 2178.6355 -117.40813 4294967295
171.37424 2178.5356 -117.11762 4294967295
172.93178 2178.3228 -117.85169 4294967295
175.62209 2178.1104 -117.72672 4294967295
471.06314 2132.7361 -116.44535 4294967295
481.99295 2132.2288 -116.28033 4294967295
487.52887 2131.8044 -116.25283 4294967295
492.33929 2132.0342 -116.00676 4294967295
493.71893 2131.9717 -116.08673 4294967295
495.7049 2131.2427 -116.56605 4294967295
499.55347 2131.801 -116.59146 4294967295
501.18259 2132.4832 -116.65004 4294967295
453.26773 2133.8079 -116.97842 4294967295
455.10147 2133.73 -116.91749 4294967295
457.56021 2133.7451 -116.80785 4294967295
501.70901 2134.2039 -116.38362 4294967295
503.61319 2135.7268 -116.60007 4294967295
501.63513 2138.4111 -116.08677 4294967295
503.33032 2138.7888 -116.82934 4294967295
369.76855 2140.2234 -116.05054 4294967295
502.10123 2141.7517 -116.59236 4294967295
500.37833 2147.2266 -116.1911 4294967295
219.93738 2150.6726 -116.04247 4294967295
499.71585 2149.916 -116.07608 4294967295
501.45767 2149.0576 -116.63654 4294967295
206.3217 2151.3313 -116.17206 4294967295
498.35629 2153.8879 -116.74271 4294967295
499.76569 2151.9587 -116.42195 4294967295
501.22223 2151.7927 -116.54568 4294967295
166.43253 2154.873 -116.11546 4294967295
169.82553 2154.4617 -116.1994 4294967295
493.73889 2156.7307 -116.86693 4294967295
106.91552 2159.0464 -116.9227 4294967295
131.80766 2157.4368 -116.70412 4294967295
455.2818 2159.8914 -116.83993 4294967295
457.85986 2159.6946 -116.79376 4294967295
458.97668 2159.6797 -116.62507 4294967295
461.67661 2159.635 -116.74846 4294967295
479.95697 2158.4548 -116.51183 4294967295
484.47992 2158.4336 -116.6507 4294967295
488.47491 2158.1467 -116.74403 4294967295
86.941635 2161.7791 -116.05885 4294967295
92.48188 2160.7078 -116.62691 4294967295
97.005493 2160.1184 -116.71145 4294967295
438.95395 2160.8547 -116.7219 4294967295
453.3623 2160.0298 -116.81279 4294967295
478.48856 2132.7068 -115.78461 4294967295
485.22397 2132.2781 -115.40849 4294967295
490.2872 2132.4443 -115.46789 4294967295
495.19669 2132.8979 -115.34373 4294967295
497.64856 2132.6418 -115.35939 4294967295
492.80862 2133.0413 -115.01007 4294967295
499.36493 2134.5667 -115.57752 4294967295
387.26636 2138.8022 -115.33391 4294967295
499.80267 2137.729 -115.31856 4294967295
501.23758 2136.3013 -115.90942 4294967295
347.30338 2141.7144 -115.07677 4294967295
361.35254 2140.7097 -115.07066 4294967295
363.30405 2140.5991 -115.06528 4294967295
365.43817 2140.4609 -115.34689 4294967295
371.8443 2140.0144 -115.0363 4294967295
373.21002 2139.9097 -115.03056 4294967295
375.72723 2139.7297 -115.18698 4294967295
379.26425 2139.4863 -115.14889 4294967295
381.46841 2139.322 -115.06149 4294967295
383.46564 2139.1257 -115.19162 4294967295
499.8223 2139.9817 -115.41261 4294967295
315.59531 2143.7778 -115.28123 4294967295
339.664 2142.1326 -115.35369 4294967295
499.38879 2143.3057 -115.47983 4294967295
270.9903 2146.8604 -115.26563 4294967295
277.58035 2146.2554 -115.76004 4294967295
279.59717 2146.1504 -115.75095 4294967295
281.42542 2146.1113 -115.83906 4294967295
283.48938 2146.0098 -115.43332 4294967295
287.65717 2145.8247 -115.50688 4294967295
288.83926 2145.7898 -115.07346 4294967295
291.59723 2145.4958 -115.88602 4294967295
498.04636 2146.5466 -115.15089 4294967295
218.25073 2150.8289 -115.98022 4294967295
221.47278 2150.5471 -115.26994 4294967295
223.43542 2150.4167 -115.77848 4294967295
225.51195 2150.24 -115.28266 4294967295
227.71153 2150.085 -115.0299 4294967295
229.20795 2149.9958 -115.30488 4294967295
231.64175 2149.8977 -115.65292 4294967295
237.50496 2149.5632 -115.79369 4294967295
241.73076 2149.1804 -115.96661 4294967295
243.59023 2149.0034 -115.10908 4294967295
497.72375 2148.8494 -115.2253 4294967295
193.52792 2152.8259 -115.5923 4294967295
195.51788 2152.6714 -115.53984 4294967295
197.01001 2152.5283 -115.62358 4294967295
207.5054 2151.1841 -115.21001 4294967295
211.83102 2151.0603 -115.63926 4294967295
496.22498 2152.6277 -115.34071 4294967295
497.93756 2151.269 -115.68623 4294967295
492.48804 2156.373 -115.78944 4294967295
494.24747 2155.4114 -115.83205 4294967295
495.80496 2154.3542 -115.88868 4294967295
103.24866 2159.9458 -115.32287 4294967295
105.19843 2159.6741 -115.38045 4294967295
109.05087 2159.2705 -115.4436 4294967295
110.95127 2159.1873 -115.04907 4294967295
130.31538 2157.6909 -115.49322 4294967295
476.39862 2158.2063 -115.10034 4294967295
481.96405 2158.4368 -115.81354 4294967295
483.54834 2158.2659 -115.57304 4294967295
485.39069 2158.1006 -115.40717 4294967295
487.16809 2158.0693 -115.66648 4294967295
490.43561 2157.3306 -115.86415 4294967295
83.148308 2162.5708 -115.74357 4294967295
90.03463 2161.5337 -115.70988 4294967295
94.564842 2160.8289 -115.92583 4294967295
101.28346 2160.1235 -115.53083 4294967295
361.23105 2165.5935 -115.42118 4294967295
365.84399 2165.356 -115.45177 4294967295
367.63327 2165.3364 -115.03261 4294967295
370.73599 2165.2161 -115.29736 4294967295
378.03488 2164.9331 -115.06918 4294967295
395.51163 2163.4526 -115.4263 4294967295
397.95871 2163.3313 -115.2661 4294967295
309.23001 2168.9636 -115.38057 4294967295
321.36441 2168.2571 -115.10432 4294967295
325.68906 2167.9551 -115.13661 4294967295
327.87119 2167.791 -115.37073 4294967295
331.66937 2167.5886 -115.03951 4294967295
333.49286 2167.4509 -115.27262 4294967295
335.71417 2167.301 -115.2529 4294967295
337.44064 2167.1904 -115.15894 4294967295
339.04663 2167.0291 -115.47596 4294967295
340.93057 2166.8494 -115.70709 4294967295
343.21408 2166.7322 -115.53046 4294967295
345.48785 2166.6274 -115.20045 4294967295
265.23056 2171.9756 -115.36984 4294967295
267.56046 2171.8181 -115.42146 4294967295
271.16464 2171.5745 -115.31075 4294967295
275.69 2171.2805 -115.45992 4294967295
284.18576 2170.9382 -115.0906 4294967295
287.42984 2170.6982 -115.64017 4294967295
289.35153 2170.554 -115.59555 4294967295
297.76315 2169.7437 -115.38237 4294967295
301.19421 2169.4453 -115.328 4294967295
303.31787 2169.3098 -115.26726 4294967295
304.88165 2169.2339 -115.22131 4294967295
307.59332 2169.0464 -115.3933 4294967295
226.00764 2174.606 -115.58303 4294967295
229.61263 2174.469 -115.00768 4294967295
231.73061 2174.3374 -115.26044 4294967295
235.40283 2174.0708 -115.05505 4294967295
237.6487 2173.8953 -115.49529 4294967295
253.77124 2172.9231 -115.22239 4294967295
257.48843 2172.5071 -115.59129 4294967295
259.66257 2172.3081 -115.2411 4294967295
262.04144 2172.1343 -115.73701 4294967295
219.39034 2175.335 -115.00632 4294967295
141.16171 2180.8308 -115.07986 4294967295
159.75221 2179.5505 -115.08066 4294967295
469.55801 2132.8303 -114.03828 4294967295
487.48734 2132.79 -114.57925 4294967295
451.53366 2133.9187 -114.32018 4294967295
453.31183 2133.8547 -114.81998 4294967295
457.46143 2133.6987 -114.53952 4294967295
459.10315 2133.5642 -114.41731 4294967295
461.39331 2133.3494 -114.11418 4294967295
465.68494 2133.0986 -114.19434 4294967295
483.38049 2133.0698 -114.20592 4294967295
491.46674 2133.8533 -114.21889 4294967295
494.33591 2134.5466 -114.30403 4294967295
495.72015 2135.8052 -114.1385 4294967295
497.02094 2134.4172 -114.91696 4294967295
385.29416 2138.9482 -114.95701 4294967295
389.89865 2138.4822 -114.95484 4294967295
395.70047 2137.8154 -114.99961 4294967295
497.27185 2136.9189 -114.40469 4294967295
498.35565 2138.0986 -114.71498 4294967295
345.58524 2141.8257 -114.74454 4294967295
349.57507 2141.5054 -114.86223 4294967295
355.50241 2141.0725 -114.95202 4294967295
357.45258 2140.9526 -114.94802 4294967295
359.51675 2140.8081 -114.83125 4294967295
377.52795 2139.6028 -114.8642 4294967295
497.39294 2141.7937 -114.43599 4294967295
498.16574 2140.5757 -114.70428 4294967295
496.24146 2144.9231 -114.12822 4294967295
497.61884 2143.5183 -114.67718 4294967295
275.11945 2146.3477 -114.82127 4294967295
285.08267 2145.9155 -114.96401 4294967295
496.60794 2146.8823 -114.51811 4294967295
497.62762 2145.103 -114.83166 4294967295
239.45079 2149.3738 -114.99755 4294967295
495.94324 2149.9185 -114.60077 4294967295
191.23293 2152.9956 -114.92613 4294967295
494.26346 2152.5723 -114.44483 4294967295
495.15314 2152.0857 -114.70169 4294967295
169.52763 2154.6318 -114.89628 4294967295
171.32692 2154.489 -114.87843 4294967295
489.992 2156.8674 -114.64527 4294967295
491.27518 2155.7449 -114.38608 4294967295
492.6228 2154.5952 -114.34455 4294967295
493.0065 2155.1313 -114.94343 4294967295
106.63355 2159.8237 -114.39585 4294967295
108.04512 2159.6072 -114.5285 4294967295
113.51923 2159.01 -114.64967 4294967295
133.09247 2157.4773 -114.83062 4294967295
135.59628 2157.3613 -114.91757 4294967295
137.29504 2157.3264 -114.61533 4294967295
139.02165 2157.2285 -114.27057 4294967295
479.01453 2158.1216 -114.46173 4294967295
480.8454 2158.1504 -114.52586 4294967295
482.46729 2158.0693 -114.42236 4294967295
488.78525 2157.5247 -114.99957 4294967295
88.537552 2162.74 -114.19701 4294967295
90.450722 2162.4939 -114.19188 4294967295
92.884041 2162.1418 -114.3086 4294967295
95.684853 2161.5491 -114.58807 4294967295
97.547073 2161.6882 -114.01691 4294967295
99.479591 2160.8911 -114.71944 4294967295
433.41339 2161.4663 -114.82925 4294967295
437.13739 2161.1848 -114.79832 4294967295
439.17078 2161.0364 -114.89885 4294967295
441.5199 2160.9409 -114.67799 4294967295
451.59912 2160.4326 -114.49257 4294967295
453.91898 2160.2786 -114.93518 4294967295
455.38885 2160.2974 -114.32404 4294967295
459.39255 2160.1128 -114.17951 4294967295
86.170517 2163.0337 -114.28997 4294967295
401.00027 2163.2136 -114.97948 4294967295
281.27234 2171.1267 -114.45418 4294967295
285.48834 2170.8757 -114.80245 4294967295
250.76759 2173.2393 -114.62805 4294967295
255.4142 2172.7832 -114.68588 4294967295
217.30527 2175.5898 -114.96896 4294967295
221.02869 2175.1836 -114.9423 4294967295
131.42801 2181.5828 -114.72254 4294967295
139.1953 2181.0063 -114.75959 4294967295
471.58102 2132.6755 -113.5806 4294967295
472.98047 2132.668 -113.15091 4294967295
476.05563 2133.1255 -113.92981 4294967295
480.84912 2133.8577 -113.28048 4294967295
485.39273 2133.6296 -113.48882 4294967295
487.45999 2134.1777 -113.21131 4294967295
488.94113 2133.4951 -113.97509 4294967295
489.17032 2134.9211 -113.04444 4294967295
490.26331 2134.001 -113.88695 4294967295
491.45157 2135.9275 -113.10879 4294967295
492.60544 2134.4312 -113.99523 4294967295
493.08694 2135.2983 -113.66566 4294967295
420.01648 2136.3545 -113.10168 4294967295
493.95102 2136.4805 -113.50871 4294967295
494.19708 2138.6577 -113.15211 4294967295
495.79739 2137.5283 -113.82718 4294967295
361.48602 2140.7375 -113.1078 4294967295
366.94049 2140.4302 -113.13685 4294967295
370.23807 2140.1831 -113.17591 4294967295
375.78918 2139.7654 -113.04192 4294967295
494.88342 2141.5225 -113.23511 4294967295
496.21063 2140.0298 -113.83794 4294967295
495.77795 2142.8281 -113.72359 4294967295
275.80115 2146.0872 -113.37059 4294967295
289.5022 2145.5344 -113.1105 4294967295
493.95917 2147.9844 -113.22666 4294967295
494.33972 2145.3306 -113.14923 4294967295
495.46274 2146.7361 -113.90778 4294967295
225.37091 2150.323 -113.17223 4294967295
227.62155 2150.2703 -113.19518 4294967295
493.09088 2149.7939 -113.04385 4294967295
494.47144 2149.9653 -113.85616 4294967295
495.22488 2148.3171 -113.98419 4294967295
492.47348 2152.854 -113.56553 4294967295
489.27136 2156.4729 -113.87047 4294967295
109.65282 2159.6577 -113.57133 4294967295
465.93076 2159.9319 -113.68537 4294967295
469.79391 2158.7107 -113.26662 4294967295
473.13599 2157.9846 -113.28708 4294967295
477.95477 2157.5576 -113.34303 4294967295
481.85492 2157.3809 -113.1292 4294967295
484.29596 2157.0757 -113.26923 4294967295
487.12436 2157.2024 -113.98108 4294967295
101.97839 2161.3159 -113.16639 4294967295
104.93233 2160.533 -113.23034 4294967295
462.0148 2160.0857 -113.8991 4294967295
463.17505 2160.0164 -113.97056 4294967295
84.646912 2164.2483 -113.33676 4294967295
331.69666 2167.781 -113.03448 4294967295
219.39191 2175.677 -113.14198 4294967295
437.3942 2134.4519 -112.02953 4294967295
449.70197 2134.114 -112.26878 4294967295
453.47394 2133.9236 -112.41455 4294967295
477.82153 2133.9756 -112.73283 4294967295
483.36188 2134.2676 -112.74421 4294967295
484.67953 2134.7075 -112.44141 4294967295
485.93323 2135.3557 -112.2268 4294967295
487.60986 2135.8843 -112.23484 4294967295
387.54025 2138.6982 -112.93298 4294967295
389.47473 2138.4402 -112.88768 4294967295
489.19684 2136.8323 -112.18169 4294967295
490.40323 2137.5537 -112.22565 4294967295
491.40643 2138.4475 -112.29312 4294967295
492.75833 2137.7896 -112.85387 4294967295
363.35785 2140.6465 -112.60878 4294967295
365.42075 2140.5303 -112.98074 4294967295
377.60867 2139.6453 -112.80292 4294967295
378.93918 2139.5454 -112.73862 4294967295
381.31857 2139.3501 -112.95078 4294967295
383.48547 2139.1106 -112.78782 4294967295
492.72849 2139.3398 -112.52448 4294967295
493.84503 2140.5659 -112.82504 4294967295
493.50452 2142.8584 -112.62305 4294967295
267.15256 2146.8455 -112.59118 4294967295
273.08328 2146.3628 -112.85803 4294967295
281.32553 2145.78 -112.89567 4294967295
492.71909 2146.0938 -112.34981 4294967295
223.52217 2150.397 -112.75013 4294967295
228.92944 2150.1624 -112.85338 4294967295
491.78259 2150.4854 -112.48605 4294967295
492.51135 2148.5583 -112.49671 4294967295
189.47438 2153.2361 -112.83197 4294967295
193.40109 2152.9153 -112.5603 4294967295
210.92732 2151.1072 -112.65143 4294967295
490.19089 2151.9465 -112.09236 4294967295
491.32767 2152.7068 -112.83266 4294967295
145.24867 2156.6667 -112.66887 4294967295
168.33247 2154.811 -112.78484 4294967295
170.77463 2154.7229 -112.0251 4294967295
173.9753 2154.4038 -112.84986 4294967295
482.70132 2156.2666 -112.05894 4294967295
486.78775 2155.7861 -112.48272 4294967295
488.41766 2154.9707 -112.53416 4294967295
490.07172 2154.6111 -112.98746 4294967295
111.95256 2159.6311 -112.45267 4294967295
128.77039 2157.9575 -112.20075 4294967295
133.2542 2157.6624 -112.58044 4294967295
135.4032 2157.4443 -112.68928 4294967295
136.98227 2157.3938 -112.05736 4294967295
139.49602 2157.2341 -112.94697 4294967295
141.37711 2157.0684 -112.25169 4294967295
463.66382 2159.8276 -112.01015 4294967295
466.33832 2159.5977 -112.0446 4294967295
475.01672 2157.416 -112.77888 4294967295
476.55203 2157.2163 -112.82085 4294967295
479.79541 2157.2246 -112.88366 4294967295
107.82693 2160.4109 -112.1356 4294967295
87.495583 2164.2236 -112.93467 4294967295
90.603531 2163.8716 -112.80331 4294967295
93.230568 2163.7739 -112.47365 4294967295
95.810471 2163.1467 -112.66962 4294967295
85.827621 2166.0122 -112.19252 4294967295
327.76959 2168.0137 -112.92247 4294967295
329.20737 2167.9175 -112.9856 4294967295
333.4982 2167.6985 -112.854 4294967295
335.72168 2167.5522 -112.90443 4294967295
343.45239 2167.0627 -112.8814 4294967295
345.77045 2166.9102 -112.88808 4294967295
347.91858 2166.7729 -112.87096 4294967295
352.78027 2166.5195 -112.84598 4294967295
304.93384 2169.5374 -112.83146 4294967295
251.19025 2173.2583 -112.82745 4294967295
253.7316 2173.0737 -112.89454 4294967295
256.85431 2172.8445 -112.26583 4294967295
187.89037 2177.8914 -112.82904 4294967295
191.61098 2177.7141 -112.56662 4294967295
215.5817 2175.9722 -112.86373 4294967295
221.12227 2175.4324 -112.88363 4294967295
222.81183 2175.2808 -112.83476 4294967295
171.05429 2179.2217 -112.89668 4294967295
172.93947 2179.0645 -112.57545 4294967295
185.19409 2178.1101 -112.33282 4294967295
135.36803 2181.7783 -112.03494 4294967295
138.00534 2181.4602 -112.80864 4294967295
139.56412 2181.3589 -112.45082 4294967295
455.5314 2133.7944 -111.95794 4294967295
461.71719 2133.5239 -111.95372 4294967295
463.3045 2133.5696 -111.5649 4294967295
467.50488 2133.3647 -111.70995 4294967295
469.74118 2133.3223 -111.51714 4294967295
471.91379 2133.1582 -111.81647 4294967295
475.18002 2134.2749 -111.46882 4294967295
479.00775 2135.1499 -111.62726 4294967295
480.43411 2135.6365 -111.46941 4294967295
482.00281 2135.2607 -111.86671 4294967295
388.25864 2138.564 -111.22012 4294967295
393.4313 2137.9495 -111.37845 4294967295
483.7623 2136.196 -111.49727 4294967295
485.45551 2137.2124 -111.27094 4294967295
486.55664 2136.5635 -111.70483 4294967295
487.13623 2138.1726 -111.24682 4294967295
362.9696 2140.7039 -111.00955 4294967295
489.41956 2140.063 -111.32108 4294967295
491.45526 2140.9509 -111.86612 4294967295
489.95264 2142.6924 -111.08007 4294967295
491.3093 2144.0396 -111.61981 4294967295
490.87537 2147.9026 -111.65465 4294967295
486.95023 2153.6667 -111.36465 4294967295
488.65451 2151.2004 -111.25738 4294967295
473.36847 2156.741 -111.51335 4294967295
475.39746 2156.2029 -111.52026 4294967295
477.78949 2155.9067 -111.62648 4294967295
479.7384 2155.666 -111.47374 4294967295
481.19992 2156.1045 -111.79444 4294967295
483.93323 2155.1152 -111.45364 4294967295
485.45404 2155.2478 -111.80136 4294967295
114.729 2159.2981 -111.7831 4294967295
467.67126 2159.3523 -111.89723 4294967295
471.42377 2157.4763 -111.5699 4294967295
104.12467 2161.8833 -111.20792 4294967295
105.92736 2161.2227 -111.26448 4294967295
110.09227 2160.1121 -111.77724 4294967295
438.60416 2161.4951 -111.90172 4294967295
449.22894 2160.9063 -111.92369 4294967295
451.55075 2160.8191 -111.88222 4294967295
453.39252 2160.7366 -111.9844 4294967295
456.91501 2160.2781 -111.70805 4294967295
459.85394 2160.1648 -111.72836 4294967295
88.906792 2165.897 -111.88901 4294967295
91.105843 2165.6589 -111.61098 4294967295
92.392075 2164.8748 -111.75734 4294967295
94.499893 2165.2598 -111.29018 4294967295
99.255814 2163.0645 -111.99825 4294967295
87.135521 2168.1616 -111.65924 4294967295
91.017319 2167.8369 -111.06883 4294967295
92.5709 2166.0994 -111.15963 4294967295
88.491409 2170.4602 -111.33096 4294967295
132.80504 2181.9868 -111.95164 4294967295
143.46773 2181.2083 -111.94524 4294967295
449.61829 2134.3889 -110.35107 4294967295
459.55081 2134.0117 -110.0546 4294967295
463.59644 2134.0933 -110.04532 4294967295
465.55179 2133.9736 -110.04592 4294967295
467.61334 2133.8015 -110.24294 4294967295
469.47772 2133.7214 -110.24583 4294967295
471.52377 2133.7644 -110.40552 4294967295
473.16956 2133.7988 -110.44074 4294967295
475.36685 2135.6851 -110.2849 4294967295
476.98154 2135.5898 -110.88377 4294967295
385.09976 2138.8379 -110.46491 4294967295
390.83493 2138.2314 -110.1433 4294967295
417.59555 2136.6621 -110.5182 4294967295
421.21451 2136.6072 -110.80708 4294967295
478.72064 2137.4143 -110.35517 4294967295
480.16556 2138.8289 -110.03769 4294967295
481.27457 2137.9751 -110.43822 4294967295
482.46024 2138.5046 -110.40469 4294967295
484.04929 2138.207 -110.69236 4294967295
357.17938 2140.99 -110.26012 4294967295
359.73947 2140.8735 -110.97332 4294967295
361.30984 2140.7903 -110.54841 4294967295
365.5376 2140.5381 -110.81868 4294967295
367.3418 2140.377 -110.71807 4294967295
373.6702 2139.9233 -110.70832 4294967295
375.58514 2139.7537 -110.74017 4294967295
379.30801 2139.5134 -110.95043 4294967295
381.26233 2139.2556 -110.2291 4294967295
383.45682 2139.0278 -110.54803 4294967295
485.13367 2139.2773 -110.52725 4294967295
486.15652 2140.4331 -110.39092 4294967295
487.71613 2140.6477 -110.70727 4294967295
486.15448 2142.511 -110.01213 4294967295
488.1124 2143.1074 -110.43128 4294967295
264.5152 2146.8145 -110.67751 4294967295
269.49628 2146.5393 -110.57987 4294967295
271.27036 2146.4116 -110.43958 4294967295
273.24792 2146.1445 -110.20584 4294967295
275.54718 2145.8855 -110.73852 4294967295
277.77298 2145.6948 -110.91178 4294967295
487.7356 2145.7551 -110.22074 4294967295
489.43784 2145.1411 -110.82417 4294967295
221.57086 2150.7217 -110.05136 4294967295
223.4868 2150.5486 -110.68046 4294967295
229.10965 2150.2051 -110.87063 4294967295
241.41495 2149.4595 -110.17712 4294967295
484.97354 2150.4146 -110.02579 4294967295
486.81598 2150.8647 -110.54126 4294967295
488.36884 2148.1021 -110.61896 4294967295
189.03639 2153.4321 -110.15536 4294967295
193.28143 2153.0994 -110.23547 4294967295
477.55869 2153.8396 -110.46554 4294967295
481.84042 2152.3362 -110.11822 4294967295
483.58636 2152.7751 -110.37634 4294967295
485.29999 2153.2366 -110.80546 4294967295
143.54884 2156.7927 -110.15151 4294967295
147.68108 2156.4746 -110.82566 4294967295
171.85852 2154.7219 -110.82978 4294967295
181.38235 2154.0339 -110.22007 4294967295
471.33157 2156.0195 -110.23499 4294967295
473.59668 2154.9397 -110.37351 4294967295
475.85999 2154.3599 -110.52417 4294967295
479.07111 2154.104 -110.63481 4294967295
480.72913 2154.2922 -110.74627 4294967295
482.3378 2154.6431 -110.99541 4294967295
116.01318 2159.2334 -110.25507 4294967295
135.68851 2157.3999 -110.36374 4294967295
459.99347 2159.6882 -110.33376 4294967295
461.38922 2159.5024 -110.49809 4294967295
463.367 2158.9902 -110.05206 4294967295
467.41757 2158.6765 -110.51625 4294967295
469.2951 2157.7065 -110.00027 4294967295
107.19514 2161.4766 -110.33472 4294967295
108.57268 2161.3062 -110.10205 4294967295
109.63688 2160.7249 -110.60472 4294967295
111.38371 2160.4817 -110.40865 4294967295
113.18735 2160.0225 -110.37807 4294967295
97.372879 2165.0715 -110.93513 4294967295
99.451546 2165.1208 -110.41065 4294967295
100.51204 2164.4138 -110.51427 4294967295
102.18094 2163.4653 -110.62679 4294967295
372.90076 2165.8049 -110.44283 4294967295
404.01868 2163.7473 -110.22007 4294967295
93.812904 2167.0815 -110.70413 4294967295
96.256035 2167.0732 -110.30365 4294967295
