# .PCD v0.7 - Point Cloud Data file format
VERSION 0.7
FIELDS x y z rgba
SIZE 4 4 4 4
TYPE F F F U
COUNT 1 1 1 1
WIDTH 1147
HEIGHT 1
VIEWPOINT 0 0 0 1 0 0 0
POINTS 1147
DATA ascii
181.38763 778.75366 -60.555767 4294967295
183.40115 778.93408 -60.511879 4294967295
211.25575 777.97113 -60.771702 4294967295
81.691879 782.96411 -60.775284 4294967295
83.636978 782.69366 -60.630314 4294967295
87.948792 782.67896 -60.837627 4294967295
89.240822 782.39673 -60.738377 4294967295
91.147568 782.43573 -60.812248 4294967295
93.432243 782.09949 -60.627926 4294967295
95.417618 782.39337 -60.849392 4294967295
105.23126 781.05994 -60.05051 4294967295
107.03932 782.2746 -60.924122 4294967295
110.05318 780.9798 -60.155243 4294967295
111.62956 781.96228 -60.816162 4294967295
113.41225 781.26453 -60.553066 4294967295
114.99348 781.91736 -60.948723 4294967295
115.42779 780.73993 -60.331081 4294967295
117.20924 780.68634 -60.338318 4294967295
121.34121 780.42188 -60.51228 4294967295
123.52518 780.97229 -60.634335 4294967295
125.07772 780.16229 -60.217117 4294967295
127.3765 780.29407 -60.334389 4294967295
128.77167 780.18506 -60.271145 4294967295
129.12077 781.59442 -60.815765 4294967295
131.72507 780.94092 -60.626114 4294967295
133.19478 781.36475 -60.943344 4294967295
135.38882 780.87976 -60.713123 4294967295
136.94829 781.46387 -60.769939 4294967295
141.40643 781.66443 -60.786125 4294967295
145.35922 781.75031 -60.821457 4294967295
155.49803 781.94824 -60.74995 4294967295
157.3548 781.93951 -60.835651 4294967295
159.58839 782.13446 -60.815567 4294967295
161.6386 781.84167 -60.816422 4294967295
163.37543 782.19946 -60.746754 4294967295
55.376663 783.64905 -60.770657 4294967295
58.9328 783.56329 -60.312256 4294967295
71.929817 783.28021 -60.665012 4294967295
73.450241 783.24817 -60.881378 4294967295
76.281548 783.07617 -60.844994 4294967295
78.65696 783.09094 -60.899998 4294967295
137.43523 784.3573 -60.911011 4294967295
143.23181 784.39532 -60.757221 4294967295
161.29123 784.86407 -60.544369 4294967295
165.23062 784.97345 -60.464279 4294967295
416.09439 735.07208 -59.613667 4294967295
343.35458 740.71509 -59.82621 4294967295
345.27795 740.85742 -59.455696 4294967295
347.31204 740.57849 -59.623592 4294967295
349.49301 740.47565 -59.559849 4294967295
350.99963 740.62842 -59.114758 4294967295
357.58459 740.06732 -59.386959 4294967295
359.32019 740.03345 -59.194778 4294967295
363.18845 739.83429 -59.525639 4294967295
367.54025 739.39404 -59.662502 4294967295
369.1088 739.34875 -59.792217 4294967295
371.19284 739.26892 -59.846287 4294967295
377.05246 738.97845 -59.813362 4294967295
381.43903 738.74506 -59.882786 4294967295
383.17648 738.73004 -59.450127 4294967295
385.14011 738.54974 -59.660587 4294967295
387.27179 738.27728 -59.414986 4294967295
423.62308 739.9505 -59.825409 4294967295
221.68288 743.58759 -59.204327 4294967295
223.3331 743.76019 -59.276405 4294967295
225.52493 743.77423 -59.330338 4294967295
227.52948 743.75751 -59.375103 4294967295
229.59338 743.94482 -59.32164 4294967295
231.40543 743.92493 -59.338062 4294967295
254.1324 741.24249 -59.494228 4294967295
255.32191 742.17841 -59.730206 4294967295
257.45148 741.92383 -59.782097 4294967295
259.61511 742.08862 -59.906132 4294967295
260.06018 743.72607 -59.590302 4294967295
261.77786 741.84888 -59.9631 4294967295
263.41605 743.76331 -59.581501 4294967295
267.52368 742.21741 -59.995712 4294967295
269.23065 743.078 -59.636662 4294967295
270.97437 743.72882 -59.610516 4294967295
271.95517 742.26624 -59.826702 4294967295
273.2388 742.26898 -59.893967 4294967295
274.00958 743.74396 -59.647346 4294967295
277.34393 743.38123 -59.943645 4294967295
298.75803 742.84137 -59.958721 4294967295
301.54834 742.75458 -59.795082 4294967295
303.11984 743.4552 -59.207111 4294967295
305.57919 743.30481 -59.147461 4294967295
307.12979 742.88831 -59.497635 4294967295
309.46255 742.9787 -59.515984 4294967295
313.40482 743.19098 -59.163868 4294967295
317.60236 742.9527 -59.404827 4294967295
321.15778 742.7868 -59.406208 4294967295
323.40964 742.49445 -59.285103 4294967295
325.15619 742.34839 -59.524799 4294967295
327.99734 742.37042 -59.027515 4294967295
329.7027 742.3172 -59.146908 4294967295
333.32062 742.01703 -59.188553 4294967295
337.22971 741.37146 -59.633953 4294967295
339.8241 741.49817 -59.104332 4294967295
424.01959 742.55493 -59.506889 4294967295
193.34718 745.83258 -59.051296 4294967295
197.18857 745.604 -59.103813 4294967295
199.93163 745.52844 -59.129078 4294967295
201.37193 746.0174 -59.095737 4294967295
203.54285 745.94727 -59.0686 4294967295
205.42358 745.94336 -59.097538 4294967295
207.33452 746.05359 -59.120739 4294967295
209.88916 746.18805 -59.193382 4294967295
211.48294 745.79871 -59.185226 4294967295
212.97781 745.88049 -59.169441 4294967295
215.38373 746.00134 -59.194664 4294967295
219.45081 746.00549 -59.222412 4294967295
223.46681 745.84735 -59.222099 4294967295
225.40851 746.00903 -59.178967 4294967295
227.57526 745.97534 -59.193153 4294967295
229.31274 746.07245 -59.184731 4294967295
231.57927 745.94757 -59.243225 4294967295
233.52824 745.07196 -59.282894 4294967295
235.38226 745.05603 -59.387192 4294967295
241.28012 745.95288 -59.264061 4294967295
245.77026 744.72034 -59.552162 4294967295
247.59177 745.17725 -59.489216 4294967295
249.87785 745.72284 -59.331539 4294967295
251.14949 744.1015 -59.510471 4294967295
253.24519 745.63696 -59.133987 4294967295
255.69106 744.73126 -59.429443 4294967295
257.51178 745.22662 -59.234653 4294967295
261.54282 744.09912 -59.515884 4294967295
265.71851 744.11768 -59.504238 4294967295
275.3168 744.92999 -59.049034 4294967295
424.35074 744.60217 -59.592175 4294967295
127.42599 749.50903 -59.462162 4294967295
133.29796 749.74872 -59.42432 4294967295
147.34045 749.93738 -59.50893 4294967295
149.31784 749.6803 -59.502945 4294967295
152.36731 749.69293 -59.321346 4294967295
155.94362 749.6795 -59.226273 4294967295
167.48634 748.83948 -59.158287 4294967295
171.42612 748.69751 -59.199261 4294967295
173.61266 747.95239 -59.207649 4294967295
175.61104 747.77527 -59.183311 4294967295
179.40765 747.90234 -59.108074 4294967295
181.51323 747.88617 -59.169483 4294967295
183.31479 748.98016 -59.07391 4294967295
187.49193 748.07483 -59.31731 4294967295
189.88744 748.05219 -59.134563 4294967295
191.50583 747.91119 -59.133186 4294967295
197.6613 747.92157 -59.072571 4294967295
199.54501 748.03717 -59.030384 4294967295
201.87292 747.86377 -59.005417 4294967295
212.5023 747.26501 -59.090221 4294967295
424.67578 747.11719 -59.861542 4294967295
125.48203 752.01874 -59.730869 4294967295
127.19073 751.86169 -59.702202 4294967295
129.72734 751.48071 -59.793705 4294967295
130.45313 752.9317 -59.545353 4294967295
131.62782 751.98621 -59.793545 4294967295
133.36223 752.03479 -59.563496 4294967295
135.61528 752.05182 -59.535423 4294967295
137.34335 751.81183 -59.482597 4294967295
145.61172 751.42688 -59.377533 4294967295
147.56238 751.82678 -59.317219 4294967295
151.11058 752.0141 -59.218552 4294967295
153.58418 750.97888 -59.22097 4294967295
155.14418 752.03192 -59.090065 4294967295
157.41901 751.96198 -59.073742 4294967295
159.42987 751.03735 -59.138489 4294967295
161.47336 751.13672 -59.129738 4294967295
163.20456 751.77295 -59.079231 4294967295
165.78767 750.17859 -59.226479 4294967295
167.53697 751.70929 -59.042362 4294967295
169.00871 750.07422 -59.144741 4294967295
173.6563 750.02399 -59.000187 4294967295
424.16757 751.39581 -59.665722 4294967295
115.49165 754.99988 -59.743073 4294967295
117.72345 754.79407 -59.698891 4294967295
119.57998 755.31226 -59.41106 4294967295
121.24545 753.96643 -59.924393 4294967295
123.68648 753.95575 -59.796371 4294967295
125.29572 755.13361 -59.160172 4294967295
127.29141 754.39722 -59.381157 4294967295
133.56714 753.92548 -59.297447 4294967295
135.41254 753.84131 -59.309772 4294967295
137.04387 753.95563 -59.173321 4294967295
141.54823 753.84698 -59.163132 4294967295
144.73001 753.20758 -59.088188 4294967295
421.84573 755.73425 -59.334335 4294967295
111.26189 757.0603 -59.073853 4294967295
413.34622 758.85712 -59.497364 4294967295
414.82565 758.71149 -59.839314 4294967295
416.58127 758.2829 -59.653572 4294967295
418.60645 757.5813 -59.368847 4294967295
373.1442 760.71997 -59.896053 4294967295
374.83466 760.54816 -59.837532 4294967295
381.43265 759.96686 -59.621086 4294967295
385.78833 759.88538 -59.235409 4294967295
387.36633 759.84967 -59.136562 4294967295
408.23993 759.09912 -59.008022 4294967295
411.44867 759.05164 -59.936924 4294967295
319.77451 764.60901 -59.330223 4294967295
323.47183 764.41541 -59.208336 4294967295
325.40244 764.34247 -59.384163 4294967295
328.724 763.98187 -59.022331 4294967295
331.2084 763.88068 -59.155624 4294967295
334.80045 763.46375 -59.188435 4294967295
337.39163 763.66504 -59.666599 4294967295
339.71368 763.49963 -59.634937 4294967295
351.36255 762.44897 -59.915363 4294967295
352.92395 762.32721 -59.952755 4294967295
279.36874 767.75726 -59.219872 4294967295
283.37344 767.4245 -59.265553 4294967295
285.39908 767.19922 -59.153854 4294967295
287.4845 767.11597 -59.225952 4294967295
289.49503 767.31384 -59.748463 4294967295
291.44919 767.21368 -59.72607 4294967295
293.39133 766.96191 -59.514557 4294967295
295.42545 767.15546 -59.869347 4294967295
297.45432 766.76471 -59.804642 4294967295
305.40714 765.71204 -59.400925 4294967295
307.49088 765.51117 -59.419792 4294967295
310.16202 765.4397 -59.576946 4294967295
313.32007 765.17468 -59.321548 4294967295
315.40466 765.02155 -59.241787 4294967295
241.48653 770.89563 -59.31855 4294967295
245.44518 770.69348 -59.397228 4294967295
247.55103 770.45349 -59.364719 4294967295
249.40205 770.48206 -59.57029 4294967295
255.57967 769.44623 -59.071075 4294967295
257.4613 769.51825 -59.439121 4294967295
261.0672 769.31561 -59.413925 4294967295
265.04364 769.14526 -59.453682 4294967295
269.3797 768.95044 -59.515324 4294967295
273.19147 768.80695 -59.723511 4294967295
277.39209 768.28497 -59.9538 4294967295
207.31166 773.77716 -59.416046 4294967295
209.63483 773.16534 -59.109039 4294967295
211.56729 773.34949 -59.416977 4294967295
213.22226 772.92291 -59.142147 4294967295
215.7027 772.71118 -59.065987 4294967295
217.36089 772.99573 -59.426334 4294967295
219.21242 772.47913 -59.027683 4294967295
221.40898 773.64136 -59.989452 4294967295
223.63991 772.38947 -59.32954 4294967295
225.54158 772.10699 -59.260216 4294967295
229.55626 771.70679 -59.301003 4294967295
231.88075 771.4729 -59.322895 4294967295
233.51138 771.44354 -59.420933 4294967295
235.7179 771.05157 -59.110119 4294967295
243.83286 771.03387 -59.590115 4294967295
163.64571 776.69342 -59.209686 4294967295
165.33159 776.63666 -59.238712 4294967295
167.59319 776.40112 -59.357559 4294967295
171.93205 776.03473 -59.237404 4294967295
175.43962 775.95801 -59.169083 4294967295
177.21469 776.08124 -59.365788 4294967295
181.18723 776.00543 -59.517574 4294967295
183.28256 776.4184 -59.840813 4294967295
185.64864 776.41284 -59.88007 4294967295
187.37607 775.26099 -59.172615 4294967295
191.6283 774.87537 -59.131664 4294967295
205.02811 774.53418 -59.900249 4294967295
209.11002 774.45374 -59.958977 4294967295
213.34081 774.13483 -59.993607 4294967295
111.5237 779.86658 -59.119152 4294967295
115.88822 779.82886 -59.280159 4294967295
119.793 779.63721 -59.349285 4294967295
121.5739 779.37231 -59.17709 4294967295
125.53162 779.08606 -59.192513 4294967295
126.90993 778.90588 -59.063717 4294967295
129.7346 778.95966 -59.42598 4294967295
133.59486 778.97717 -59.634087 4294967295
137.21652 778.56 -59.508957 4294967295
139.3781 778.17206 -59.639904 4294967295
141.15776 778.27899 -59.564358 4294967295
145.38188 777.5155 -59.137444 4294967295
147.31931 777.38782 -59.33902 4294967295
153.58142 777.3045 -59.078388 4294967295
155.4791 778.02185 -59.701439 4294967295
156.81601 778.35266 -59.995491 4294967295
157.59161 777.08539 -59.073219 4294967295
69.356819 782.65881 -59.381283 4294967295
73.254509 782.22357 -59.308788 4294967295
75.539764 782.19281 -59.659061 4294967295
77.39312 781.87976 -59.16037 4294967295
78.866203 781.9173 -59.267975 4294967295
81.266121 781.74298 -59.348026 4294967295
85.233711 781.58282 -59.304401 4294967295
87.621979 781.33813 -59.250843 4294967295
91.115189 780.98175 -59.484596 4294967295
93.876846 780.91852 -59.190117 4294967295
95.926888 781.2019 -59.801289 4294967295
99.271149 781.03784 -59.702927 4294967295
101.23875 781.0321 -59.956062 4294967295
107.10275 780.74811 -59.713451 4294967295
59.02269 783.18909 -59.623867 4294967295
414.18924 735.54858 -58.804893 4294967295
416.29855 735.98132 -58.064125 4294967295
418.85831 736.35632 -58.750519 4294967295
225.67361 740.98047 -58.795212 4294967295
353.14685 740.56348 -58.938354 4294967295
357.73691 740.61304 -58.159634 4294967295
359.70538 740.49182 -58.182953 4294967295
371.45154 739.6817 -58.154465 4294967295
421.25748 738.06128 -58.793171 4294967295
229.38138 741.32062 -58.914642 4294967295
323.10745 743.18738 -58.020916 4294967295
325.57938 743.08447 -58.048431 4294967295
333.88907 742.41736 -58.086746 4294967295
335.3739 742.32703 -58.093502 4294967295
337.43784 742.17377 -58.119347 4294967295
341.27924 742.12744 -58.012928 4294967295
345.62778 741.46063 -58.337849 4294967295
347.60751 741.36877 -58.10659 4294967295
349.36978 741.26019 -58.090469 4294967295
351.36935 741.10443 -58.071671 4294967295
423.12119 743.96857 -58.43576 4294967295
181.48337 745.45721 -58.878922 4294967295
185.23338 745.99323 -58.977253 4294967295
253.35994 746.52893 -58.490093 4294967295
259.24551 746.25488 -58.40741 4294967295
261.28467 745.50903 -58.931664 4294967295
263.37704 745.6275 -58.7729 4294967295
265.25415 745.22876 -58.993523 4294967295
267.30499 745.34448 -58.851604 4294967295
271.20126 745.20221 -58.931515 4294967295
273.61777 745.50684 -58.523926 4294967295
277.45862 744.96313 -58.984589 4294967295
283.13681 744.75623 -58.948219 4294967295
286.75241 744.74799 -58.631813 4294967295
422.96472 745.974 -58.188301 4294967295
179.40681 749.90375 -58.987526 4294967295
181.45351 749.83185 -58.987297 4294967295
191.82115 749.94592 -58.8316 4294967295
194.92528 749.83813 -58.744465 4294967295
197.61411 749.47845 -58.775768 4294967295
201.02985 749.30945 -58.640636 4294967295
203.40671 748.67468 -58.767334 4294967295
205.55609 748.47302 -58.78561 4294967295
209.29706 748.64502 -58.759716 4294967295
211.43361 748.57617 -58.756538 4294967295
213.08099 749.40875 -58.410553 4294967295
215.57344 749.32489 -58.375637 4294967295
216.24638 747.93732 -58.979385 4294967295
217.43596 748.45203 -58.706161 4294967295
219.85176 749.0976 -58.291424 4294967295
221.18895 748.51471 -58.489624 4294967295
223.37512 748.3103 -58.471016 4294967295
225.76224 747.29816 -58.881901 4294967295
231.2986 747.30408 -58.793701 4294967295
233.27296 747.09625 -58.878201 4294967295
237.30199 747.45056 -58.593407 4294967295
241.82567 747.52649 -58.520851 4294967295
243.4248 747.02112 -58.844334 4294967295
245.57103 747.07031 -58.82159 4294967295
246.94934 747.13165 -58.685295 4294967295
165.4444 752.36542 -58.762177 4294967295
169.4816 752.34363 -58.4795 4294967295
172.66406 751.50415 -58.660564 4294967295
175.8299 751.30463 -58.748074 4294967295
177.74001 751.04181 -58.783886 4294967295
181.02625 751.29236 -58.493477 4294967295
183.75777 750.91333 -58.657852 4294967295
185.3515 750.61469 -58.72633 4294967295
187.51495 751.211 -58.442505 4294967295
189.4919 750.04065 -58.899624 4294967295
191.27336 750.76752 -58.495987 4294967295
193.54453 751.15253 -58.099754 4294967295
200.05959 750.33325 -58.220459 4294967295
422.62399 752.70282 -58.657562 4294967295
423.37683 750.08905 -58.831699 4294967295
123.52451 755.75995 -58.915432 4294967295
129.51862 755.29962 -58.832603 4294967295
131.75854 754.89301 -58.989082 4294967295
133.58589 755.04999 -58.83456 4294967295
135.2679 755.4873 -58.516884 4294967295
137.0708 755.26721 -58.542645 4294967295
138.99219 755.62195 -58.137203 4294967295
143.41713 754.98969 -58.212978 4294967295
147.41408 754.59131 -58.298843 4294967295
149.47456 753.15369 -58.942589 4294967295
151.28014 753.2677 -58.864281 4294967295
153.94762 753.17877 -58.759129 4294967295
159.2641 753.14154 -58.612331 4294967295
161.47986 753.21759 -58.519051 4294967295
163.49632 753.36658 -58.37624 4294967295
421.40393 754.79529 -58.504093 4294967295
115.55126 756.90356 -58.894169 4294967295
119.6031 756.49615 -58.816113 4294967295
121.555 756.67847 -58.403126 4294967295
412.15549 758.81299 -58.541069 4294967295
414.48273 758.30896 -58.386063 4294967295
416.92096 757.43622 -58.093403 4294967295
418.69296 756.70428 -58.129787 4294967295
420.37772 756.43646 -58.9338 4294967295
351.83011 761.85352 -58.066814 4294967295
355.34445 761.63068 -58.090672 4294967295
410.65381 759.02655 -58.769356 4294967295
309.39807 764.92407 -58.021156 4294967295
311.71582 764.81787 -58.144787 4294967295
315.75168 764.49677 -58.033073 4294967295
316.73459 764.76898 -58.819626 4294967295
339.27048 762.95709 -58.025558 4294967295
341.23605 762.97156 -58.146118 4294967295
345.16379 762.41687 -58.063461 4294967295
279.06058 767.28729 -58.047012 4294967295
282.99118 766.95435 -58.186642 4294967295
285.54199 766.72955 -58.08445 4294967295
287.4136 766.58252 -58.007835 4294967295
289.19016 766.47571 -58.039963 4294967295
291.81961 766.38544 -58.168289 4294967295
295.36771 766.09912 -58.02494 4294967295
301.49802 765.38879 -58.021046 4294967295
307.59857 765.02991 -58.042675 4294967295
245.70624 769.84467 -58.151558 4294967295
251.20045 769.31958 -58.068371 4294967295
253.21352 769.58441 -58.960476 4294967295
255.59705 768.95428 -58.028023 4294967295
257.46198 768.83813 -58.00946 4294967295
259.36414 768.7168 -58.060665 4294967295
266.6738 768.5979 -58.661495 4294967295
150.01093 776.53857 -58.008224 4294967295
159.24802 776.83997 -58.955925 4294967295
179.38808 775.29822 -58.724812 4294967295
183.67358 775.07733 -58.742237 4294967295
185.37825 775.19196 -58.992054 4294967295
193.02434 774.38354 -58.716564 4294967295
195.48615 774.44116 -58.999294 4294967295
108.87843 779.74335 -58.413628 4294967295
113.35112 779.59955 -58.160748 4294967295
139.41466 777.43604 -58.090626 4294967295
143.83261 777.02234 -58.102985 4294967295
64.731262 782.75092 -58.612835 4294967295
71.663925 781.81067 -58.090096 4294967295
84.309486 781.11365 -58.332073 4294967295
93.98542 780.58087 -58.610107 4294967295
97.603264 780.24774 -58.27713 4294967295
409.76682 735.55219 -57.654808 4294967295
419.17719 737.84589 -57.231808 4294967295
361.18918 740.48993 -57.708626 4294967295
365.43011 740.14862 -57.805737 4294967295
367.66364 739.97839 -57.899666 4294967295
375.35373 739.50488 -57.744656 4294967295
377.02466 739.34149 -57.776615 4294967295
379.3577 739.08289 -57.75631 4294967295
381.3855 738.83777 -57.340729 4294967295
383.55112 738.63385 -57.742264 4294967295
420.30075 739.24976 -57.127647 4294967295
421.58734 740.08502 -57.900803 4294967295
327.89957 743.00079 -57.360497 4294967295
355.23184 741.06854 -57.855606 4294967295
422.24332 742.19415 -57.874985 4294967295
265.52695 746.64618 -57.372494 4294967295
267.27591 746.54041 -57.36639 4294967295
269.59717 746.4231 -57.296158 4294967295
271.29752 746.27087 -57.618511 4294967295
273.51309 746.13348 -57.501133 4294967295
275.40198 745.97394 -57.655327 4294967295
279.57581 745.87109 -57.667683 4294967295
281.37683 745.7984 -57.593151 4294967295
295.25146 744.76111 -57.53447 4294967295
297.68158 744.49792 -57.469692 4294967295
300.90652 744.38068 -57.679405 4294967295
305.4649 744.12079 -57.856853 4294967295
307.1608 744.08539 -57.801197 4294967295
309.66824 744.06281 -57.897419 4294967295
421.8497 744.63892 -57.144463 4294967295
225.42703 749.11121 -57.753113 4294967295
227.12621 749.60602 -57.109589 4294967295
229.52498 748.70862 -57.878899 4294967295
231.65898 748.67255 -57.745728 4294967295
233.33589 748.99036 -57.12981 4294967295
235.38167 748.51288 -57.716705 4294967295
239.12355 748.56836 -57.156204 4294967295
243.17714 748.31049 -57.408596 4294967295
249.27718 747.79218 -57.884926 4294967295
250.95808 747.86353 -57.055698 4294967295
255.35689 747.08826 -57.891155 4294967295
261.37933 747.07623 -57.454224 4294967295
422.33838 748.51758 -57.742157 4294967295
177.4151 752.8161 -57.402695 4294967295
179.68039 752.35815 -57.759453 4294967295
181.57471 752.60767 -57.390606 4294967295
183.4664 752.50348 -57.447353 4294967295
185.17319 752.46014 -57.409264 4294967295
187.4593 752.3396 -57.365269 4294967295
189.29274 752.23004 -57.353695 4294967295
194.90396 751.97681 -57.080181 4294967295
197.35449 751.28613 -57.632519 4294967295
201.42137 750.80206 -57.662849 4294967295
202.95117 750.93182 -57.331566 4294967295
205.47804 750.4425 -57.758305 4294967295
207.46223 750.50281 -57.592102 4294967295
209.38635 750.34961 -57.656654 4294967295
211.24312 750.40607 -57.512131 4294967295
213.28751 750.36804 -57.404282 4294967295
215.28185 750.29901 -57.326347 4294967295
216.83299 750.22913 -57.276459 4294967295
219.63954 750.11816 -57.102314 4294967295
421.36871 751.16479 -57.315144 4294967295
145.48933 755.20587 -57.834763 4294967295
149.33806 754.91644 -57.826012 4294967295
151.50562 754.6618 -57.910774 4294967295
153.1456 754.89478 -57.473907 4294967295
155.13417 754.7608 -57.394951 4294967295
157.15704 754.59918 -57.433804 4294967295
159.49397 754.26489 -57.842766 4294967295
161.20775 754.47144 -57.299492 4294967295
163.79967 754.16888 -57.540688 4294967295
167.07689 754.14191 -57.097775 4294967295
171.38043 753.15833 -57.745255 4294967295
173.27885 753.11902 -57.539742 4294967295
419.51721 755.42712 -57.598621 4294967295
420.41617 753.53564 -57.266418 4294967295
113.51694 758.2464 -57.498806 4294967295
115.72118 758.06824 -57.408245 4294967295
119.358 757.88733 -57.136097 4294967295
123.58641 757.44257 -57.188011 4294967295
125.67967 757.42456 -57.019424 4294967295
127.64297 756.70978 -57.634987 4294967295
129.62033 756.65033 -57.496555 4294967295
131.59402 756.52271 -57.569336 4294967295
135.39653 756.42126 -57.407055 4294967295
139.29388 756.28467 -57.164227 4294967295
141.41217 756.06421 -57.165184 4294967295
410.6441 758.82257 -57.887955 4294967295
417.54846 756.18604 -57.003265 4294967295
375.06894 760.49286 -57.465099 4294967295
377.0451 760.44696 -57.302631 4294967295
379.52548 760.43164 -57.051323 4294967295
381.362 760.36176 -57.019806 4294967295
385.78537 760.20721 -57.223309 4294967295
325.1427 763.62628 -57.761871 4294967295
331.13278 763.39069 -57.871685 4294967295
333.39249 763.27673 -57.967014 4294967295
334.99307 763.09106 -57.91201 4294967295
336.50726 763.15167 -57.80117 4294967295
271.46335 767.89124 -57.746353 4294967295
273.43735 767.69769 -57.680412 4294967295
275.92166 767.51904 -57.875546 4294967295
299.14072 765.6062 -57.864838 4294967295
229.94302 770.8606 -57.961208 4294967295
233.1147 770.52399 -57.807713 4294967295
235.56764 770.3808 -57.893623 4294967295
237.64423 770.13306 -57.906895 4294967295
239.20477 770.1189 -57.855408 4294967295
241.43336 770.01868 -57.923492 4294967295
242.76176 769.81659 -57.426411 4294967295
247.34375 769.62982 -57.923027 4294967295
249.36627 769.42725 -57.866802 4294967295
263.86423 768.44482 -57.975296 4294967295
265.71143 768.32141 -57.968304 4294967295
267.29901 768.15906 -57.831718 4294967295
189.57791 773.94128 -57.643612 4294967295
191.38422 773.7193 -57.278938 4294967295
195.3051 773.4278 -57.352161 4294967295
201.61082 772.98901 -57.523792 4294967295
206.79813 772.52734 -57.677677 4294967295
210.09373 772.27893 -57.87257 4294967295
213.14897 772.07355 -57.977245 4294967295
217.61868 771.72101 -57.524071 4294967295
223.66034 771.42358 -57.893467 4294967295
225.52972 771.22937 -57.824947 4294967295
227.23462 771.0271 -57.732689 4294967295
145.2986 776.83594 -57.99041 4294967295
147.534 776.69531 -57.88586 4294967295
151.41119 776.45551 -57.662785 4294967295
153.64993 776.41766 -57.757729 4294967295
155.13083 776.22418 -57.519562 4294967295
158.04427 776.11969 -57.789932 4294967295
161.3439 775.82709 -57.661545 4294967295
163.31145 775.69336 -57.777618 4294967295
165.43925 775.534 -57.645134 4294967295
167.69975 775.2226 -57.632961 4294967295
168.97853 775.14368 -57.613304 4294967295
171.82848 775.07788 -57.372849 4294967295
173.38203 774.81927 -57.544941 4294967295
175.49605 774.94482 -57.845825 4294967295
179.22626 774.4762 -57.708191 4294967295
180.99133 774.49615 -57.614204 4294967295
185.1998 774.17578 -57.39996 4294967295
187.29135 774.05188 -57.475918 4294967295
105.16286 779.73511 -57.601772 4294967295
107.47401 779.69043 -57.308525 4294967295
112.6571 779.48267 -57.271454 4294967295
115.51523 779.25745 -57.410511 4294967295
117.07533 779.14423 -57.321789 4294967295
119.96712 778.94452 -57.714443 4294967295
123.05268 778.46899 -57.77943 4294967295
127.30327 778.25934 -57.849072 4294967295
129.12698 778.10303 -57.864891 4294967295
132.98038 777.66168 -57.751095 4294967295
136.35893 777.62866 -57.944725 4294967295
61.417511 782.46796 -57.74538 4294967295
63.351883 782.49866 -57.965 4294967295
66.948524 782.19751 -57.080593 4294967295
69.658287 782.04059 -57.916069 4294967295
73.287323 781.71112 -57.858719 4294967295
77.839523 781.44061 -57.805676 4294967295
81.50061 781.2738 -57.841358 4294967295
102.85799 780.03308 -57.620098 4294967295
403.49759 736.146 -56.091484 4294967295
412.10172 735.86707 -56.792576 4294967295
414.97028 736.59052 -56.191021 4294967295
417.64194 737.40588 -56.508812 4294967295
361.42114 740.71783 -56.149559 4294967295
387.09357 738.14929 -56.934166 4294967295
317.46478 743.97522 -56.742046 4294967295
319.43005 743.90643 -56.971367 4294967295
321.58151 743.8476 -56.503616 4294967295
323.35321 743.55438 -56.166046 4294967295
325.55847 743.40234 -56.137093 4294967295
329.95261 743.08154 -56.299671 4294967295
333.11945 742.82379 -56.225525 4294967295
337.57864 742.63568 -56.732609 4294967295
343.35446 742.32361 -56.249466 4294967295
347.99203 741.9386 -56.218384 4294967295
351.28409 741.69916 -56.000885 4294967295
353.44189 741.54474 -56.13332 4294967295
355.41681 741.23712 -56.027859 4294967295
420.52301 742.4422 -56.215633 4294967295
275.56281 746.50342 -56.375111 4294967295
299.27219 745.01416 -56.018406 4294967295
303.40997 744.83331 -56.130836 4294967295
305.49057 744.6759 -56.245781 4294967295
307.51367 744.67639 -56.217873 4294967295
311.23502 744.31903 -56.876068 4294967295
315.47247 744.04163 -56.966061 4294967295
224.12532 749.96179 -56.715652 4294967295
227.68782 749.96161 -56.043831 4294967295
231.6786 749.65125 -56.072506 4294967295
233.43875 749.47644 -56.208603 4294967295
235.66496 749.35413 -56.054337 4294967295
241.49776 749.06995 -56.297539 4294967295
245.57407 748.70831 -56.176395 4294967295
247.6777 748.57141 -56.268929 4294967295
249.88612 748.42456 -56.109581 4294967295
265.38474 747.35205 -56.156754 4294967295
267.5022 747.0744 -56.155144 4294967295
420.17551 749.67322 -56.055786 4294967295
421.18423 747.03229 -56.572697 4294967295
191.55257 752.70313 -56.099316 4294967295
193.40443 752.18427 -56.81879 4294967295
195.56009 752.36432 -56.113689 4294967295
199.75504 751.48779 -56.99778 4294967295
203.26282 751.71606 -56.016136 4294967295
207.80072 751.34161 -56.081615 4294967295
209.21191 751.31958 -56.036198 4294967295
211.37793 751.16974 -56.104168 4294967295
213.59665 750.95953 -56.322365 4294967295
217.26852 750.78479 -56.061089 4294967295
221.61659 750.58838 -56.226547 4294967295
152.08711 755.58533 -56.472786 4294967295
153.63884 755.78394 -56.091358 4294967295
159.24101 755.22095 -56.000793 4294967295
163.65932 754.91754 -56.099205 4294967295
165.33215 754.78668 -56.145027 4294967295
167.48837 754.60999 -56.098877 4294967295
169.45779 754.02704 -56.822464 4294967295
181.68785 753.37317 -56.103912 4294967295
185.5414 753.19293 -56.059521 4294967295
187.69963 753.05176 -56.00705 4294967295
418.30725 754.52148 -56.299454 4294967295
115.76105 758.63257 -56.201958 4294967295
133.6075 757.14954 -56.04607 4294967295
137.32829 756.88086 -56.171898 4294967295
145.66333 756.35376 -56.199989 4294967295
147.60872 756.28162 -56.108379 4294967295
409.7923 758.56836 -56.533527 4294967295
412.27911 758.16101 -56.876789 4294967295
414.99634 756.95123 -56.482574 4294967295
111.64434 759.05225 -56.178444 4294967295
353.53876 761.87225 -56.101357 4294967295
382.80524 760.30969 -56.955734 4294967295
399.90063 760.04114 -56.733704 4294967295
401.94183 759.81549 -56.395309 4294967295
305.45038 764.89679 -56.028996 4294967295
311.51343 764.41962 -56.008381 4294967295
313.2529 764.29688 -56.008503 4294967295
317.51682 763.9433 -56.082813 4294967295
327.92032 763.23566 -56.569073 4294967295
263.98877 767.93939 -56.304523 4294967295
269.52725 767.67743 -56.212933 4294967295
275.9494 767.10791 -56.133255 4294967295
277.4631 766.98859 -56.171528 4294967295
279.3201 766.9577 -56.039631 4294967295
285.5412 766.2912 -56.328743 4294967295
287.51157 766.30719 -56.130932 4294967295
291.45166 765.90393 -56.259407 4294967295
295.83121 765.59674 -56.438251 4294967295
297.51559 765.4696 -56.078194 4294967295
225.61148 770.67633 -56.217617 4294967295
227.51558 770.65674 -56.160156 4294967295
231.14291 770.39581 -56.364525 4294967295
235.48856 770.00256 -56.007881 4294967295
239.20903 769.771 -56.136509 4294967295
241.43376 769.62103 -56.211948 4294967295
243.26512 769.52942 -56.127079 4294967295
245.92235 769.38153 -56.179245 4294967295
251.16524 769.04431 -56.668411 4294967295
253.31218 768.90973 -56.711285 4294967295
255.43532 768.66675 -56.156265 4294967295
257.45203 768.54767 -56.099014 4294967295
259.45096 768.25812 -56.269398 4294967295
261.44543 768.25208 -56.142887 4294967295
183.99968 773.89825 -56.2164 4294967295
193.11771 773.05963 -56.21743 4294967295
205.51009 772.23157 -56.214546 4294967295
209.10168 771.7359 -56.227226 4294967295
211.38089 771.74194 -56.278252 4294967295
215.59456 771.42645 -56.069115 4294967295
221.5643 771.02521 -56.328247 4294967295
223.53398 771.01465 -56.230907 4294967295
139.2049 776.88177 -56.26067 4294967295
141.15839 776.89355 -56.594536 4294967295
143.92783 776.60321 -56.289547 4294967295
145.62709 776.42285 -56.156158 4294967295
151.53348 776.06366 -56.102612 4294967295
153.55972 775.80048 -56.07954 4294967295
159.44106 775.34814 -56.193478 4294967295
163.44011 775.06335 -56.236172 4294967295
165.22423 775.16449 -56.236214 4294967295
169.19258 774.87451 -56.189728 4294967295
171.9472 774.76294 -56.186974 4294967295
175.15913 774.42957 -56.10215 4294967295
177.43199 774.1817 -56.338749 4294967295
181.1781 774.03326 -56.031937 4294967295
103.65176 779.60516 -56.021339 4294967295
107.69377 779.5426 -56.356373 4294967295
109.88624 779.37579 -56.629051 4294967295
129.70132 777.6814 -56.295887 4294967295
137.12187 777.04218 -56.059425 4294967295
407.867 736.22778 -55.197548 4294967295
410.44287 735.93579 -55.458397 4294967295
416.68817 737.43829 -55.671753 4294967295
363.09686 740.62537 -55.706371 4294967295
365.74323 740.44458 -55.690018 4294967295
418.8732 739.28217 -55.868114 4294967295
327.3725 743.32062 -55.953995 4294967295
331.3233 743.05255 -55.957787 4294967295
335.49792 742.72101 -55.978996 4294967295
341.30096 742.49731 -55.956982 4294967295
357.57672 741.09399 -55.948494 4294967295
359.07333 741.0498 -55.82724 4294967295
419.73807 743.77325 -55.238419 4294967295
277.55191 746.52283 -55.792656 4294967295
420.30103 745.39026 -55.691513 4294967295
253.60176 748.2674 -55.929176 4294967295
193.81526 752.58856 -55.930115 4294967295
197.53758 752.28198 -55.884335 4294967295
201.11859 751.96185 -55.805542 4294967295
205.21478 751.63721 -55.749767 4294967295
215.34576 750.93378 -55.991806 4294967295
419.10315 752.27466 -55.929729 4294967295
155.42128 755.52679 -55.955467 4294967295
161.58797 755.11548 -55.883705 4294967295
171.49713 754.43622 -55.868469 4294967295
173.57729 754.01807 -55.990368 4294967295
175.22618 753.90381 -55.901764 4294967295
179.62378 753.57135 -55.892834 4294967295
183.35956 753.38214 -55.926342 4294967295
416.39615 755.43311 -55.774315 4294967295
117.40693 758.56433 -55.877888 4294967295
121.37483 758.43756 -55.641495 4294967295
129.65445 757.57947 -55.94585 4294967295
141.76563 756.55719 -55.948826 4294967295
143.27719 756.66168 -55.740665 4294967295
407.73111 758.90314 -55.980316 4294967295
410.9653 757.57513 -55.01738 4294967295
412.95148 756.87579 -55.295429 4294967295
107.46743 759.50385 -55.850014 4294967295
385.71094 760.57104 -55.145233 4294967295
396.25372 760.26099 -55.072281 4294967295
404.92236 759.38629 -55.634941 4294967295
309.06134 764.64264 -55.681152 4294967295
315.25287 764.15869 -55.621189 4294967295
319.45096 763.82904 -55.994827 4294967295
325.21933 763.4599 -55.759342 4294967295
329.04138 763.2298 -55.579849 4294967295
331.5325 763.15985 -55.889652 4294967295
333.90787 762.98907 -55.940319 4294967295
336.73633 762.98816 -55.501236 4294967295
340.01913 762.86713 -55.704384 4294967295
349.20743 762.15613 -55.766052 4294967295
351.64767 762.01288 -55.71833 4294967295
265.88931 767.77582 -55.886711 4294967295
281.36444 766.7572 -55.965969 4294967295
289.26941 766.18805 -55.96022 4294967295
293.28952 765.7608 -55.995888 4294967295
301.33771 765.18945 -55.758083 4294967295
228.72821 770.52155 -55.597321 4294967295
237.18745 769.90887 -55.905785 4294967295
187.25174 773.3468 -55.381699 4294967295
191.39641 773.29279 -55.982494 4294967295
197.63834 772.85815 -55.963711 4294967295
201.54588 772.55511 -55.95845 4294967295
147.33128 776.32056 -55.853142 4294967295
149.81006 776.15131 -55.973396 4294967295
155.3105 775.82397 -55.83453 4294967295
157.65054 775.65375 -55.896313 4294967295
167.2841 774.98651 -55.984303 4294967295
105.14092 779.50494 -55.968334 4294967295
117.54698 778.91168 -55.871632 4294967295
121.35151 778.30371 -55.894638 4294967295
123.25812 778.26141 -55.773579 4294967295
125.44672 777.84985 -55.871754 4294967295
127.42311 777.80804 -55.947334 4294967295
64.875099 782.20288 -55.469437 4294967295
69.414879 781.89648 -55.495129 4294967295
71.303642 781.66168 -55.710136 4294967295
73.384293 781.5473 -55.891155 4294967295
79.227287 781.04742 -55.754089 4294967295
85.155853 780.69104 -55.964149 4294967295
389.21527 737.72021 -54.344322 4294967295
401.82324 736.3053 -54.319115 4294967295
412.7605 736.76642 -54.685226 4294967295
414.41492 737.56238 -54.237774 4294967295
415.74689 737.80139 -54.706573 4294967295
379.62518 738.84601 -54.898346 4294967295
383.39948 738.38861 -54.725033 4294967295
417.11646 738.8819 -54.678082 4294967295
418.09537 740.92938 -54.425175 4294967295
355.81464 741.276 -54.016396 4294967295
418.45804 743.224 -54.217663 4294967295
418.62744 745.63617 -54.282894 4294967295
243.6653 749.24017 -54.119705 4294967295
245.84129 749.0769 -54.09573 4294967295
247.88205 749.01349 -54.301041 4294967295
249.83115 748.88751 -54.233551 4294967295
263.63821 747.88385 -54.162197 4294967295
267.46951 747.59534 -54.077045 4294967295
273.5351 747.12592 -54.062698 4294967295
419.16528 747.85559 -54.968723 4294967295
197.9507 752.67773 -54.00285 4294967295
201.40804 752.53473 -54.290585 4294967295
205.5717 752.15308 -54.171947 4294967295
209.54707 751.89258 -54.043999 4294967295
211.06563 751.65344 -54.001396 4294967295
213.6398 751.56201 -54.635845 4294967295
215.44879 751.32001 -54.025524 4294967295
219.797 750.9848 -54.357292 4294967295
225.77727 750.71863 -54.153866 4294967295
227.55019 750.58508 -54.086613 4294967295
229.41145 750.43652 -54.077404 4294967295
233.76505 750.07227 -54.193195 4294967295
417.61127 750.68738 -54.480156 4294967295
157.50117 755.94177 -54.034988 4294967295
165.51369 755.34656 -54.257641 4294967295
173.38959 754.64868 -54.242569 4294967295
181.10532 754.08557 -54.138405 4294967295
185.71281 753.75934 -54.348927 4294967295
189.481 753.3421 -54.034061 4294967295
195.37599 753.00604 -54.065395 4294967295
414.45453 755.19214 -54.654793 4294967295
416.59995 753.48438 -54.811249 4294967295
119.81222 758.82745 -54.265697 4294967295
133.47681 757.73773 -54.065521 4294967295
137.2554 757.31378 -54.003597 4294967295
139.78627 757.24231 -54.404625 4294967295
142.00391 757.03448 -54.058033 4294967295
151.23969 756.44617 -54.0937 4294967295
155.77553 756.07782 -54.143681 4294967295
406.78857 758.7558 -54.170544 4294967295
408.83194 758.20349 -54.641556 4294967295
371.66339 760.99841 -54.924294 4294967295
377.71817 760.7829 -54.954422 4294967295
383.4729 760.68311 -54.788097 4294967295
397.60059 760.34229 -54.243443 4294967295
399.7077 760.35229 -54.063492 4294967295
241.99113 769.52838 -54.198776 4294967295
191.93991 773.04865 -54.018955 4294967295
153.81168 775.80389 -54.126953 4294967295
101.062 779.81226 -54.933823 4294967295
109.94308 779.44031 -54.613491 4294967295
82.465126 781.10028 -54.647781 4294967295
404.48364 736.4704 -53.975521 4294967295
409.15695 736.66772 -53.40855 4294967295
410.68909 737.02264 -53.324329 4294967295
415.14172 739.39703 -53.046074 4294967295
416.70325 740.52637 -53.439789 4294967295
321.26624 743.73285 -53.267414 4294967295
323.44131 743.60339 -53.709686 4294967295
325.53394 743.44489 -53.597031 4294967295
327.35553 743.30719 -53.47649 4294967295
331.40875 742.97742 -53.1054 4294967295
333.25598 742.854 -53.068096 4294967295
335.70682 742.68561 -53.331303 4294967295
345.08945 742.04944 -53.234039 4294967295
347.07813 741.86108 -53.044346 4294967295
349.52835 741.70587 -53.360565 4294967295
351.31985 741.58795 -53.419716 4294967295
353.15744 741.44562 -53.387238 4294967295
357.36749 741.08215 -53.126507 4294967295
416.97894 742.47675 -53.115559 4294967295
275.71747 746.9483 -53.649204 4294967295
303.65677 745.09442 -53.715408 4294967295
307.54214 744.80884 -53.792564 4294967295
416.95557 745.11639 -53.002354 4294967295
251.50346 748.79163 -53.989708 4294967295
265.2583 747.75238 -53.878613 4294967295
269.52298 747.43732 -53.672989 4294967295
271.48508 747.28705 -53.835251 4294967295
416.86307 748.1687 -53.385975 4294967295
199.69255 752.68854 -53.996899 4294967295
203.30292 752.3819 -53.884003 4294967295
207.34645 752.04883 -53.769531 4294967295
217.41174 751.21497 -53.889774 4294967295
221.56296 750.96381 -53.930241 4294967295
223.15352 750.82916 -53.314064 4294967295
231.51459 750.27246 -53.96244 4294967295
159.37468 755.8158 -53.955311 4294967295
161.71242 755.65289 -53.899837 4294967295
163.54051 755.51794 -53.801517 4294967295
167.61963 755.15442 -53.988316 4294967295
169.51837 754.87012 -53.934097 4294967295
171.63152 754.79468 -53.712776 4294967295
177.41553 754.35229 -53.986607 4294967295
179.32071 754.21765 -53.740707 4294967295
183.16158 753.98547 -53.979488 4294967295
191.34763 753.25238 -53.89798 4294967295
193.21515 753.1875 -53.781761 4294967295
412.08368 755.69312 -53.696236 4294967295
117.20607 758.98901 -53.798286 4294967295
121.3586 758.75153 -53.809238 4294967295
129.48933 758.03625 -53.679176 4294967295
135.72878 757.5755 -53.840206 4294967295
153.80916 756.25751 -53.694851 4294967295
409.77332 756.90552 -53.280701 4294967295
105.56894 759.78503 -53.86562 4294967295
109.14277 759.60034 -53.880085 4294967295
111.41973 759.41718 -53.652786 4294967295
115.53743 759.03613 -53.83675 4294967295
402.37549 759.77722 -53.727634 4294967295
403.91696 759.48529 -53.351299 4294967295
405.07813 759.08344 -53.231567 4294967295
311.57205 764.87146 -53.106316 4294967295
313.20352 764.75061 -53.080795 4294967295
323.64706 763.9895 -53.263058 4294967295
329.53687 763.60962 -53.399025 4294967295
331.62488 763.53308 -53.276962 4294967295
335.4346 763.37463 -53.183292 4294967295
339.58502 763.18481 -53.223873 4294967295
275.16629 767.38281 -53.509865 4294967295
276.72784 767.28613 -53.378632 4294967295
279.52057 767.02997 -53.708679 4294967295
285.42532 766.56879 -53.897362 4294967295
287.28378 766.5578 -53.0588 4294967295
289.5997 766.34729 -53.428696 4294967295
223.36031 770.90076 -53.74638 4294967295
225.28917 770.77917 -53.704475 4294967295
229.14185 770.50146 -53.634998 4294967295
231.4184 770.33551 -53.774124 4294967295
235.56384 770.00452 -53.89246 4294967295
237.55591 769.92041 -53.544922 4294967295
239.31548 769.7973 -53.646881 4294967295
243.20372 769.54547 -53.602795 4294967295
245.49644 769.47394 -53.351521 4294967295
247.80455 769.29761 -53.711575 4294967295
249.45215 769.21234 -53.524754 4294967295
251.39874 769.06036 -53.639317 4294967295
253.41083 768.96997 -53.310173 4294967295
255.97211 768.75122 -53.634075 4294967295
257.23141 768.70282 -53.392941 4294967295
261.80136 768.38385 -53.577465 4294967295
263.63135 768.28369 -53.331593 4294967295
265.14972 768.0741 -53.873001 4294967295
267.10349 768.00854 -53.22945 4294967295
179.50024 773.99176 -53.72541 4294967295
181.37727 773.88031 -53.688385 4294967295
183.53967 773.68018 -53.841618 4294967295
185.49037 773.50873 -53.800541 4294967295
189.91983 773.18683 -53.787922 4294967295
193.04996 773.06073 -53.327137 4294967295
195.58641 772.79785 -53.741085 4294967295
197.59723 772.68378 -53.716831 4294967295
201.34033 772.42059 -53.503033 4294967295
207.46165 771.90283 -53.893566 4294967295
209.20784 771.78827 -53.874065 4294967295
213.32394 771.4975 -53.834263 4294967295
145.52881 776.50134 -53.666325 4294967295
148.04768 776.29755 -53.854088 4294967295
149.2018 776.29999 -53.229233 4294967295
151.36722 776.07465 -53.680206 4294967295
155.23842 775.73511 -53.779236 4294967295
161.20076 775.30115 -53.717411 4294967295
163.55394 775.14032 -53.705215 4294967295
165.47343 775.01111 -53.773987 4294967295
169.71448 774.71924 -53.929211 4294967295
171.36841 774.65167 -53.514656 4294967295
173.37027 774.43652 -53.900909 4294967295
174.99075 774.39862 -53.481411 4294967295
176.92322 774.39679 -53.332993 4294967295
105.54234 779.76361 -53.370514 4294967295
111.37327 779.46899 -53.188522 4294967295
119.73151 778.64935 -53.214218 4294967295
123.20645 778.25671 -53.482769 4294967295
125.35152 778.04077 -53.488434 4294967295
63.899773 782.65497 -53.32766 4294967295
67.218086 782.29913 -53.863148 4294967295
69.828888 782.23175 -53.142269 4294967295
71.672066 782.07904 -53.170589 4294967295
403.31821 736.92609 -52.122158 4294967295
405.82599 737.02502 -52.257793 4294967295
408.10809 736.92896 -52.592148 4294967295
409.42834 737.07239 -52.453743 4294967295
361.38333 740.67358 -52.891144 4294967295
363.30399 740.50531 -52.975399 4294967295
365.62766 740.29596 -52.897785 4294967295
381.01337 738.60205 -52.756817 4294967295
383.74716 738.21503 -52.761803 4294967295
385.52496 738.08331 -52.717682 4294967295
412.99832 738.0766 -52.935871 4294967295
415.81693 741.52136 -52.481133 4294967295
406.15582 758.41876 -52.592831 4294967295
407.76056 757.82513 -52.946533 4294967295
377.08029 761.12311 -52.962334 4294967295
379.46817 761.10303 -52.67989 4294967295
381.5448 761.10101 -52.689125 4294967295
387.06671 760.89154 -52.774864 4294967295
389.83771 760.86395 -52.485088 4294967295
391.70895 760.80096 -52.434464 4294967295
404.18512 759.23083 -52.394238 4294967295
327.04758 763.87317 -52.860142 4294967295
259.04303 768.66602 -52.925877 4294967295
187.11295 773.55109 -52.758453 4294967295
108.52467 779.75757 -52.369015 4294967295
114.88057 779.32227 -52.416515 4294967295
59.364189 782.99017 -52.780327 4294967295
65.189362 782.66193 -52.761311 4294967295
393.41818 737.19159 -51.902229 4294967295
401.8187 736.76074 -51.542194 4294967295
408.72684 737.52161 -51.524643 4294967295
409.93524 737.9231 -51.511871 4294967295
365.91913 740.15155 -51.105976 4294967295
411.42377 738.46759 -51.688503 4294967295
412.73306 740.23907 -51.196102 4294967295
325.8208 743.33942 -51.315628 4294967295
353.38882 741.33472 -51.327869 4294967295
414.40036 741.95166 -51.511299 4294967295
415.55984 743.78296 -51.965279 4294967295
309.54721 744.53473 -51.238335 4294967295
414.97845 746.98627 -51.88802 4294967295
247.48088 748.8927 -51.242153 4294967295
195.5128 752.96973 -51.531376 4294967295
197.57501 752.77655 -51.290699 4294967295
201.2534 752.48431 -51.414383 4294967295
203.58449 752.26343 -51.276985 4294967295
207.70891 751.9649 -51.784153 4294967295
211.00075 751.66327 -51.037983 4294967295
215.87314 751.35846 -51.77549 4294967295
217.56786 751.19122 -51.212456 4294967295
221.39828 750.94653 -51.661083 4294967295
225.95311 750.53925 -51.270142 4294967295
229.19154 750.32794 -51.659824 4294967295
155.40488 755.91235 -51.055885 4294967295
157.70239 755.78809 -51.292484 4294967295
161.44453 755.53552 -51.063107 4294967295
163.43185 755.44177 -51.117935 4294967295
167.54874 755.09265 -51.484161 4294967295
169.68626 754.93518 -51.50671 4294967295
171.4789 754.78888 -51.563885 4294967295
175.69258 754.40375 -51.358894 4294967295
181.32886 754.07251 -51.287296 4294967295
183.55113 753.88586 -51.160412 4294967295
185.90225 753.72064 -51.586433 4294967295
191.80907 753.24969 -51.50581 4294967295
193.50464 753.12006 -51.365932 4294967295
410.39542 754.85437 -51.917084 4294967295
125.69225 758.12274 -51.13802 4294967295
131.54865 757.69794 -51.109646 4294967295
133.5706 757.52893 -51.134693 4294967295
135.43042 757.44812 -51.095703 4294967295
139.1062 757.1153 -51.105354 4294967295
142.16238 756.9798 -51.945801 4294967295
153.39467 756.13885 -51.370121 4294967295
404.48578 758.45465 -51.205372 4294967295
406.45947 757.42352 -51.397404 4294967295
408.28998 756.47003 -51.683861 4294967295
103.85217 759.77057 -51.278683 4294967295
393.77661 760.80444 -51.934692 4294967295
394.98367 760.81012 -51.224117 4294967295
397.96152 760.4942 -51.589394 4294967295
400.79895 759.7597 -51.293915 4294967295
403.09482 759.396 -51.851608 4294967295
335.5051 763.74469 -51.008686 4294967295
351.26114 762.78906 -51.054688 4294967295
285.6022 766.96136 -51.155926 4294967295
289.64609 766.65729 -51.15704 4294967295
291.32437 766.52014 -51.113106 4294967295
239.66505 770.15643 -51.119503 4294967295
243.45879 769.91437 -51.054688 4294967295
267.52631 768.27106 -51.10902 4294967295
185.40651 773.92902 -51.037441 4294967295
187.51877 773.80334 -51.094612 4294967295
190.14136 773.66644 -51.028175 4294967295
193.2697 773.29645 -51.035839 4294967295
207.64015 772.27643 -51.112755 4294967295
225.21298 771.13489 -51.01078 4294967295
149.60553 776.59827 -51.233982 4294967295
163.90884 775.57715 -51.092926 4294967295
167.70978 775.2951 -51.040012 4294967295
169.49136 775.17462 -51.268158 4294967295
181.73999 774.30164 -51.052967 4294967295
387.73309 737.74396 -50.13369 4294967295
397.89719 736.98474 -50.242237 4294967295
401.66214 737.69196 -50.148888 4294967295
404.09619 737.67822 -50.650448 4294967295
405.50595 737.76355 -50.728645 4294967295
407.06308 737.92157 -50.8288 4294967295
366.95135 740.01813 -50.521206 4294967295
369.84421 739.77606 -50.835056 4294967295
375.70535 739.22699 -50.835613 4294967295
379.55295 738.75269 -50.734402 4294967295
381.37677 738.52069 -50.856365 4294967295
383.263 738.27991 -50.4758 4294967295
408.67786 738.49115 -50.543755 4294967295
409.98874 739.89978 -50.064087 4294967295
321.41275 743.64648 -50.958527 4294967295
323.45343 743.44421 -50.735535 4294967295
331.34152 742.91443 -50.856789 4294967295
345.33875 741.93787 -50.99749 4294967295
349.41086 741.56183 -50.825748 4294967295
351.34976 741.50446 -50.771793 4294967295
412.87592 742.59546 -50.434422 4294967295
305.27771 744.79352 -50.956741 4294967295
307.33041 744.64227 -50.84338 4294967295
413.79733 744.59088 -50.849148 4294967295
267.5025 747.42279 -50.922054 4294967295
412.63876 747.51807 -50.519882 4294967295
209.40112 751.78192 -50.975727 4294967295
213.54253 751.4718 -50.974106 4294967295
219.17845 751.05487 -50.955318 4294967295
223.47208 750.75024 -50.981827 4294967295
409.81891 752.63544 -50.338192 4294967295
159.23524 755.67529 -50.996395 4294967295
173.06068 754.60358 -50.927849 4294967295
408.1972 754.78326 -50.394676 4294967295
119.42194 758.53564 -50.942513 4294967295
406.82904 756.11078 -50.426304 4294967295
369.36206 761.77753 -50.543678 4294967295
372.03918 761.62848 -50.569748 4294967295
373.11816 761.54523 -50.745262 4294967295
375.35071 761.50775 -50.589912 4294967295
377.30911 761.53693 -50.271267 4294967295
381.737 761.43182 -50.300365 4294967295
401.966 759.01538 -50.035786 4294967295
402.34711 759.36768 -50.827602 4294967295
403.09357 759.03125 -50.667439 4294967295
