# .PCD v0.7 - Point Cloud Data file format
VERSION 0.7
FIELDS x y z rgba
SIZE 4 4 4 4
TYPE F F F U
COUNT 1 1 1 1
WIDTH 1147
HEIGHT 1
VIEWPOINT 0 0 0 1 0 0 0
POINTS 1147
DATA ascii
289.19522 2332.375 -670.41876 4294967295
291.31436 2332.2988 -670.51007 4294967295
293.31601 2332.0828 -670.56128 4294967295
295.18933 2331.9563 -670.6225 4294967295
297.18475 2331.9382 -670.76953 4294967295
299.35928 2331.7246 -670.82111 4294967295
301.05368 2331.8398 -670.39502 4294967295
303.22061 2332.3101 -670.30322 4294967295
304.88257 2332.2634 -670.07544 4294967295
305.9711 2332.9822 -670.24451 4294967295
308.00626 2332.8567 -670.06995 4294967295
311.52737 2333.5352 -670.62311 4294967295
313.27094 2332.9641 -670.59607 4294967295
314.68875 2332.5906 -670.62225 4294967295
315.75229 2331.854 -670.29352 4294967295
317.21103 2332.4097 -670.62128 4294967295
318.59317 2331.2678 -670.02283 4294967295
320.297 2332.104 -670.44421 4294967295
322.01727 2332.9194 -670.74768 4294967295
323.45764 2332.54 -670.56567 4294967295
324.55966 2332.1089 -670.49701 4294967295
325.84344 2331.7339 -670.42432 4294967295
327.9765 2332.3286 -670.7417 4294967295
353.49899 2332.0291 -670.95868 4294967295
361.3501 2332.0742 -670.59399 4294967295
369.48376 2332.1863 -670.52063 4294967295
251.59966 2335.8125 -670.0285 4294967295
255.24878 2335.8372 -670.23639 4294967295
257.45428 2335.8315 -670.09998 4294967295
259.41946 2335.8357 -670.12646 4294967295
261.10416 2335.7622 -670.13293 4294967295
263.41968 2335.8291 -670.15961 4294967295
265.29581 2335.7141 -670.22217 4294967295
267.36584 2335.6838 -670.36475 4294967295
269.38113 2335.563 -670.5658 4294967295
273.24536 2335.0762 -670.64648 4294967295
275.09189 2335.53 -670.90698 4294967295
277.4404 2335.553 -670.92078 4294967295
279.44363 2335.7373 -670.91693 4294967295
301.48962 2334.1064 -670.987 4294967295
304.04269 2334.2087 -670.78772 4294967295
306.46146 2335.0029 -670.91028 4294967295
308.20245 2334.4697 -670.77747 4294967295
309.63879 2334.0889 -670.68646 4294967295
193.40056 2339.8452 -670.07904 4294967295
197.31654 2339.8843 -670.24475 4294967295
203.47905 2339.7825 -670.56946 4294967295
205.38113 2339.6492 -670.65131 4294967295
207.41815 2338.9407 -670.50079 4294967295
209.4614 2338.76 -670.51196 4294967295
253.4024 2337.812 -670.53314 4294967295
255.37434 2337.864 -670.43994 4294967295
257.37656 2337.7981 -670.4704 4294967295
259.289 2337.9351 -670.47528 4294967295
261.16455 2337.8838 -670.58789 4294967295
263.41141 2337.939 -670.49268 4294967295
265.31107 2337.8481 -670.63586 4294967295
267.44159 2338.1687 -670.6712 4294967295
269.23132 2338.1992 -670.74927 4294967295
271.35519 2338.0347 -670.84833 4294967295
273.35864 2338.0427 -670.88501 4294967295
275.46701 2338.0649 -670.90143 4294967295
277.37338 2338.1824 -670.89795 4294967295
279.44449 2338.5227 -670.91748 4294967295
355.57294 2339.3726 -670.94922 4294967295
357.39606 2339.6052 -670.93579 4294967295
359.49988 2339.6221 -670.88538 4294967295
361.50195 2339.574 -670.82153 4294967295
363.37769 2339.4736 -670.77704 4294967295
365.50464 2338.3916 -670.61151 4294967295
367.4295 2339.5784 -670.78259 4294967295
383.55286 2338.7598 -670.40918 4294967295
177.48923 2341.5178 -670.53705 4294967295
179.25647 2341.6309 -670.3877 4294967295
181.44846 2341.678 -670.40228 4294967295
193.41064 2341.7278 -670.59875 4294967295
199.31667 2341.8916 -670.85541 4294967295
201.36667 2341.9485 -670.95227 4294967295
271.4313 2342.9463 -670.88892 4294967295
359.53613 2342.135 -670.98126 4294967295
361.62253 2342.1392 -670.88013 4294967295
363.65524 2342.1284 -670.78448 4294967295
365.49969 2342.0898 -670.70135 4294967295
367.46942 2342.0232 -670.63849 4294967295
369.42386 2341.9954 -670.58752 4294967295
371.37949 2342.4331 -670.38519 4294967295
389.34244 2340.1301 -670.52087 4294967295
391.70001 2340.1001 -670.46191 4294967295
181.45215 2344.0745 -670.66425 4294967295
203.24484 2344.6978 -670.92572 4294967295
217.56917 2344.7246 -670.98499 4294967295
249.61072 2344.959 -670.31842 4294967295
267.3349 2345.2844 -670.97479 4294967295
347.31689 2345.2876 -670.69208 4294967295
349.45187 2345.177 -670.65839 4294967295
353.52838 2344.5806 -670.72156 4294967295
355.41431 2344.5693 -670.651 4294967295
357.59698 2344.5393 -670.55847 4294967295
359.47015 2345.0027 -670.23901 4294967295
361.52014 2343.9333 -670.57019 4294967295
363.8111 2343.7903 -670.41156 4294967295
365.4299 2343.6426 -670.33478 4294967295
367.55545 2343.3164 -670.2843 4294967295
369.45724 2343.2937 -670.19904 4294967295
373.46387 2343.2034 -670.03143 4294967295
191.25488 2348.8333 -670.6571 4294967295
251.41557 2347.6089 -670.60437 4294967295
253.32874 2347.5923 -670.65497 4294967295
255.513 2347.6355 -670.72919 4294967295
305.38135 2348.8237 -670.40131 4294967295
307.87991 2348.3564 -670.2843 4294967295
309.37286 2347.3591 -670.93201 4294967295
313.30191 2348.4094 -670.20178 4294967295
315.81329 2347.6216 -670.98212 4294967295
319.26437 2347.6743 -670.54065 4294967295
321.46249 2346.8562 -670.85822 4294967295
323.35889 2346.9075 -670.56244 4294967295
325.29697 2346.6987 -670.41577 4294967295
327.60706 2347.2283 -670.06598 4294967295
329.20169 2346.8269 -670.53516 4294967295
331.49197 2347.207 -670.83856 4294967295
333.439 2347.2739 -670.74188 4294967295
335.37064 2347.082 -670.73932 4294967295
185.40636 2351.0696 -670.75085 4294967295
187.6541 2351.3176 -670.85034 4294967295
189.52481 2351.3528 -670.90228 4294967295
191.31067 2351.3667 -670.94934 4294967295
247.57623 2349.9753 -670.85541 4294967295
249.30139 2349.8811 -670.81311 4294967295
251.32207 2350.6506 -670.63495 4294967295
253.35606 2350.6882 -670.70123 4294967295
255.51448 2350.2349 -670.78162 4294967295
257.52789 2351.2139 -670.63391 4294967295
259.43594 2351.75 -670.49042 4294967295
261.5578 2350.9385 -670.71704 4294967295
263.60019 2350.0815 -670.98779 4294967295
267.36566 2351.2568 -670.72327 4294967295
269.50842 2351.1719 -670.76764 4294967295
275.41129 2351.3601 -670.61816 4294967295
277.58417 2351.1211 -670.76025 4294967295
279.4743 2351.0244 -670.80103 4294967295
285.2413 2351.0344 -670.46143 4294967295
287.44391 2351.2388 -670.06134 4294967295
289.2894 2350.4756 -670.63922 4294967295
293.55829 2349.6523 -670.95551 4294967295
303.41165 2349.1162 -670.85968 4294967295
177.53612 2353.7544 -670.90356 4294967295
179.3486 2353.6069 -670.92731 4294967295
183.28433 2353.9324 -670.99023 4294967295
227.58601 2353.9021 -670.99481 4294967295
229.40546 2354.3503 -670.56592 4294967295
233.6273 2353.4226 -670.7796 4294967295
237.52879 2353.3137 -670.54614 4294967295
243.45268 2352.7498 -670.38025 4294967295
245.38252 2352.2336 -670.6441 4294967295
249.4319 2352.0674 -670.37592 4294967295
251.44861 2352.9272 -670.06067 4294967295
253.46758 2352.0715 -670.59283 4294967295
264.33319 2352.0107 -670.34143 4294967295
153.50714 2355.8894 -670.17676 4294967295
155.53557 2356.0498 -670.32147 4294967295
157.41148 2356.9219 -670.19788 4294967295
161.52428 2357.9197 -670.30328 4294967295
163.59891 2357.5867 -670.47882 4294967295
165.26955 2357.9626 -670.5545 4294967295
171.57832 2356.1274 -670.93982 4294967295
173.68671 2357.8545 -670.48865 4294967295
175.57899 2356.1111 -670.80457 4294967295
177.52841 2356.873 -670.56091 4294967295
179.49396 2356.6711 -670.57959 4294967295
181.4001 2356.0715 -670.7688 4294967295
183.31155 2356.0627 -670.8349 4294967295
185.44661 2356.696 -670.68878 4294967295
187.51955 2356.6255 -670.7356 4294967295
189.45236 2357.0698 -670.57715 4294967295
191.3967 2356.543 -670.76141 4294967295
193.47699 2356.0286 -670.98145 4294967295
195.42162 2357.0247 -670.54089 4294967295
201.18919 2356.8657 -670.5368 4294967295
205.3878 2356.7769 -670.67517 4294967295
208.89766 2356.1699 -670.96545 4294967295
215.57845 2355.4495 -670.72937 4294967295
217.36542 2355.2205 -670.76215 4294967295
219.42497 2355.1672 -670.75537 4294967295
221.32968 2355.2185 -670.71527 4294967295
223.55473 2355.1006 -670.70111 4294967295
167.38446 2359.0532 -670.11041 4294967295
171.41098 2358.5098 -670.39502 4294967295
173.56004 2358.7522 -670.11755 4294967295
271.35245 2377.0273 -670.01373 4294967295
209.2382 2381.1882 -670.02753 4294967295
233.33803 2379.6541 -670.01477 4294967295
177.42354 2383.6108 -670.04858 4294967295
191.45256 2382.5283 -670.01569 4294967295
193.35893 2382.3748 -670.00537 4294967295
119.22398 2387.522 -670.05463 4294967295
123.28124 2387.3938 -670.18195 4294967295
125.37501 2387.0859 -670.08929 4294967295
145.56274 2385.8708 -670.03253 4294967295
147.33372 2385.7627 -670.06586 4294967295
155.41718 2385.0432 -670.04395 4294967295
87.275917 2389.8418 -670.12494 4294967295
89.578484 2389.6895 -670.00842 4294967295
93.348358 2389.4331 -670.05103 4294967295
101.61597 2388.7791 -670.04315 4294967295
107.5014 2388.3962 -670.04828 4294967295
111.32917 2388.1958 -670.05078 4294967295
104.38514 2408.8271 -670.02075 4294967295
103.73007 2412.6853 -670.2486 4294967295
331.59705 2327.9858 -669.37463 4294967295
333.42401 2327.1501 -669.06226 4294967295
335.35483 2327.292 -669.62195 4294967295
343.46478 2326.9243 -669.65552 4294967295
345.46655 2326.9773 -669.65094 4294967295
347.47507 2326.7415 -669.3963 4294967295
349.39371 2326.7456 -669.44373 4294967295
351.47229 2326.676 -669.43005 4294967295
355.44254 2326.4968 -669.57043 4294967295
361.25827 2326.2463 -669.20654 4294967295
369.49936 2326.6162 -669.57684 4294967295
371.24185 2326.5837 -669.6333 4294967295
375.3931 2326.4373 -669.59802 4294967295
377.40335 2326.3877 -669.51941 4294967295
379.38062 2326.135 -669.47693 4294967295
381.2919 2325.9211 -669.41382 4294967295
401.39368 2326.7224 -669.48352 4294967295
403.27777 2327.8457 -669.46442 4294967295
405.49994 2327.8835 -669.45453 4294967295
407.38647 2325.6611 -669.02197 4294967295
409.50159 2327.9565 -669.30103 4294967295
411.22845 2325.6816 -669.12555 4294967295
291.48914 2330.8179 -669.50531 4294967295
293.4375 2330.7161 -669.59167 4294967295
299.1958 2329.6694 -669.13971 4294967295
301.23215 2330.2212 -669.34808 4294967295
303.17874 2330.7056 -669.42206 4294967295
316.68893 2330.5151 -669.26392 4294967295
320.013 2330.2549 -669.32037 4294967295
321.61414 2330.8892 -669.78857 4294967295
322.86212 2330.0681 -669.33789 4294967295
324.49179 2330.4614 -669.75366 4294967295
325.35324 2329.283 -669.07562 4294967295
326.5719 2329.6123 -669.44879 4294967295
327.76077 2329.2324 -669.45746 4294967295
329.63007 2328.9565 -669.59308 4294967295
267.29721 2333.9363 -669.76135 4294967295
269.47787 2333.1963 -669.55786 4294967295
271.40518 2332.488 -669.32605 4294967295
273.56653 2332.2813 -669.37817 4294967295
275.46231 2332.3445 -669.50031 4294967295
277.48853 2332.1948 -669.38409 4294967295
279.29407 2332.1494 -669.40894 4294967295
283.46225 2331.7969 -669.51776 4294967295
285.35135 2331.2136 -669.28839 4294967295
287.49872 2331.0356 -669.36676 4294967295
304.58014 2331.2561 -669.62073 4294967295
310.34732 2331.99 -669.64551 4294967295
312.27191 2331.6729 -669.6756 4294967295
314.27631 2331.1453 -669.5744 4294967295
207.36157 2336.8921 -669.47009 4294967295
209.48236 2336.7405 -669.38635 4294967295
211.63594 2336.5862 -669.46411 4294967295
253.31462 2334.1899 -669.06494 4294967295
255.30885 2334.5515 -669.45618 4294967295
257.47388 2334.5081 -669.50989 4294967295
259.49405 2334.4736 -669.50006 4294967295
261.47476 2334.3413 -669.48938 4294967295
263.66547 2334.1699 -669.48181 4294967295
411.51968 2335.5454 -669.30011 4294967295
413.64331 2335.5723 -669.24902 4294967295
415.47778 2335.6208 -669.19598 4294967295
417.66663 2335.4678 -669.10413 4294967295
419.49185 2335.4783 -669.0304 4294967295
175.492 2339.5881 -669.3349 4294967295
181.40602 2339.9797 -669.8291 4294967295
183.37389 2339.2827 -669.5188 4294967295
185.54208 2338.5994 -669.33551 4294967295
189.27704 2339.8035 -669.95898 4294967295
191.4823 2339.0098 -669.48535 4294967295
193.39368 2338.1929 -669.0481 4294967295
195.34935 2338.2642 -669.15454 4294967295
197.52837 2338.1343 -669.2312 4294967295
199.49228 2337.7698 -669.20331 4294967295
205.4279 2337.9885 -669.97784 4294967295
403.36115 2339.0173 -669.53223 4294967295
405.77042 2337.9548 -669.50848 4294967295
407.50897 2339.9998 -669.1604 4294967295
409.53857 2338.0947 -669.40698 4294967295
411.43185 2338.0742 -669.34412 4294967295
413.52496 2338.0107 -669.23273 4294967295
415.50497 2337.9314 -669.13904 4294967295
417.53827 2338.2495 -669.12061 4294967295
149.39972 2341.8662 -669.09869 4294967295
151.57887 2341.8748 -669.26276 4294967295
159.24916 2341.5933 -669.96722 4294967295
179.34892 2340.1523 -669.77338 4294967295
393.34778 2341.5994 -669.55359 4294967295
395.63327 2341.3169 -669.4375 4294967295
399.54297 2340.6426 -669.39471 4294967295
401.35504 2341.1802 -669.03156 4294967295
405.33902 2340.0522 -669.24115 4294967295
409.72183 2340.0803 -669.04395 4294967295
137.29796 2345.9148 -669.0271 4294967295
139.31116 2345.8057 -669.04877 4294967295
141.17035 2345.7595 -669.18488 4294967295
143.34093 2345.8765 -669.37305 4294967295
147.30551 2343.6169 -669.30377 4294967295
361.38345 2345.0989 -669.9892 4294967295
363.48639 2345.2986 -669.55945 4294967295
367.5119 2344.9519 -669.37201 4294967295
371.46689 2344.7144 -669.22137 4294967295
385.3768 2343.2332 -669.04077 4294967295
310.96756 2348.5359 -669.96539 4294967295
315.32095 2348.7832 -669.60767 4294967295
317.49283 2348.3694 -669.97876 4294967295
320.71869 2348.1506 -669.96088 4294967295
321.47971 2348.4099 -669.4845 4294967295
323.14038 2348.1199 -669.36005 4294967295
329.40137 2348.6182 -669.29346 4294967295
331.52798 2348.6067 -669.22931 4294967295
333.1604 2348.562 -669.2533 4294967295
335.62183 2348.3342 -669.26385 4294967295
337.54684 2348.0894 -669.34644 4294967295
347.60855 2346.7263 -669.54297 4294967295
349.71609 2346.4539 -669.68286 4294967295
351.45029 2346.5596 -669.40875 4294967295
355.43564 2346.3606 -669.3382 4294967295
357.3873 2346.2632 -669.47528 4294967295
361.60095 2346.1609 -669.00653 4294967295
285.40891 2351.9841 -669.16785 4294967295
289.55258 2351.5625 -669.25458 4294967295
291.21588 2350.988 -669.90125 4294967295
295.379 2350.8103 -669.83783 4294967295
297.30289 2351.0742 -669.21191 4294967295
301.47635 2350.6245 -669.2818 4294967295
303.47064 2350.5166 -669.22528 4294967295
305.18814 2350.3696 -669.28461 4294967295
306.79245 2349.8628 -669.15088 4294967295
235.46912 2354.7373 -669.5661 4294967295
237.29723 2354.7905 -669.32617 4294967295
239.52016 2354.835 -669.03333 4294967295
241.43706 2354.6294 -669.08557 4294967295
245.33101 2353.7476 -669.73682 4294967295
249.42932 2354.2339 -669.00958 4294967295
255.56607 2353.0474 -669.91473 4294967295
257.36069 2353.2517 -669.6391 4294967295
259.31674 2353.0422 -669.69269 4294967295
261.53027 2353.0283 -669.59442 4294967295
263.38675 2352.9775 -669.55933 4294967295
265.40247 2352.959 -669.48279 4294967295
267.39853 2352.7625 -669.60773 4294967295
271.45837 2352.6213 -669.50641 4294967295
273.45233 2352.3953 -669.68958 4294967295
279.53305 2352.301 -669.3125 4294967295
283.30698 2352.0432 -669.3681 4294967295
123.6457 2357.6665 -669.00385 4294967295
125.40167 2357.5903 -669.09564 4294967295
127.48026 2357.6509 -669.26074 4294967295
143.42261 2355.458 -669.3114 4294967295
147.39598 2355.7891 -669.64038 4294967295
149.33322 2355.76 -669.80688 4294967295
151.42422 2355.7686 -669.98676 4294967295
153.44592 2357.9805 -669.87573 4294967295
155.56789 2357.9734 -669.96759 4294967295
201.3186 2357.9353 -669.30249 4294967295
205.3745 2357.9602 -669.54565 4294967295
207.64471 2357.9407 -669.47247 4294967295
209.56801 2357.2712 -669.94385 4294967295
211.49396 2356.9353 -669.98334 4294967295
213.43604 2356.679 -669.87012 4294967295
215.38625 2356.792 -669.30902 4294967295
217.39038 2356.7056 -669.15302 4294967295
219.37007 2356.5989 -669.19495 4294967295
221.45897 2356.5151 -669.28558 4294967295
223.43013 2356.3865 -669.35553 4294967295
225.64523 2356.3188 -669.20856 4294967295
227.31902 2356.1123 -669.30396 4294967295
229.35458 2356.0491 -669.02661 4294967295
231.55801 2355.2039 -669.71167 4294967295
119.49168 2360.1379 -669.11456 4294967295
123.49113 2360.0574 -669.03699 4294967295
125.42896 2360.1643 -669.09003 4294967295
127.5745 2360.1357 -669.15363 4294967295
129.55559 2359.9553 -669.20221 4294967295
131.47342 2360.1904 -669.24573 4294967295
133.62057 2359.9841 -669.25952 4294967295
135.37473 2359.0286 -669.33075 4294967295
137.65407 2359.0537 -669.29376 4294967295
139.72313 2360.1001 -669.10315 4294967295
141.38748 2359.0237 -669.24915 4294967295
143.53214 2358.9883 -669.28864 4294967295
145.67319 2358.1289 -669.50403 4294967295
147.46713 2359.8745 -669.17657 4294967295
149.35681 2358.8979 -669.47693 4294967295
151.52818 2358.8511 -669.55872 4294967295
153.38524 2359.3809 -669.4223 4294967295
155.02657 2360.0676 -669.05365 4294967295
157.56017 2359.8962 -669.17419 4294967295
159.46106 2359.104 -669.73785 4294967295
163.35455 2359.0256 -669.95972 4294967295
167.52333 2360.2014 -669.19202 4294967295
169.59563 2360.1255 -669.21228 4294967295
171.48969 2360.0703 -669.14526 4294967295
173.5237 2359.9072 -669.10834 4294967295
177.46112 2358.9551 -669.59692 4294967295
179.43974 2359.0146 -669.36786 4294967295
181.4254 2358.696 -669.57123 4294967295
183.38808 2358.5461 -669.66223 4294967295
185.61954 2358.7241 -669.40631 4294967295
187.27327 2358.5349 -669.5788 4294967295
189.64128 2358.5081 -669.43719 4294967295
191.55914 2358.3613 -669.46979 4294967295
193.48225 2358.3167 -669.38306 4294967295
199.26807 2358.0471 -669.24066 4294967295
284.08774 2375.5464 -669.79529 4294967295
286.43307 2375.3557 -669.73651 4294967295
243.41026 2378.9475 -669.85577 4294967295
261.35358 2377.5537 -669.89789 4294967295
265.46725 2377.3008 -669.85291 4294967295
267.27542 2377.2366 -669.97339 4294967295
269.55588 2377.1692 -669.82349 4294967295
213.6127 2380.9731 -669.97076 4294967295
217.78412 2380.7644 -669.77502 4294967295
229.64009 2379.8618 -669.89233 4294967295
231.41104 2379.8286 -669.96252 4294967295
235.09579 2379.5969 -669.90991 4294967295
237.49745 2379.4431 -669.89496 4294967295
241.40508 2379.0808 -669.79279 4294967295
159.4525 2384.8342 -669.93701 4294967295
161.5293 2384.7192 -669.78058 4294967295
163.37334 2384.5774 -669.92969 4294967295
165.18202 2384.4248 -669.98895 4294967295
169.51437 2384.0054 -669.99152 4294967295
171.53549 2383.8767 -669.73724 4294967295
179.71306 2383.2949 -669.78967 4294967295
183.55341 2383.1299 -669.78387 4294967295
187.45227 2382.8411 -669.94489 4294967295
189.47298 2382.6897 -669.94183 4294967295
195.4333 2382.2444 -669.77435 4294967295
115.20226 2387.9312 -669.84119 4294967295
117.40333 2387.7012 -669.89893 4294967295
121.48869 2387.405 -669.755 4294967295
129.17645 2386.8655 -669.96307 4294967295
131.14365 2386.741 -669.81799 4294967295
135.27649 2386.5635 -669.55518 4294967295
143.40437 2386.0579 -669.71906 4294967295
149.44861 2385.6062 -669.98132 4294967295
151.51512 2385.4199 -669.95483 4294967295
153.41133 2385.3071 -669.96375 4294967295
81.170181 2390.3093 -669.90668 4294967295
85.499977 2389.9888 -669.82239 4294967295
91.461983 2389.5525 -669.98212 4294967295
95.77462 2389.2913 -669.97601 4294967295
97.357864 2389.1865 -669.97198 4294967295
99.387314 2389.0435 -669.96106 4294967295
103.58057 2388.6873 -669.81696 4294967295
109.37965 2388.3196 -669.94067 4294967295
113.55924 2388.0671 -669.89166 4294967295
64.985062 2391.4517 -669.99908 4294967295
69.94368 2391.0413 -669.73322 4294967295
211.60173 2393.635 -669.39679 4294967295
215.42964 2392.3516 -669.33264 4294967295
257.22879 2393.1753 -669.43225 4294967295
209.67252 2394.8027 -669.7663 4294967295
254.61467 2396.6899 -669.04614 4294967295
255.72934 2394.9109 -669.30963 4294967295
161.67192 2397.0571 -669.18927 4294967295
292.77307 2398.6646 -669.27704 4294967295
110.16084 2401.571 -669.89972 4294967295
203.37898 2404.8538 -669.08221 4294967295
105.24843 2406.8733 -669.66907 4294967295
103.92796 2410.4509 -669.87708 4294967295
153.51865 2410.8699 -669.47394 4294967295
204.07918 2410.6809 -669.26392 4294967295
103.64843 2414.4336 -669.46326 4294967295
257.20807 2412.6467 -669.224 4294967295
293.84341 2412.8516 -669.17535 4294967295
294.28558 2416.0239 -669.30621 4294967295
106.04939 2420.9448 -669.34186 4294967295
157.38933 2419.1863 -669.24365 4294967295
213.5412 2419.7676 -669.20148 4294967295
161.47655 2422.2363 -669.19189 4294967295
109.56459 2424.6294 -669.20984 4294967295
253.60429 2428.7922 -669.03955 4294967295
209.40222 2431.9172 -669.06921 4294967295
211.40436 2431.7959 -669.15753 4294967295
179.51848 2434.0481 -669.15674 4294967295
181.43793 2433.9036 -669.12103 4294967295
183.50784 2433.7432 -669.08075 4294967295
149.21442 2436.1494 -669.26807 4294967295
379.44409 2324.8977 -668.53522 4294967295
383.4689 2324.8477 -668.63263 4294967295
389.39203 2324.3225 -668.88617 4294967295
401.34171 2324.3901 -668.57159 4294967295
403.53522 2324.458 -668.53156 4294967295
405.38333 2324.4631 -668.53583 4294967295
407.38931 2324.3491 -668.52393 4294967295
409.29099 2324.0249 -668.47144 4294967295
413.41443 2323.8943 -668.46283 4294967295
415.60297 2323.7009 -668.55579 4294967295
419.53073 2323.8706 -668.44611 4294967295
423.33075 2323.8049 -668.30359 4294967295
429.28879 2323.7427 -668.14789 4294967295
431.56577 2323.8552 -668.1286 4294967295
433.47513 2323.6841 -668.03882 4294967295
435.47501 2323.8425 -668.02277 4294967295
329.92398 2327.7837 -668.62726 4294967295
331.61783 2326.9231 -668.11926 4294967295
333.48691 2326.7832 -668.00079 4294967295
335.56168 2326.6338 -668.06714 4294967295
337.50055 2326.5313 -668.21069 4294967295
339.32281 2326.426 -668.26526 4294967295
343.51974 2326.1428 -668.1488 4294967295
369.48383 2325.5283 -668.72876 4294967295
373.49924 2325.2476 -668.64795 4294967295
375.44571 2325.2568 -668.76044 4294967295
377.41785 2325.1021 -668.65747 4294967295
415.6777 2325.6362 -668.9942 4294967295
419.32086 2325.7119 -668.85278 4294967295
421.44882 2325.6462 -668.80493 4294967295
425.43744 2325.6467 -668.70581 4294967295
427.3436 2325.7385 -668.62195 4294967295
429.09821 2325.7603 -668.48706 4294967295
431.62579 2325.7888 -668.39734 4294967295
433.34213 2325.9668 -668.32617 4294967295
435.46359 2325.9783 -668.25525 4294967295
437.50418 2325.978 -668.26764 4294967295
439.34293 2325.948 -668.15186 4294967295
441.38901 2326.0325 -668.02307 4294967295
301.57196 2329.0676 -668.15466 4294967295
302.72827 2329.7278 -668.56061 4294967295
304.40573 2329.9998 -668.45721 4294967295
308.78806 2330.9451 -668.68195 4294967295
310.30032 2330.4814 -668.23846 4294967295
311.46893 2330.6956 -668.68323 4294967295
312.95963 2330.2021 -668.35803 4294967295
318.53098 2329.8691 -668.86407 4294967295
319.63168 2329.1523 -668.1192 4294967295
321.54605 2329.1116 -668.2525 4294967295
323.82489 2328.9207 -668.40149 4294967295
327.79788 2328.1094 -668.24664 4294967295
423.55182 2329.4849 -668.66699 4294967295
429.47198 2329.5903 -668.48035 4294967295
255.38416 2333.4485 -668.55609 4294967295
257.58118 2333.3088 -668.58099 4294967295
261.39612 2333.2395 -668.68842 4294967295
263.40106 2333.0649 -668.61633 4294967295
265.53638 2333.106 -668.87372 4294967295
267.42651 2332.7607 -668.89862 4294967295
281.42767 2331.4292 -668.87006 4294967295
306.48166 2331.0403 -668.96643 4294967295
417.37875 2332.9746 -668.87927 4294967295
421.24472 2332.9492 -668.77661 4294967295
423.0498 2333.0459 -668.72925 4294967295
427.4162 2333.4165 -668.6911 4294967295
443.59219 2333.7366 -668.12 4294967295
421.4892 2335.6311 -668.98285 4294967295
423.60272 2335.7468 -668.96582 4294967295
425.59457 2335.7876 -668.82513 4294967295
427.30695 2335.9456 -668.80011 4294967295
437.51135 2335.9844 -668.49298 4294967295
441.83493 2335.9453 -668.29492 4294967295
443.47461 2336.2415 -668.2088 4294967295
177.52556 2339.0916 -668.84924 4294967295
181.42978 2338.8108 -668.98187 4294967295
201.37486 2337.2197 -668.8277 4294967295
203.53847 2337.043 -668.97736 4294967295
411.65994 2339.9854 -668.95166 4294967295
413.44022 2339.9263 -668.86426 4294967295
417.37256 2339.8169 -668.55487 4294967295
419.41324 2338.792 -668.66095 4294967295
421.51257 2338.729 -668.53687 4294967295
423.60223 2339.2144 -668.25159 4294967295
425.36685 2337.9417 -668.63483 4294967295
427.56055 2339.0642 -668.1062 4294967295
429.57187 2337.9299 -668.43427 4294967295
433.38452 2337.7751 -668.36212 4294967295
435.34735 2337.8301 -668.1842 4294967295
139.27513 2342.4165 -668.15179 4294967295
141.35376 2342.3279 -668.31763 4294967295
143.35312 2342.2065 -668.43762 4294967295
147.52751 2342.0291 -668.78351 4294967295
149.49019 2340.5071 -668.00348 4294967295
155.33165 2340.5049 -668.82385 4294967295
157.4604 2340.3953 -668.92114 4294967295
161.22211 2340.1182 -668.95581 4294967295
389.39203 2342.9724 -668.91858 4294967295
395.91376 2342.1497 -668.89209 4294967295
405.31516 2341.1426 -668.78491 4294967295
409.27081 2341.0671 -668.57373 4294967295
411.40894 2341.1221 -668.39539 4294967295
415.46683 2340.9373 -668.15717 4294967295
119.3572 2345.6165 -668.35004 4294967295
121.43916 2345.5942 -668.43945 4294967295
123.33389 2345.5696 -668.48785 4294967295
129.1974 2344.7241 -668.3407 4294967295
135.24524 2345.9119 -668.87213 4294967295
137.26593 2343.6917 -668.69879 4294967295
139.29709 2343.6934 -668.71271 4294967295
143.21083 2343.6277 -668.96521 4294967295
387.35547 2343.1582 -668.95325 4294967295
391.26828 2343.0569 -668.65234 4294967295
113.53817 2348.1787 -668.16077 4294967295
115.2626 2348 -668.35767 4294967295
117.41595 2347.9905 -668.53552 4294967295
119.17308 2347.9331 -668.63129 4294967295
121.43665 2348.033 -668.67175 4294967295
137.04967 2348.6218 -668.89587 4294967295
319.70154 2348.8499 -668.87103 4294967295
326.54861 2348.4753 -668.61639 4294967295
349.5206 2347.4585 -668.01019 4294967295
355.40912 2346.9421 -668.16931 4294967295
357.62097 2346.8105 -668.08325 4294967295
359.6459 2346.6423 -668.06561 4294967295
117.36855 2350.6155 -668.33972 4294967295
119.38557 2350.7336 -668.41852 4294967295
121.31332 2350.6765 -668.47058 4294967295
299.5209 2351.302 -668.13702 4294967295
305.29871 2350.8704 -668.06683 4294967295
307.75079 2350.7124 -668.01965 4294967295
309.05472 2349.804 -668.5777 4294967295
313.33078 2349.449 -668.6073 4294967295
317.47418 2349.3899 -668.07599 4294967295
321.56595 2349.0432 -668.05164 4294967295
329.4278 2349.1909 -668.078 4294967295
331.15018 2349.1208 -668.12164 4294967295
243.49622 2354.595 -668.94366 4294967295
253.44881 2354.5654 -668.07245 4294967295
265.33371 2353.7283 -668.08356 4294967295
267.38708 2353.6375 -668.03693 4294967295
271.33151 2353.3462 -668.04388 4294967295
275.43253 2353.0608 -668.06323 4294967295
277.48065 2352.8901 -668.13336 4294967295
281.69498 2352.6172 -668.15295 4294967295
287.82275 2352.1982 -668.02704 4294967295
115.60429 2356.2515 -668.44482 4294967295
117.53413 2357.6882 -668.77069 4294967295
119.46222 2357.4648 -668.82404 4294967295
121.67243 2357.7646 -668.93579 4294967295
213.53188 2357.7163 -668.12842 4294967295
221.46487 2357.052 -668.12848 4294967295
223.70535 2357.0022 -668.00763 4294967295
225.69962 2356.8613 -668.1214 4294967295
229.54572 2356.5156 -668.00024 4294967295
113.62827 2360.1262 -668.58405 4294967295
115.62417 2359.9885 -668.94452 4294967295
117.29096 2360.6401 -668.85431 4294967295
121.8406 2360.7151 -668.91681 4294967295
145.5551 2360.8782 -668.69305 4294967295
149.24242 2360.6504 -668.78333 4294967295
153.45744 2360.6863 -668.57495 4294967295
159.03976 2360.3313 -668.80811 4294967295
163.54791 2360.3188 -668.93091 4294967295
165.64102 2360.9897 -668.0257 4294967295
167.45529 2360.8887 -668.06677 4294967295
185.52594 2359.5144 -668.02179 4294967295
187.15239 2359.3586 -668.12061 4294967295
197.39601 2358.6243 -668.0661 4294967295
201.27356 2358.4136 -668.11823 4294967295
203.30505 2358.5967 -668.06897 4294967295
205.62819 2358.6658 -668.03894 4294967295
111.44845 2361.5576 -668.28583 4294967295
115.63898 2361.8372 -668.53662 4294967295
117.28076 2363.2244 -668.0321 4294967295
121.41839 2361.9746 -668.68463 4294967295
123.2422 2362.3696 -668.46002 4294967295
125.47751 2361.8818 -668.69733 4294967295
127.37509 2361.6921 -668.7486 4294967295
129.37503 2362.4556 -668.29358 4294967295
131.42467 2361.3616 -668.82617 4294967295
133.45757 2361.2061 -668.85901 4294967295
135.50333 2361.2515 -668.77863 4294967295
137.55582 2361.0767 -668.75995 4294967295
143.34373 2361.1721 -668.54803 4294967295
147.35188 2361.0208 -668.56104 4294967295
113.5695 2399.8704 -668.68768 4294967295
293.5687 2410.4409 -668.74878 4294967295
104.15535 2417.5923 -668.69482 4294967295
208.00098 2416.5679 -668.95215 4294967295
153.61882 2435.8311 -668.90259 4294967295
185.70544 2433.5562 -668.95605 4294967295
147.59206 2436.2288 -668.88239 4294967295
439.29013 2321.8672 -667.38385 4294967295
441.49902 2321.8367 -667.30206 4294967295
445.32059 2321.6675 -667.2439 4294967295
447.26205 2321.6826 -667.2326 4294967295
449.31815 2321.5803 -667.14368 4294967295
451.38019 2321.5842 -667.08374 4294967295
375.29111 2324.2278 -667.27289 4294967295
377.41614 2324.0854 -667.25726 4294967295
379.60928 2323.9443 -667.23132 4294967295
382.94269 2323.7795 -667.17053 4294967295
385.5788 2323.5657 -667.07739 4294967295
387.31348 2323.4736 -667.10736 4294967295
391.20416 2323.019 -667.12665 4294967295
401.3757 2323.0955 -667.54883 4294967295
403.50079 2322.9312 -667.41241 4294967295
405.44638 2322.8206 -667.57361 4294967295
407.30035 2322.8811 -667.62152 4294967295
409.54825 2322.7759 -667.65656 4294967295
411.18295 2322.8386 -667.82007 4294967295
413.50098 2322.3464 -667.52185 4294967295
415.49649 2322.2632 -667.46289 4294967295
421.4382 2322.2065 -667.33405 4294967295
423.46317 2322.2305 -667.25635 4294967295
425.39615 2322.2112 -667.29016 4294967295
427.31503 2322.5464 -667.58051 4294967295
431.1871 2322.4736 -667.54791 4294967295
433.29086 2322.4263 -667.47656 4294967295
435.34012 2322.3767 -667.45856 4294967295
437.28577 2322.8882 -667.68414 4294967295
439.39435 2323.676 -667.88611 4294967295
443.35739 2323.4932 -667.74481 4294967295
447.43988 2323.7395 -667.659 4294967295
449.47742 2323.6055 -667.57733 4294967295
451.52768 2323.6272 -667.45288 4294967295
455.46124 2323.8191 -667.13354 4294967295
329.19571 2327.3489 -667.54333 4294967295
345.77713 2325.9978 -667.92297 4294967295
347.10385 2325.9443 -667.90125 4294967295
349.61826 2325.8257 -667.76239 4294967295
351.23038 2325.7705 -667.82642 4294967295
357.46826 2325.3621 -667.56519 4294967295
443.1571 2326.04 -667.90997 4294967295
447.21307 2326.4578 -667.67047 4294967295
451.54684 2326.3755 -667.4386 4294967295
455.65314 2326.9021 -667.06134 4294967295
279.3605 2330.7031 -667.36829 4294967295
283.39319 2330.5254 -667.63525 4294967295
285.51697 2330.3306 -667.80957 4294967295
287.35928 2330.1445 -667.8382 4294967295
291.53632 2329.824 -667.64337 4294967295
293.43433 2329.731 -667.89886 4294967295
295.44589 2329.5327 -667.85938 4294967295
297.29193 2329.3816 -667.91791 4294967295
303.2225 2329.2075 -667.29395 4294967295
305.59799 2329.9099 -667.95728 4294967295
307.92288 2330.2126 -667.85181 4294967295
311.55362 2329.5623 -667.01453 4294967295
315.07556 2329.4736 -667.62531 4294967295
317.87622 2328.9041 -667.26263 4294967295
324.32239 2328.0518 -667.13086 4294967295
325.61703 2328.2925 -667.96515 4294967295
445.49966 2328.7341 -667.73297 4294967295
449.35907 2328.8625 -667.53845 4294967295
249.68994 2332.9363 -667.19025 4294967295
253.25587 2332.7925 -667.2569 4294967295
255.45767 2332.5769 -667.21429 4294967295
257.46432 2332.4141 -667.172 4294967295
261.35007 2332.1746 -667.14929 4294967295
263.38104 2332.0959 -667.22461 4294967295
265.55176 2331.9133 -667.15485 4294967295
267.42447 2331.7505 -667.3418 4294967295
269.51996 2331.5073 -667.27692 4294967295
271.41705 2331.4116 -667.6731 4294967295
273.5733 2331.2236 -667.66443 4294967295
275.20593 2331.1567 -667.69598 4294967295
277.27164 2331.0383 -667.67871 4294967295
451.59393 2333.6235 -667.58734 4294967295
457.54062 2333.7148 -667.1203 4294967295
195.27644 2336.7476 -667.18219 4294967295
205.33498 2335.991 -667.63794 4294967295
209.45937 2335.6675 -667.65881 4294967295
213.79237 2335.1995 -667.88708 4294967295
447.5105 2335.9104 -667.71497 4294967295
151.30865 2339.7329 -667.25604 4294967295
153.61066 2339.5684 -667.37067 4294967295
157.13039 2339.2815 -667.12384 4294967295
159.34055 2339.2058 -667.24573 4294967295
161.53502 2339.0801 -667.25562 4294967295
173.66571 2338.1404 -667.08826 4294967295
175.56638 2338.0801 -667.07892 4294967295
177.54361 2338.0623 -667.20575 4294967295
179.50288 2337.8914 -667.11841 4294967295
181.51015 2337.7158 -667.29596 4294967295
183.23244 2337.5376 -667.2323 4294967295
189.43445 2337.0371 -667.24988 4294967295
429.23874 2339.1848 -667.91138 4294967295
431.832 2339.0002 -667.75189 4294967295
437.60059 2339.4958 -667.06616 4294967295
439.43762 2337.8333 -667.98804 4294967295
441.61197 2337.8137 -667.72949 4294967295
123.20721 2342.5535 -667.10382 4294967295
125.32329 2342.5078 -667.12024 4294967295
135.59076 2342.0444 -667.40997 4294967295
139.46861 2341.1177 -667.24225 4294967295
141.55865 2341.0952 -667.49762 4294967295
145.5244 2340.8252 -667.87341 4294967295
147.43449 2340.5632 -667.70221 4294967295
397.30853 2342.9993 -667.92352 4294967295
399.60831 2342.9478 -667.70392 4294967295
403.43082 2342.7537 -667.48761 4294967295
405.37457 2342.5371 -667.59363 4294967295
407.35672 2342.5273 -667.33826 4294967295
409.30859 2342.3267 -667.44104 4294967295
411.43268 2342.2744 -667.23645 4294967295
417.31369 2341.2727 -667.65723 4294967295
421.56171 2341.0784 -667.28278 4294967295
423.22388 2340.7747 -667.37402 4294967295
425.50668 2340.4836 -667.4071 4294967295
427.45349 2340.2063 -667.41785 4294967295
105.39738 2345.3342 -667.13983 4294967295
109.44126 2345.8359 -667.27216 4294967295
113.45338 2345.7627 -667.82916 4294967295
115.10894 2344.3691 -667.39288 4294967295
117.50567 2344.03 -667.59003 4294967295
119.14046 2343.9385 -667.74878 4294967295
123.36132 2343.9065 -667.98315 4294967295
125.22338 2343.8159 -667.94519 4294967295
369.52173 2345.9546 -667.75 4294967295
371.12753 2345.7673 -667.88745 4294967295
381.41205 2344.8545 -667.34833 4294967295
385.44235 2344.4817 -667.2821 4294967295
387.38196 2344.3813 -667.23248 4294967295
389.24658 2344.1841 -667.29761 4294967295
391.23517 2344.1111 -667.04633 4294967295
393.52658 2343.845 -667.14777 4294967295
395.23749 2343.2319 -667.89337 4294967295
111.22652 2348.0811 -667.90259 4294967295
335.50742 2348.9617 -667.99945 4294967295
345.41629 2347.9363 -667.97711 4294967295
353.41315 2347.1702 -667.99371 4294967295
363.52069 2346.3071 -667.93823 4294967295
365.3916 2346.1431 -667.91968 4294967295
367.3063 2346.042 -667.85461 4294967295
293.37344 2351.8157 -667.87854 4294967295
297.35318 2351.6521 -667.92786 4294967295
311.28925 2349.9648 -667.81586 4294967295
315.34018 2349.7759 -667.7019 4294967295
333.49625 2349.1458 -667.90479 4294967295
247.51755 2354.9778 -667.85773 4294967295
249.50876 2354.8674 -667.84216 4294967295
251.43343 2354.7375 -667.96759 4294967295
255.49872 2354.449 -667.99939 4294967295
257.52243 2354.2676 -667.97174 4294967295
259.49408 2354.1829 -667.83795 4294967295
261.38889 2354.0051 -667.92725 4294967295
289.758 2352.1057 -667.84717 4294967295
291.44333 2352.1123 -667.88287 4294967295
231.46481 2356.3123 -667.9386 4294967295
235.62132 2355.8381 -667.92883 4294967295
237.21564 2355.8054 -667.60388 4294967295
239.39502 2355.6179 -667.69287 4294967295
243.47229 2355.2935 -667.77179 4294967295
169.78935 2360.8474 -667.89221 4294967295
171.69504 2360.7305 -667.93396 4294967295
173.403 2360.5747 -667.96838 4294967295
177.60249 2360.1646 -667.8573 4294967295
179.31448 2359.9441 -667.98895 4294967295
189.68858 2359.2368 -667.96881 4294967295
193.57405 2358.9268 -667.99963 4294967295
209.37604 2358.5869 -667.74603 4294967295
211.65256 2358.1719 -667.93988 4294967295
109.36732 2363.0908 -667.23663 4294967295
111.29042 2363.5178 -667.23346 4294967295
113.3228 2362.947 -667.86243 4294967295
115.00796 2363.6594 -667.67218 4294967295
123.69942 2363.9939 -667.00781 4294967295
125.50787 2363.1865 -667.85736 4294967295
127.50449 2363.1301 -667.8017 4294967295
131.69987 2363.0305 -667.61816 4294967295
133.53317 2362.7271 -667.77405 4294967295
137.29602 2362.5767 -667.55292 4294967295
139.54889 2362.2949 -667.74915 4294967295
141.1198 2362.5186 -667.23138 4294967295
145.5692 2362.2197 -667.25525 4294967295
147.2448 2362.1348 -667.23004 4294967295
149.66216 2362.0249 -667.11102 4294967295
151.60152 2361.8728 -667.07513 4294967295
153.30827 2361.6985 -667.2525 4294967295
157.48018 2361.4009 -667.25043 4294967295
159.20576 2361.2385 -667.37421 4294967295
161.20212 2361.0603 -667.70618 4294967295
119.59991 2364.1897 -667.14258 4294967295
121.224 2364.0361 -667.29126 4294967295
286.5246 2375.7886 -667.24292 4294967295
233.44208 2380.051 -667.42651 4294967295
241.52417 2379.5894 -667.10864 4294967295
292.02246 2381.8936 -667.76337 4294967295
191.63443 2383.0789 -667.0849 4294967295
127.3372 2387.5833 -667.01373 4294967295
129.31683 2387.4302 -667.10718 4294967295
131.21008 2387.3145 -667.04877 4294967295
151.44107 2385.8801 -667.13672 4294967295
155.23282 2385.6343 -667.15509 4294967295
159.34932 2385.3599 -667.1333 4294967295
163.20659 2385.0486 -667.14166 4294967295
97.379227 2389.6304 -667.02924 4294967295
103.05788 2389.2664 -667.1424 4294967295
105.78704 2389.0789 -667.03033 4294967295
107.56651 2388.9395 -667.12 4294967295
109.18369 2388.8247 -667.15314 4294967295
111.59972 2388.5688 -667.3186 4294967295
113.10997 2388.4851 -667.52637 4294967295
115.57557 2388.3462 -667.16522 4294967295
257.41223 2392.7773 -667.04889 4294967295
165.27809 2395.8032 -667.13971 4294967295
159.44691 2398.4211 -667.00989 4294967295
161.39868 2397.0784 -667.06165 4294967295
157.03392 2400.5552 -667.23901 4294967295
106.90526 2404.3018 -667.21259 4294967295
203.17091 2404.9187 -667.19208 4294967295
203.22932 2407.6873 -667.14471 4294967295
103.66655 2410.5405 -667.14142 4294967295
104.14349 2409.0317 -667.42596 4294967295
203.88908 2410.844 -667.13843 4294967295
103.46281 2413.9639 -667.32495 4294967295
154.15105 2414.8875 -667.11542 4294967295
103.84627 2416.9258 -667.32819 4294967295
294.21216 2416.916 -667.0437 4294967295
157.17438 2419.5039 -667.00513 4294967295
209.29114 2418.0662 -667.03137 4294967295
275.12991 2427.2251 -667.01587 4294967295
209.23747 2431.824 -667.15863 4294967295
213.42842 2431.5457 -667.06409 4294967295
411.88678 2321.7952 -666.7475 4294967295
427.6514 2321.4443 -666.69678 4294967295
429.46109 2321.5046 -666.87823 4294967295
431.4321 2321.2898 -666.69281 4294967295
433.55096 2321.1843 -666.66034 4294967295
437.40088 2321.0518 -666.67145 4294967295
441.34195 2320.7488 -666.64075 4294967295
443.42587 2320.6672 -666.65619 4294967295
445.15717 2320.6277 -666.65436 4294967295
451.36798 2320.4648 -666.53546 4294967295
453.42932 2321.6326 -666.95221 4294967295
455.27618 2320.9587 -666.59698 4294967295
457.54889 2321.0703 -666.33032 4294967295
459.37302 2321.7864 -666.44916 4294967295
463.15448 2321.7173 -666.2738 4294967295
359.59164 2324.7844 -666.14001 4294967295
377.74475 2323.6475 -666.00848 4294967295
457.40906 2323.9043 -666.94623 4294967295
459.45523 2323.9485 -666.84216 4294967295
463.35114 2324.0764 -666.62231 4294967295
325.27188 2327.7529 -666.63684 4294967295
326.42841 2327.72 -666.9635 4294967295
327.63712 2327.4014 -666.43408 4294967295
329.15955 2326.8364 -666.17242 4294967295
333.4975 2326.6086 -666.0849 4294967295
335.39697 2326.4814 -666.01465 4294967295
337.22723 2326.2979 -666.25665 4294967295
339.36087 2326.1907 -666.51038 4294967295
341.3139 2326.0635 -666.77985 4294967295
343.2995 2325.6567 -666.64099 4294967295
345.49652 2325.7795 -666.638 4294967295
347.37759 2325.634 -666.04236 4294967295
349.61288 2325.4963 -666.10095 4294967295
351.58737 2325.3752 -666.12677 4294967295
353.38806 2325.075 -666.30511 4294967295
355.15408 2325.1421 -666.18958 4294967295
271.34079 2330.9966 -666.12921 4294967295
273.42697 2330.8777 -666.26184 4294967295
277.4552 2330.6243 -666.07117 4294967295
285.41672 2329.9585 -666.02844 4294967295
287.39093 2329.7993 -666.02252 4294967295
289.3526 2329.6833 -666.24658 4294967295
291.39178 2329.5488 -666.20264 4294967295
293.54437 2329.408 -666.21997 4294967295
295.23639 2329.2869 -666.06183 4294967295
297.28958 2328.936 -666.23486 4294967295
299.10696 2328.9897 -666.22546 4294967295
301.67911 2328.8315 -666.09851 4294967295
305.07846 2329.2517 -666.68799 4294967295
307.05502 2329.5435 -666.71533 4294967295
309.18341 2329.7258 -666.94745 4294967295
313.37164 2329.3013 -666.96545 4294967295
316.25534 2328.6448 -666.02917 4294967295
320.27011 2328.3755 -666.63708 4294967295
321.64917 2328.2705 -666.83923 4294967295
322.88318 2328.1956 -666.96149 4294967295
269.3967 2331.1528 -666.00983 4294967295
187.6244 2336.9211 -666.07031 4294967295
205.22884 2335.5928 -666.05371 4294967295
209.25072 2335.3079 -666.09888 4294967295
211.62653 2335.0171 -666.15393 4294967295
215.13217 2334.7957 -666.00562 4294967295
459.33694 2335.8638 -666.55865 4294967295
467.50854 2335.2043 -666.27124 4294967295
149.43982 2339.2944 -666.0929 4294967295
151.26173 2339.3469 -666.12213 4294967295
155.1673 2339.0674 -666.20508 4294967295
157.08948 2338.9783 -666.08398 4294967295
159.21658 2338.8577 -666.1875 4294967295
441.31284 2339.4431 -666.77631 4294967295
445.41983 2339.052 -666.62952 4294967295
447.2529 2338.7285 -666.5697 4294967295
453.39859 2337.2471 -666.5603 4294967295
455.5997 2337.2131 -666.33374 4294967295
457.29178 2337.178 -666.20227 4294967295
115.41502 2342.9822 -666.56012 4294967295
119.3476 2342.7449 -666.95697 4294967295
137.64096 2341.155 -666.9187 4294967295
143.39149 2340.0027 -666.00598 4294967295
413.5181 2342.6846 -666.01141 4294967295
429.20212 2340.5229 -666.88141 4294967295
95.304245 2345.554 -666.25909 4294967295
103.57368 2344.1895 -666.46515 4294967295
107.14687 2344.3933 -666.42419 4294967295
109.54331 2344.5354 -666.64294 4294967295
111.35708 2344.406 -666.8089 4294967295
93.464645 2347.4136 -666.23932 4294967295
94.882065 2346.571 -666.46234 4294967295
351.20401 2347.916 -666.03003 4294967295
353.32199 2347.585 -666.03168 4294967295
355.62201 2347.4189 -666.00366 4294967295
357.57224 2347.2832 -666.04865 4294967295
363.57983 2346.7607 -666.1792 4294967295
365.47046 2346.7607 -666.22394 4294967295
367.74216 2346.7095 -666.15076 4294967295
371.23257 2346.5613 -666.06873 4294967295
301.47754 2351.7266 -666.00165 4294967295
303.5723 2351.5339 -666.04883 4294967295
307.4248 2351.0498 -666.00885 4294967295
316.89203 2350.2219 -666.15247 4294967295
323.66254 2349.2632 -666.83234 4294967295
327.21127 2349.7883 -666.00354 4294967295
329.30374 2349.5928 -666.02191 4294967295
331.24774 2349.6799 -666.04102 4294967295
261.49301 2354.583 -666.0481 4294967295
263.32843 2354.3069 -666.17786 4294967295
267.49731 2354.2058 -666.08398 4294967295
269.17395 2354.0762 -666.13885 4294967295
283.362 2352.949 -666.09717 4294967295
215.5201 2357.8699 -666.0741 4294967295
219.4801 2357.6165 -666.10559 4294967295
229.36691 2357.0542 -666.20508 4294967295
231.64197 2356.8145 -666.0675 4294967295
235.8396 2356.4658 -666.06384 4294967295
239.55774 2356.0664 -666.08197 4294967295
241.40286 2356.0459 -666.2019 4294967295
245.55777 2355.7058 -666.04187 4294967295
249.45576 2355.2905 -666.02942 4294967295
251.42612 2355.1274 -666.22424 4294967295
253.53804 2355.0325 -666.17139 4294967295
175.41817 2360.9031 -666.10205 4294967295
177.46489 2360.8347 -666.22968 4294967295
179.48216 2360.6719 -666.04425 4294967295
183.48663 2360.2771 -666.23102 4294967295
185.56787 2360.1218 -666.20422 4294967295
187.37491 2359.9846 -666.13782 4294967295
191.46501 2359.6548 -666.04517 4294967295
209.26495 2358.9241 -666.18195 4294967295
213.53723 2358.2395 -666.11816 4294967295
95.421333 2362.3757 -666.40802 4294967295
97.606888 2363.8401 -666.3006 4294967295
98.614815 2362.7695 -666.79004 4294967295
133.55394 2363.7148 -666.09052 4294967295
135.33983 2363.5378 -666.07397 4294967295
136.92386 2363.322 -666.19678 4294967295
143.34947 2362.8926 -666.04718 4294967295
145.54346 2362.7397 -666.01874 4294967295
163.24074 2361.5239 -666.16693 4294967295
165.56369 2361.6204 -666.14594 4294967295
167.345 2361.4504 -666.14819 4294967295
171.33382 2361.2402 -666.05066 4294967295
99.18396 2364.7856 -666.11383 4294967295
101.60407 2364.7043 -666.35425 4294967295
113.33794 2364.249 -666.8266 4294967295
121.22784 2364.6274 -666.09705 4294967295
125.47419 2364.3179 -666.06384 4294967295
125.82684 2387.7083 -666.86127 4294967295
157.25551 2385.5259 -666.98151 4294967295
161.515 2385.2358 -666.93756 4294967295
101.75663 2389.3796 -666.9873 4294967295
259.39764 2391.1558 -666.91083 4294967295
111.41718 2400.6104 -666.74261 4294967295
255.53529 2411.0166 -666.96112 4294967295
259.09729 2414.5808 -666.98438 4294967295
293.85806 2415.0356 -666.90704 4294967295
104.55468 2418.825 -666.92242 4294967295
211.45857 2419.2874 -666.89136 4294967295
215.43361 2420.4844 -666.90338 4294967295
105.82718 2421.2539 -666.86676 4294967295
407.21463 2321.7314 -665.79694 4294967295
409.05826 2321.6597 -665.95972 4294967295
411.6272 2321.3945 -665.85577 4294967295
417.21863 2321.1501 -665.77405 4294967295
419.65002 2320.9207 -665.46643 4294967295
425.51715 2320.6841 -665.49701 4294967295
427.41977 2320.5676 -665.23041 4294967295
433.61829 2320.1477 -665.19379 4294967295
435.32813 2320.0947 -665.24109 4294967295
437.47595 2319.9778 -665.2464 4294967295
441.125 2319.6863 -665.26257 4294967295
443.45007 2319.5283 -665.22198 4294967295
445.56976 2319.3713 -665.17542 4294967295
449.4379 2319.4209 -665.67267 4294967295
451.52811 2319.2527 -665.53973 4294967295
453.60361 2319.1018 -665.32208 4294967295
457.45749 2319.1797 -665.26239 4294967295
461.33804 2319.7305 -665.40863 4294967295
463.39444 2320.3069 -665.71698 4294967295
371.5036 2323.8008 -665.89325 4294967295
375.65173 2323.7549 -665.87805 4294967295
379.65945 2323.5256 -665.91327 4294967295
381.23935 2323.4038 -665.87329 4294967295
383.12222 2323.304 -665.78534 4294967295
385.59323 2323.1487 -665.85004 4294967295
387.28876 2323.0579 -665.82654 4294967295
389.58386 2322.7524 -665.79675 4294967295
393.61502 2322.3928 -665.60785 4294967295
397.47302 2322.3896 -665.86108 4294967295
401.30353 2322.1624 -665.84753 4294967295
321.9574 2327.9482 -665.40112 4294967295
324.12323 2327.7407 -665.54633 4294967295
325.99863 2327.5078 -665.53619 4294967295
331.75137 2326.6714 -665.98492 4294967295
357.37527 2325.001 -665.98431 4294967295
281.31836 2330.2056 -665.97058 4294967295
303.90759 2328.9712 -665.5213 4294967295
305.07761 2328.9817 -665.3465 4294967295
306.15897 2329.0432 -665.20563 4294967295
307.23346 2329.0686 -665.10773 4294967295
308.33432 2329.1157 -665.09845 4294967295
310.30899 2329.0525 -665.04022 4294967295
311.76956 2329.0105 -665.48853 4294967295
312.73965 2328.9954 -665.85577 4294967295
314.36179 2328.7729 -665.44543 4294967295
317.62918 2328.3687 -665.4068 4294967295
318.95401 2328.2542 -665.60803 4294967295
251.37833 2332.3538 -665.83612 4294967295
253.2858 2332.3425 -665.91974 4294967295
255.35397 2332.1533 -665.9425 4294967295
257.41788 2331.9827 -665.85706 4294967295
259.16522 2331.8838 -665.93079 4294967295
261.30835 2331.7266 -665.84351 4294967295
263.46664 2331.6133 -665.69141 4294967295
265.21646 2331.5454 -665.95361 4294967295
267.4823 2331.3616 -665.8996 4294967295
191.33717 2336.5266 -665.90839 4294967295
193.29587 2336.4175 -665.89313 4294967295
197.48622 2336.1128 -665.76599 4294967295
203.39738 2335.7175 -665.94806 4294967295
464.74911 2336.5171 -665.74805 4294967295
479.76611 2334.3633 -665.1991 4294967295
161.4361 2338.6938 -665.95349 4294967295
165.27386 2338.2495 -665.82684 4294967295
181.49791 2337.2861 -665.96057 4294967295
455.4874 2338.9343 -665.08997 4294967295
457.49646 2338.634 -665.12708 4294967295
461.45767 2337.7505 -665.38947 4294967295
111.33278 2342.9705 -665.74933 4294967295
115.30722 2341.9983 -665.17908 4294967295
117.0118 2341.8457 -665.29767 4294967295
119.4906 2341.6406 -665.2572 4294967295
121.48379 2341.5125 -665.31647 4294967295
