# .PCD v0.7 - Point Cloud Data file format
VERSION 0.7
FIELDS x y z rgba
SIZE 4 4 4 4
TYPE F F F U
COUNT 1 1 1 1
WIDTH 1149
HEIGHT 1
VIEWPOINT 0 0 0 1 0 0 0
POINTS 1149
DATA ascii
601.3584 2719.1726 -543.0307 4294967295
584.39093 2729.4119 -543.0957 4294967295
589.0481 2729.0193 -543.33368 4294967295
599.08533 2688.7346 -542.35437 4294967295
601.78638 2721.4978 -542.72491 4294967295
601.94391 2725.9961 -542.89801 4294967295
602.03723 2724.2351 -542.91833 4294967295
586.43658 2729.0371 -542.89624 4294967295
593.82147 2729.2983 -542.85156 4294967295
598.70654 2728.9597 -542.71564 4294967295
601.17773 2727.4436 -542.72589 4294967295
581.56024 2731.9734 -542.94458 4294967295
591.25494 2729.2559 -541.1507 4294967295
581.36047 2733.6338 -541.03217 4294967295
599.50458 2689.7285 -540.89087 4294967295
601.79413 2721.7114 -540.99451 4294967295
602.21558 2724.5879 -540.82294 4294967295
584.32727 2729.4819 -540.83453 4294967295
586.37061 2729.105 -540.651 4294967295
593.84546 2729.4307 -540.91675 4294967295
596.6264 2729.5715 -540.92218 4294967295
598.79333 2729.0435 -540.77838 4294967295
599.91071 2728.5366 -540.73792 4294967295
601.22351 2727.4404 -540.77216 4294967295
582.65051 2730.4409 -540.77905 4294967295
584.3269 2729.7366 -539.12878 4294967295
585.4718 2729.2214 -539.09027 4294967295
588.80432 2729.1997 -539.23767 4294967295
591.21259 2729.3347 -539.43262 4294967295
599.19647 2689.1697 -538.50409 4294967295
599.74689 2691.0994 -538.44983 4294967295
601.66388 2721.2722 -538.81885 4294967295
601.84491 2726.1079 -538.95923 4294967295
602.18427 2724.4795 -538.89569 4294967295
593.58234 2729.5215 -538.27124 4294967295
598.64868 2729.1646 -538.72894 4294967295
599.96521 2728.5818 -538.59991 4294967295
581.56616 2732.1265 -538.9444 4294967295
581.25311 2733.8391 -538.56995 4294967295
601.91034 2725.4761 -537.27277 4294967295
596.55841 2729.7 -537.03021 4294967295
598.84247 2729.1252 -537.06158 4294967295
581.37103 2733.4856 -537.02612 4294967295
597.72217 2687.4246 -536.92877 4294967295
599.03125 2688.7969 -536.57996 4294967295
599.85498 2692.7446 -536.76355 4294967295
601.66266 2721.5034 -536.81281 4294967295
585.4137 2729.2739 -536.53619 4294967295
588.74847 2729.196 -536.8501 4294967295
599.9682 2728.7773 -536.84192 4294967295
601.18573 2727.6497 -536.802 4294967295
582.43933 2730.7646 -536.54999 4294967295
581.85254 2732.4768 -535.02087 4294967295
596.651 2687.0144 -534.83942 4294967295
598.93579 2688.6658 -534.52252 4294967295
599.42212 2689.6094 -534.95667 4294967295
599.8634 2691.9456 -534.82147 4294967295
601.96075 2724.7136 -534.87402 4294967295
585.29767 2729.3484 -534.81097 4294967295
589.00067 2729.3357 -534.72931 4294967295
596.67828 2729.5994 -534.85907 4294967295
598.7915 2729.1677 -534.89752 4294967295
599.79724 2728.7334 -534.9104 4294967295
601.60876 2727.2388 -534.97095 4294967295
583.12433 2730.271 -534.91705 4294967295
597.81396 2687.533 -533.32678 4294967295
598.92755 2688.625 -533.05914 4294967295
599.68805 2690.7329 -533.21722 4294967295
588.51563 2729.3176 -533.04926 4294967295
599.93225 2728.8313 -533.11731 4294967295
582.75323 2730.7261 -533.14313 4294967295
595.74493 2686.9551 -532.92767 4294967295
599.79889 2694.8931 -532.84521 4294967295
601.63849 2721.5933 -532.99463 4294967295
602.0141 2724.7605 -532.84314 4294967295
585.34021 2729.4565 -532.86731 4294967295
596.68604 2729.7578 -532.97314 4294967295
601.63196 2727.3999 -532.45264 4294967295
581.83569 2732.4409 -532.53198 4294967295
601.63599 2721.6162 -531.12018 4294967295
602.01202 2724.8418 -531.03503 4294967295
598.60834 2729.3162 -531.02545 4294967295
595.11047 2686.8176 -530.80042 4294967295
596.56439 2687.125 -530.81183 4294967295
599.40155 2689.543 -530.98932 4294967295
599.84412 2691.5532 -530.98633 4294967295
601.16809 2719.092 -530.78156 4294967295
585.30756 2729.6375 -530.83099 4294967295
588.76532 2729.374 -530.59021 4294967295
593.65717 2729.5728 -530.87506 4294967295
596.80109 2729.7979 -530.79919 4294967295
601.66779 2727.1829 -530.9491 4294967295
582.79657 2731.031 -530.87695 4294967295
596.62012 2687.1843 -529.54852 4294967295
598.8028 2688.3945 -529.03467 4294967295
601.92133 2726.1714 -529.11279 4294967295
588.58252 2729.439 -529.01782 4294967295
596.57263 2729.8569 -529.04407 4294967295
582.10034 2732.6812 -529.08948 4294967295
593.04633 2687.1067 -528.77307 4294967295
598.13751 2687.8066 -528.31165 4294967295
599.68451 2690.2676 -528.58801 4294967295
601.62885 2721.6697 -528.72607 4294967295
602.0036 2724.738 -528.98053 4294967295
586.19257 2729.6155 -528.69128 4294967295
593.72205 2729.6902 -528.73248 4294967295
598.96118 2729.2349 -528.8634 4294967295
600.43567 2728.5859 -528.74506 4294967295
583.58038 2730.6819 -528.81641 4294967295
581.73779 2736.0952 -528.7395 4294967295
595.10791 2686.9683 -527.02966 4294967295
601.1795 2718.449 -527.1499 4294967295
598.43304 2729.3826 -527.23151 4294967295
597.69501 2687.6765 -526.78003 4294967295
599.83606 2692.7441 -526.54053 4294967295
600.60028 2710.98 -526.63202 4294967295
600.7569 2713.229 -526.23462 4294967295
600.97504 2715.9224 -526.28088 4294967295
601.5672 2721.3936 -526.94958 4294967295
586.49768 2729.6497 -526.8313 4294967295
591.48993 2729.6538 -526.78162 4294967295
593.31628 2729.6904 -526.96503 4294967295
596.62988 2729.9275 -526.80725 4294967295
601.5954 2727.4468 -526.92719 4294967295
582.40088 2732.5364 -526.92578 4294967295
583.79657 2730.8564 -526.77069 4294967295
581.71381 2735.522 -526.83698 4294967295
593.97382 2687.1233 -525.04333 4294967295
597.43842 2687.6353 -525.24573 4294967295
600.60168 2709.9197 -525.15204 4294967295
591.28467 2729.697 -525.0033 4294967295
582.51843 2732.6055 -525.26868 4294967295
597.16022 2687.571 -524.30389 4294967295
599.32068 2689.9343 -524.85742 4294967295
600.76453 2711.7227 -524.33069 4294967295
600.89819 2714.1091 -524.64386 4294967295
601.35602 2719.0654 -524.81549 4294967295
588.5979 2729.4348 -524.79431 4294967295
593.55743 2729.8281 -524.98669 4294967295
596.26367 2729.9929 -524.92511 4294967295
598.6391 2729.5039 -524.76398 4294967295
600.3634 2728.519 -524.95636 4294967295
583.49658 2731.3179 -524.8739 4294967295
584.90662 2730.321 -524.95361 4294967295
582.00018 2734.0393 -524.94037 4294967295
598.14563 2689.2114 -523.19489 4294967295
599.41785 2691.9934 -523.73724 4294967295
600.69897 2709.4832 -523.49445 4294967295
601.15552 2716.075 -523.53198 4294967295
592.72198 2687.3228 -522.84119 4294967295
596.65411 2687.4968 -522.99445 4294967295
600.6095 2707.1604 -522.94794 4294967295
601.01147 2713.6807 -522.83881 4294967295
588.65393 2729.5095 -522.82196 4294967295
593.58929 2729.897 -522.68762 4294967295
600.23322 2728.5127 -522.93329 4294967295
584.51367 2730.6677 -522.72998 4294967295
596.4245 2730.0601 -522.63794 4294967295
582.07916 2733.7529 -522.85596 4294967295
596.12244 2687.406 -521.47546 4294967295
597.46167 2688.6965 -521.24078 4294967295
599.69537 2693.8999 -521.43689 4294967295
600.17902 2698.8557 -521.771 4294967295
600.57092 2705.0134 -521.92023 4294967295
600.84253 2708.936 -521.45227 4294967295
601.01788 2711.5249 -521.34534 4294967295
601.49896 2718.4316 -521.92603 4294967295
586.30347 2729.8875 -521.08887 4294967295
596.11517 2687.4749 -520.26117 4294967295
598.91125 2691.1611 -520.3656 4294967295
599.9881 2695.8999 -520.51624 4294967295
600.37067 2699.8254 -520.1449 4294967295
600.81635 2706.9692 -520.52014 4294967295
601.34283 2715.0562 -520.71149 4294967295
591.16412 2729.8474 -520.94867 4294967295
593.76727 2729.9956 -520.75677 4294967295
598.66028 2729.5754 -520.76709 4294967295
583.58545 2731.386 -520.77374 4294967295
596.22644 2730.1038 -520.81909 4294967295
582.12299 2733.7561 -520.86719 4294967295
597.79987 2689.2625 -519.50702 4294967295
600.73651 2704.4128 -519.71033 4294967295
601.08606 2709.4451 -519.3045 4294967295
601.73413 2717.6904 -519.30908 4294967295
588.45721 2729.6597 -519.01917 4294967295
598.45825 2690.334 -518.10712 4294967295
599.7981 2694.2468 -518.34674 4294967295
600.39197 2698.6514 -518.35803 4294967295
601.03943 2706.8123 -518.0802 4294967295
601.63287 2715.2019 -518.07428 4294967295
586.34467 2729.981 -518.75421 4294967295
591.52972 2729.9426 -518.93036 4294967295
583.08734 2731.9812 -518.83539 4294967295
596.849 2730.1299 -518.70612 4294967295
581.93719 2734.917 -518.51422 4294967295
582.24286 2733.5615 -518.86975 4294967295
594.62274 2687.3269 -517.40979 4294967295
597.07806 2688.8916 -517.58325 4294967295
599.18225 2691.8706 -517.68573 4294967295
600.91888 2703.8938 -517.17126 4294967295
602.09332 2719.2634 -517.57623 4294967295
599.4079 2729.1936 -517.09625 4294967295
596.10248 2730.228 -517.16266 4294967295
599.53241 2693.0105 -516.2511 4294967295
599.90393 2694.3303 -516.04468 4294967295
600.53064 2698.6584 -516.10516 4294967295
600.76001 2701.127 -516.42737 4294967295
588.58752 2729.8047 -516.4812 4294967295
583.16608 2731.9729 -516.89783 4294967295
584.948 2730.6436 -516.88751 4294967295
593.74817 2730.1536 -516.91901 4294967295
582.01044 2735.5439 -516.65228 4294967295
582.47754 2738.0847 -516.76849 4294967295
598.5437 2690.8838 -515.33417 4294967295
600.20068 2696.0984 -515.73212 4294967295
602.13452 2717.6506 -515.91528 4294967295
602.33624 2720.3811 -515.19965 4294967295
586.29169 2730.2227 -515.05493 4294967295
591.35303 2730.146 -515.14276 4294967295
582.03253 2735.6433 -515.13501 4294967295
596.27747 2688.562 -514.86176 4294967295
600.74225 2699.9395 -514.01135 4294967295
588.62665 2729.9238 -514.51788 4294967295
583.34424 2731.9575 -514.89056 4294967295
596.80206 2730.3391 -514.11963 4294967295
582.26453 2733.7024 -514.84717 4294967295
599.76672 2693.874 -513.82825 4294967295
600.26599 2696.1184 -513.19592 4294967295
600.48871 2697.6577 -513.98822 4294967295
602.38898 2722.2241 -513.31592 4294967295
600.69922 2727.2292 -513.24127 4294967295
584.9173 2730.9211 -513.15961 4294967295
596.33783 2730.4231 -513.05188 4294967295
598.02771 2689.7402 -512.69263 4294967295
602.20148 2717.0764 -512.67853 4294967295
602.40472 2719.8254 -512.23987 4294967295
598.81854 2729.9028 -512.58667 4294967295
593.71741 2730.3423 -512.91711 4294967295
597.43872 2688.3228 -511.04379 4294967295
599.07172 2691.5327 -511.68109 4294967295
600.1604 2695.4119 -511.73163 4294967295
600.5423 2697.8914 -511.1889 4294967295
600.94122 2701.6672 -511.98224 4294967295
602.33716 2722.5818 -511.12225 4294967295
582.49707 2733.5142 -511.03781 4294967295
598.42432 2689.8406 -510.62448 4294967295
599.81714 2693.7881 -510.89896 4294967295
600.19751 2695.4832 -510.09134 4294967295
602.1308 2717.6523 -510.09302 4294967295
601.90686 2724.9333 -510.42804 4294967295
601.51654 2727.0935 -510.19046 4294967295
593.67651 2730.3882 -510.94617 4294967295
596.8125 2730.5754 -510.71213 4294967295
596.32697 2687.9663 -509.28845 4294967295
598.9458 2690.7009 -509.10925 4294967295
599.47705 2692.3906 -509.47025 4294967295
600.83063 2700.6421 -509.45419 4294967295
602.22504 2723.1536 -509.44684 4294967295
598.44562 2689.1724 -508.71185 4294967295
599.91199 2694.0417 -508.77481 4294967295
600.29993 2696.2114 -508.22586 4294967295
600.59351 2698.499 -508.51089 4294967295
602.19519 2720.8992 -508.67505 4294967295
601.81738 2725.9629 -508.81546 4294967295
600.5307 2729.0479 -508.83682 4294967295
601.61218 2727.2837 -508.80518 4294967295
596.74524 2730.6863 -508.96164 4294967295
598.51563 2730.1787 -508.80457 4294967295
594.17859 2687.6113 -507.98853 4294967295
597.28864 2688.3799 -507.42422 4294967295
598.63898 2689.4819 -507.34113 4294967295
599.42432 2692.0823 -507.04276 4294967295
599.96069 2694.3 -507.04404 4294967295
601.81342 2726.3499 -507.06775 4294967295
602.03857 2724.0476 -507.58789 4294967295
601.67554 2727.4551 -507.00095 4294967295
596.37445 2730.7522 -507.12634 4294967295
598.41412 2730.2742 -507.27634 4294967295
596.78192 2688.0371 -506.59546 4294967295
600.15216 2695.6165 -506.04764 4294967295
600.43982 2698.1108 -506.17511 4294967295
601.8252 2717.8259 -506.90775 4294967295
601.99481 2721.9573 -506.15048 4294967295
601.1095 2728.656 -506.74454 4294967295
598.38733 2689.1733 -505.13974 4294967295
599.79224 2693.7676 -505.23761 4294967295
600.65308 2701.1033 -505.63303 4294967295
600.99011 2706.9153 -505.61304 4294967295
601.18567 2709.9678 -505.93777 4294967295
601.34119 2712.707 -505.89679 4294967295
601.8736 2720.0654 -505.85529 4294967295
601.9386 2723.4058 -505.0564 4294967295
601.90851 2725.4128 -505.15295 4294967295
601.67908 2727.8149 -505.11322 4294967295
596.45056 2730.7886 -505.27563 4294967295
598.7171 2730.2915 -505.31113 4294967295
599.06177 2690.3635 -504.87946 4294967295
599.3717 2691.9111 -504.67307 4294967295
600.94873 2729.0637 -504.81656 4294967295
598.87115 2690.5156 -503.13617 4294967295
599.53888 2692.9441 -503.14722 4294967295
600.03717 2695.9827 -503.52606 4294967295
600.35138 2699.7388 -503.39417 4294967295
600.56287 2702.3918 -503.79776 4294967295
600.85504 2708.5857 -503.45093 4294967295
601.5318 2718.3657 -503.97247 4294967295
601.73096 2721.2961 -503.6463 4294967295
601.96362 2726.4507 -503.35083 4294967295
600.0733 2729.9912 -503.03052 4294967295
597.88306 2688.437 -502.60928 4294967295
600.3764 2702.1912 -502.10498 4294967295
600.59106 2705.0854 -502.65527 4294967295
601.18475 2716.5879 -502.04266 4294967295
601.8595 2724.2053 -502.85559 4294967295
601.6355 2728.3677 -502.74548 4294967295
596.52911 2730.8203 -502.71649 4294967295
582.22687 2733.7351 -502.84808 4294967295
599.69403 2694.0212 -501.51407 4294967295
600.07648 2697.8848 -501.46909 4294967295
600.75995 2710.5283 -501.57462 4294967295
600.94543 2713.6633 -501.55191 4294967295
601.89459 2726.531 -501.44092 4294967295
585.13196 2731.2957 -501.0079 4294967295
598.50702 2689.3137 -500.76416 4294967295
599.14996 2691.4609 -500.84958 4294967295
599.88531 2695.8315 -500.89136 4294967295
600.25671 2703.2393 -500.30804 4294967295
600.56213 2707.906 -500.95322 4294967295
601.32214 2719.1675 -500.93481 4294967295
601.63971 2722.1689 -500.94208 4294967295
601.88403 2724.3142 -500.59299 4294967295
601.29504 2728.9861 -500.87921 4294967295
582.98633 2732.5764 -500.80206 4294967295
596.42627 2730.8865 -500.8602 4294967295
600.12616 2730.0894 -500.9744 4294967295
598.38794 2688.9163 -499.30328 4294967295
599.59418 2693.7058 -499.23294 4294967295
600.32928 2705.6587 -499.73508 4294967295
600.59955 2710.8936 -499.62311 4294967295
601.42487 2720.9897 -499.00824 4294967295
596.33179 2730.9993 -499.08362 4294967295
599.15204 2690.6052 -498.93988 4294967295
599.90302 2698.2839 -498.64771 4294967295
600.02966 2701.9023 -498.3941 4294967295
600.1283 2704.0449 -498.38437 4294967295
600.3479 2707.8369 -498.59314 4294967295
600.51611 2711.425 -498.17218 4294967295
601.84393 2723.7722 -498.97229 4294967295
601.9798 2726.7939 -498.91953 4294967295
601.11932 2729.2581 -498.58109 4294967295
591.44031 2730.7581 -498.62265 4294967295
598.93372 2730.4814 -498.57706 4294967295
582.56451 2733.0996 -498.77155 4294967295
599.70337 2694.6768 -497.017 4294967295
600.15118 2705.8528 -497.41962 4294967295
600.37067 2709.7827 -497.40771 4294967295
600.63953 2713.6707 -497.48233 4294967295
596.58057 2731.0884 -497.18259 4294967295
598.67297 2730.6289 -497.4245 4294967295
600.26947 2730.1052 -497.117 4294967295
582.16083 2733.7788 -497.03159 4294967295
598.6181 2689.5691 -496.09879 4294967295
599.47638 2691.6719 -496.93387 4294967295
599.84698 2700.1982 -496.37973 4294967295
599.9585 2703.5789 -496.07068 4294967295
600.20233 2707.9021 -496.36514 4294967295
600.42438 2711.5073 -496.38925 4294967295
601.9234 2726.6475 -496.74222 4294967295
601.909 2727.9722 -496.96259 4294967295
586.38623 2730.9094 -496.72058 4294967295
593.48718 2730.894 -496.97589 4294967295
599.3103 2691.2593 -495.45367 4294967295
599.75549 2696.9902 -495.50574 4294967295
600.04907 2706.0757 -495.32986 4294967295
600.27002 2709.9297 -495.21289 4294967295
596.34686 2731.1626 -495.02106 4294967295
600.03876 2730.2881 -495.16147 4294967295
599.7804 2693.7827 -494.71124 4294967295
599.80743 2702.0757 -494.18091 4294967295
600.10645 2707.8892 -494.13501 4294967295
601.76654 2723.8223 -494.8335 4294967295
601.26294 2729.0837 -494.85953 4294967295
591.37878 2730.9336 -494.8613 4294967295
593.68079 2731.0352 -494.63397 4294967295
598.95087 2730.6411 -494.93146 4294967295
599.01178 2690.6606 -493.32892 4294967295
599.7287 2699.5098 -493.62195 4294967295
600.2027 2709.8337 -493.16211 4294967295
600.40192 2712.425 -493.55124 4294967295
583.12213 2732.5537 -493.05515 4294967295
586.35339 2731.0415 -493.02399 4294967295
593.50409 2731.1079 -493.14581 4294967295
599.65961 2693.9597 -492.87564 4294967295
599.69055 2696.3804 -492.77231 4294967295
599.91656 2705.1111 -492.70755 4294967295
601.87842 2726.656 -492.69122 4294967295
596.61627 2731.24 -492.99738 4294967295
600.08759 2730.3379 -492.80899 4294967295
582.0838 2734.1936 -492.97479 4294967295
599.67157 2693.947 -491.40091 4294967295
600.07208 2708.1375 -491.90253 4294967295
583.12451 2732.8208 -491.20728 4294967295
599.03943 2690.8635 -490.87704 4294967295
599.98126 2706.8875 -490.8653 4294967295
601.17773 2729.2878 -490.80151 4294967295
598.84149 2730.7876 -490.76187 4294967295
600.04187 2708.0151 -489.67743 4294967295
601.6134 2723.676 -489.22183 4294967295
601.85516 2726.6455 -489.36365 4294967295
601.19489 2729.4771 -489.06766 4294967295
582.73163 2733.3591 -489.17227 4294967295
599.69739 2693.8303 -488.38962 4294967295
593.53436 2731.2505 -488.7623 4294967295
596.65173 2731.3457 -488.89401 4294967295
598.85724 2730.8733 -488.96353 4294967295
601.31726 2729.1409 -487.46954 4294967295
582.16394 2734.1917 -487.37677 4294967295
601.77148 2725.3979 -486.75116 4294967295
596.62671 2731.4214 -486.91281 4294967295
598.80963 2730.946 -486.92798 4294967295
601.16296 2729.5415 -485.12033 4294967295
583.32104 2732.9922 -485.13824 4294967295
599.0556 2690.7209 -484.75189 4294967295
601.87018 2726.5066 -484.90857 4294967295
601.76636 2728.074 -484.87631 4294967295
589.20868 2731.1228 -484.43561 4294967295
596.65363 2731.4216 -484.81259 4294967295
599.93262 2730.5181 -484.98969 4294967295
599.737 2693.7834 -483.02405 4294967295
596.67682 2731.4543 -483.0752 4294967295
599.5647 2730.7656 -483.32141 4294967295
601.88971 2726.8345 -482.75571 4294967295
601.38916 2729.374 -482.74844 4294967295
585.1178 2732.0229 -482.66504 4294967295
597.703 2689.324 -481.40216 4294967295
598.89789 2690.7722 -481.16037 4294967295
595.59863 2688.7068 -480.36136 4294967295
599.35522 2691.8235 -480.75006 4294967295
601.86377 2728.1326 -480.59863 4294967295
597.30499 2731.5498 -480.81479 4294967295
599.92853 2730.5554 -480.69415 4294967295
596.66101 2688.9392 -479.62192 4294967295
601.22046 2729.7996 -479.20877 4294967295
596.49432 2731.5496 -479.31735 4294967295
599.29779 2730.8943 -479.15161 4294967295
594.39142 2688.7341 -478.91248 4294967295
598.81458 2690.9458 -478.854 4294967295
602.00244 2727.7915 -478.76746 4294967295
595.04291 2688.915 -477.00391 4294967295
598.65631 2690.9392 -477.22266 4294967295
599.11969 2691.876 -477.58838 4294967295
591.16248 2731.4236 -477.04086 4294967295
599.8692 2730.8013 -477.15421 4294967295
597.53149 2689.9167 -476.90958 4294967295
601.99481 2726.6667 -476.96793 4294967295
601.69727 2729.0093 -476.74582 4294967295
593.59674 2731.6382 -476.63788 4294967295
596.47552 2731.7429 -476.98105 4294967295
598.78699 2731.1653 -476.91467 4294967295
596.30237 2689.448 -475.30371 4294967295
599.13141 2692.1165 -475.20779 4294967295
602.03662 2728.3132 -475.10825 4294967295
599.44922 2730.9902 -475.25476 4294967295
601.96747 2726.9436 -474.97971 4294967295
593.8996 2731.6724 -474.84909 4294967295
596.67615 2731.8254 -474.90845 4294967295
601.05554 2730.1069 -474.67673 4294967295
593.25226 2689.0771 -473.0864 4294967295
598.4834 2691.0469 -473.57544 4294967295
601.75067 2729.449 -473.39444 4294967295
599.31799 2693.0361 -472.55475 4294967295
601.59259 2723.8035 -472.98981 4294967295
602.01788 2726.8894 -472.73557 4294967295
601.59717 2729.2407 -472.67273 4294967295
596.62494 2731.9446 -472.78235 4294967295
599.22144 2731.2222 -472.85202 4294967295
600.49731 2730.7124 -472.97681 4294967295
602.02209 2728.5659 -471.08994 4294967295
591.17816 2731.7075 -471.2048 4294967295
593.36414 2731.8894 -471.10883 4294967295
596.26172 2732.0811 -470.36356 4294967295
598.99701 2731.4604 -470.29633 4294967295
599.89203 2731.144 -470.83478 4294967295
601.06305 2730.1792 -470.72391 4294967295
602.07196 2728.2981 -469.06866 4294967295
593.00708 2731.7781 -469.73541 4294967295
601.97235 2726.8694 -468.68683 4294967295
597.28766 2731.9868 -468.01553 4294967295
598.83282 2731.5725 -468.88873 4294967295
600.58087 2730.7322 -468.81519 4294967295
601.23389 2729.9426 -467.6322 4294967295
601.65833 2729.1528 -466.98294 4294967295
593.92682 2732.021 -466.25653 4294967295
596.71472 2732.1677 -466.6683 4294967295
598.70032 2731.6487 -466.67175 4294967295
601.85779 2728.137 -465.33615 4294967295
601.48395 2723.6821 -464.67914 4294967295
601.88837 2726.5313 -464.99115 4294967295
585.28943 2732.5908 -464.8353 4294967295
598.61713 2731.6147 -464.9285 4294967295
600.40936 2730.7625 -464.97235 4294967295
583.61169 2733.4189 -464.46622 4294967295
601.83887 2728.1704 -463.11038 4294967295
588.86743 2731.7388 -463.16052 4294967295
601.89093 2726.821 -462.52286 4294967295
601.79108 2728.7974 -462.83725 4294967295
584.91962 2732.7344 -462.84344 4294967295
586.8576 2732.0098 -462.94067 4294967295
596.49628 2732.1428 -462.8591 4294967295
598.62311 2731.6304 -462.65054 4294967295
600.23047 2730.8455 -462.90619 4294967295
601.36218 2723.6233 -461.2171 4294967295
601.81769 2728.1301 -461.16037 4294967295
599.58691 2731.2605 -461.09241 4294967295
582.87 2734.1418 -461.87952 4294967295
601.84668 2726.9319 -460.72284 4294967295
585.18329 2732.6934 -460.54764 4294967295
596.70935 2732.3032 -460.74561 4294967295
598.685 2731.5674 -460.88702 4294967295
600.87854 2730.2268 -460.67145 4294967295
582.47699 2734.5349 -460.68723 4294967295
598.4375 2731.7439 -459.00558 4294967295
600.47491 2730.7874 -459.2132 4294967295
601.47571 2729.2747 -458.98798 4294967295
585.19788 2732.698 -458.45892 4294967295
586.90717 2732.1982 -458.56604 4294967295
588.91064 2731.9006 -458.90308 4294967295
593.80542 2732.2556 -458.73175 4294967295
583.64606 2733.4534 -458.72073 4294967295
601.77783 2725.8633 -457.12537 4294967295
596.67712 2732.4048 -457.06107 4294967295
582.18835 2734.7666 -457.03311 4294967295
585.13562 2732.7607 -456.76743 4294967295
588.92157 2732.011 -456.88504 4294967295
598.7959 2731.6982 -456.98514 4294967295
601.09399 2730.1196 -456.91064 4294967295
582.05811 2735.1611 -456.85306 4294967295
601.79639 2726.2817 -454.71716 4294967295
601.80859 2727.9709 -454.78287 4294967295
584.91229 2732.8035 -454.9071 4294967295
586.72717 2732.418 -454.84372 4294967295
596.80798 2732.5801 -454.77829 4294967295
600.21204 2731.0623 -454.96658 4294967295
601.87543 2725.7146 -453.22958 4294967295
585.08508 2732.8574 -453.02747 4294967295
588.72784 2732.1365 -453.28491 4294967295
598.47028 2732.0464 -453.09998 4294967295
599.92041 2731.5173 -453.26489 4294967295
601.20581 2730.0786 -453.05814 4294967295
586.30939 2732.5249 -451.03046 4294967295
600.56836 2731.0308 -451.04242 4294967295
601.797 2725.7285 -450.6622 4294967295
601.65594 2728.8433 -450.69165 4294967295
596.5647 2732.6978 -450.73001 4294967295
584.14227 2733.2451 -450.8811 4294967295
591.1402 2732.4839 -449.26331 4294967295
601.97253 2728.2698 -448.8219 4294967295
588.81384 2732.3086 -448.72501 4294967295
596.42181 2732.74 -448.93417 4294967295
598.67493 2732.4688 -448.49606 4294967295
600.79779 2730.9019 -448.72806 4294967295
601.63708 2728.877 -447.26056 4294967295
593.36835 2732.6453 -447.06668 4294967295
596.63031 2732.8225 -446.72928 4294967295
598.86554 2732.2737 -446.47577 4294967295
600.36371 2731.5022 -446.79742 4294967295
596.78418 2732.885 -445.10886 4294967295
601.78949 2728.7476 -444.7464 4294967295
598.81152 2732.4092 -444.88174 4294967295
601.00275 2731.0793 -444.64365 4294967295
599.15338 2732.3271 -443.01721 4294967295
589.02429 2732.5859 -442.86884 4294967295
601.83337 2728.717 -441.00949 4294967295
586.44183 2732.9194 -441.10419 4294967295
596.47913 2732.9946 -440.96127 4294967295
598.94952 2732.4954 -440.71323 4294967295
601.15417 2731.3232 -440.98392 4294967295
585.03223 2733.2981 -440.74353 4294967295
601.7793 2728.8135 -438.68311 4294967295
586.58722 2732.9045 -438.79825 4294967295
600.00818 2732.2432 -438.92245 4294967295
601.12549 2731.3767 -438.92114 4294967295
584.7074 2733.3447 -438.78668 4294967295
596.69568 2733.0068 -438.85941 4294967295
601.77185 2728.6499 -437.43689 4294967295
586.84711 2732.8933 -436.23181 4294967295
588.76251 2732.6812 -436.88174 4294967295
599.21039 2732.5168 -436.8801 4294967295
600.99432 2731.25 -436.63626 4294967295
584.87524 2733.533 -436.6637 4294967295
596.64233 2733.0415 -436.89929 4294967295
598.64832 2732.7332 -435.21979 4294967295
596.43823 2733.1223 -435.04535 4294967295
601.7688 2728.0928 -434.67822 4294967295
588.8194 2732.7581 -434.67633 4294967295
601.54071 2730.0879 -434.80441 4294967295
585.21484 2733.4868 -434.46863 4294967295
593.68469 2733.0574 -434.85178 4294967295
596.45911 2733.238 -433.20108 4294967295
581.99689 2736.1887 -433.08194 4294967295
601.74402 2728.1323 -432.77475 4294967295
598.75818 2732.791 -432.84775 4294967295
599.79791 2732.3254 -432.8652 4294967295
600.99866 2731.2949 -432.72638 4294967295
583.17352 2734.5676 -432.96521 4294967295
586.51569 2733.0474 -432.98047 4294967295
601.74249 2728.0273 -431.08459 4294967295
598.60175 2732.8918 -431.42828 4294967295
599.67645 2732.4521 -431.13849 4294967295
596.70001 2733.3152 -431.12509 4294967295
588.92169 2732.9231 -430.96872 4294967295
601.55237 2730.0398 -430.71713 4294967295
582.92163 2735.0378 -430.64056 4294967295
584.65179 2733.7947 -430.65503 4294967295
599.61694 2732.5662 -429.12494 4294967295
601.14343 2731.1799 -429.06976 4294967295
596.34558 2733.5083 -429.12369 4294967295
581.99835 2736.2261 -429.16132 4294967295
582.29248 2736.0256 -429.22653 4294967295
601.48712 2725.489 -428.72723 4294967295
601.59729 2729.9177 -428.87637 4294967295
598.93781 2732.9014 -428.6373 4294967295
585.00134 2733.7537 -428.76849 4294967295
586.44452 2733.1262 -428.95511 4294967295
601.9068 2727.8127 -427.28674 4294967295
588.4494 2732.9512 -427.06787 4294967295
599.87781 2732.5759 -426.90375 4294967295
601.66272 2730.1035 -426.64618 4294967295
583.69659 2734.4614 -426.75876 4294967295
586.46277 2733.3013 -426.85449 4294967295
596.89923 2733.572 -426.64914 4294967295
581.729 2738.3794 -426.3541 4294967295
601.83124 2728.0618 -425.04703 4294967295
582.80188 2735.2593 -425.08768 4294967295
599.95966 2732.6882 -424.59387 4294967295
601.2713 2731.4241 -424.68161 4294967295
584.87964 2733.8906 -424.85391 4294967295
589.04034 2733.0798 -424.37735 4294967295
581.90265 2736.5637 -424.34909 4294967295
582.2417 2736.1746 -424.74655 4294967295
601.83057 2728.0254 -422.85565 4294967295
600.20959 2732.7029 -422.92661 4294967295
601.79773 2730.0068 -422.85419 4294967295
582.91022 2735.3862 -422.38965 4294967295
584.92157 2734.0117 -422.96048 4294967295
586.55347 2733.4148 -422.89148 4294967295
597.90454 2733.615 -422.75549 4294967295
581.87616 2736.5271 -422.82434 4294967295
601.84406 2728.123 -421.32242 4294967295
588.83362 2733.1833 -421.17017 4294967295
600.58972 2732.5654 -420.56613 4294967295
583.28082 2735.0823 -420.68695 4294967295
585.00854 2734.1008 -420.69333 4294967295
586.55432 2733.459 -420.80179 4294967295
597.87231 2733.698 -420.65146 4294967295
601.63171 2731.4675 -419.19113 4294967295
582.0401 2736.6587 -419.89984 4294967295
601.84857 2728.7432 -418.72195 4294967295
600.4812 2732.6799 -418.94699 4294967295
601.76196 2730.2698 -418.33395 4294967295
583.82849 2734.8477 -418.94803 4294967295
597.36414 2733.8179 -418.66867 4294967295
582.2215 2736.8472 -418.58627 4294967295
599.95538 2732.98 -417.01666 4294967295
586.45062 2733.7219 -417.03403 4294967295
597.18317 2733.9409 -417.24963 4294967295
601.8327 2728.1572 -416.94699 4294967295
601.43445 2731.2537 -416.75415 4294967295
599.93182 2733.1597 -415.202 4294967295
601.77832 2727.9375 -414.96262 4294967295
600.96765 2732.2256 -414.7309 4294967295
601.6626 2730.2568 -414.77927 4294967295
596.92859 2734.0916 -414.63773 4294967295
601.66077 2730.0789 -413.21597 4294967295
601.70642 2728.0339 -412.64771 4294967295
600.40063 2732.6033 -412.6171 4294967295
598.46222 2733.6133 -412.4212 4294967295
601.28333 2731.0969 -411.05856 4294967295
596.64001 2734.219 -411.03748 4294967295
600.00916 2732.843 -410.97006 4294967295
601.48541 2730.8501 -409.0834 4294967295
596.6463 2734.2993 -409.05966 4294967295
598.61139 2733.7866 -409.07632 4294967295
600.25647 2732.7139 -406.8248 4294967295
601.41614 2730.6475 -406.90134 4294967295
596.7738 2734.3562 -406.70715 4294967295
601.38855 2731.3352 -405.02032 4294967295
595.84393 2734.3918 -405.59586 4294967295
601.66205 2728.0535 -404.97995 4294967295
600.10529 2732.9119 -404.89615 4294967295
598.70636 2733.7427 -404.66153 4294967295
601.67523 2728.0254 -403.3786 4294967295
601.58099 2730.1335 -403.21054 4294967295
600.29663 2732.9182 -402.63943 4294967295
601.29028 2731.3557 -402.73944 4294967295
596.78955 2734.5198 -402.59705 4294967295
601.61414 2727.9231 -401.15744 4294967295
601.44861 2731.0073 -400.76108 4294967295
585.46704 2734.5798 -400.8595 4294967295
591.38159 2734.3376 -400.76422 4294967295
593.62622 2734.4272 -400.66336 4294967295
596.41571 2734.6006 -400.98721 4294967295
598.44788 2734.0881 -400.95987 4294967295
600.33673 2733.0928 -400.92371 4294967295
601.64874 2728.1206 -398.63669 4294967295
600.86432 2732.9258 -398.47559 4294967295
601.59729 2730.7126 -398.6647 4294967295
593.48779 2734.4644 -398.95172 4294967295
596.73682 2734.6899 -398.98279 4294967295
601.61115 2730.9097 -397.03897 4294967295
599.71808 2733.9141 -397.25986 4294967295
601.66779 2727.9966 -396.70734 4294967295
601.05981 2732.6147 -396.52032 4294967295
597.38141 2734.5376 -396.91 4294967295
601.68219 2727.9768 -395.45358 4294967295
584.3064 2735.228 -395.00934 4294967295
601.46771 2731.9348 -394.62921 4294967295
596.8299 2734.8286 -394.78445 4294967295
598.62817 2734.3997 -394.996 4294967295
601.60535 2727.9287 -392.64175 4294967295
601.6922 2730.7239 -392.75543 4294967295
599.16034 2734.4514 -392.70047 4294967295
601.68146 2730.8521 -391.17487 4294967295
601.52759 2727.6978 -390.99341 4294967295
601.09259 2732.9717 -390.74078 4294967295
586.7879 2734.7385 -390.32004 4294967295
597.45618 2734.7944 -390.62506 4294967295
598.7948 2734.5266 -390.92609 4294967295
601.55524 2731.9309 -389.07944 4294967295
582.22876 2737.1282 -389.19159 4294967295
601.53156 2728.0034 -388.6944 4294967295
596.44202 2735.0061 -388.96066 4294967295
599.21362 2734.4763 -388.97369 4294967295
588.55591 2734.7175 -387.17429 4294967295
598.59436 2734.7422 -387.05786 4294967295
601.12335 2733.0408 -387.25412 4294967295
601.39185 2727.426 -386.77582 4294967295
601.64691 2730.7439 -386.72781 4294967295
596.67999 2735.2205 -386.7879 4294967295
581.9798 2737.5383 -386.4711 4294967295
601.40179 2727.6367 -385.24567 4294967295
601.86932 2730.6514 -385.04694 4294967295
585.98602 2735.0916 -385.12561 4294967295
598.83374 2734.7415 -385.00665 4294967295
599.96503 2734.1909 -385.27731 4294967295
600.91302 2724.9849 -384.63779 4294967295
583.68884 2735.8826 -384.64224 4294967295
588.94916 2734.8416 -384.72867 4294967295
582.06647 2737.6306 -384.35776 4294967295
601.39832 2727.5867 -382.84311 4294967295
601.6748 2730.1704 -382.82132 4294967295
585.02081 2735.4717 -382.7135 4294967295
596.58704 2735.3896 -382.76389 4294967295
598.82397 2734.8206 -382.83383 4294967295
600.9754 2733.3464 -382.97156 4294967295
581.97742 2737.8623 -382.92273 4294967295
582.33459 2737.0039 -382.6391 4294967295
581.85944 2740.9561 -382.81113 4294967295
601.02997 2724.8962 -380.73944 4294967295
601.41479 2727.4651 -380.58243 4294967295
601.50195 2732.1033 -380.97943 4294967295
584.78278 2735.4436 -380.98944 4294967295
581.93341 2738.8672 -380.30008 4294967295
582.02216 2737.9387 -380.85226 4294967295
583.14545 2736.3081 -380.98199 4294967295
582.75537 2736.7712 -379.7952 4294967295
601.46027 2727.3638 -378.88754 4294967295
601.57428 2732.0398 -378.67505 4294967295
584.94397 2735.7371 -378.47409 4294967295
596.93512 2735.5261 -378.80627 4294967295
600.44055 2734.1968 -378.33899 4294967295
601.3783 2733.0823 -378.64703 4294967295
582.0459 2738.3962 -378.7449 4294967295
601.50128 2727.3828 -377.04895 4294967295
596.28772 2735.5923 -377.34332 4294967295
601.5954 2732.2283 -376.9563 4294967295
600.44543 2734.3936 -376.78067 4294967295
584.23065 2736.2163 -376.84741 4294967295
600.90729 2722.8354 -375.09897 4294967295
601.138 2725.054 -375.20532 4294967295
601.82996 2732.2605 -375.03098 4294967295
596.88782 2735.7537 -375.27441 4294967295
601.328 2733.5085 -375.31287 4294967295
601.45477 2727.4514 -374.69034 4294967295
601.82349 2730.6213 -374.82404 4294967295
599.07758 2735.1536 -374.71552 4294967295
600.28003 2734.6499 -374.86105 4294967295
601.84528 2730.9871 -373.21426 4294967295
598.72687 2735.3999 -373.04202 4294967295
596.75037 2735.8264 -372.83365 4294967295
601.37427 2733.2842 -372.81512 4294967295
598.38263 2735.551 -371.43994 4294967295
599.81824 2735.1147 -371.76886 4294967295
600.89502 2734.2993 -371.37759 4294967295
601.72925 2731.3994 -370.88852 4294967295
599.80396 2735.197 -369.22275 4294967295
601.0943 2734.1633 -369.15121 4294967295
598.76056 2735.5266 -368.92844 4294967295
601.633 2732.6653 -367.01163 4294967295
601.13324 2734.4619 -364.92587 4294967295
598.92847 2735.6409 -363.30569 4294967295
601.63904 2733.9102 -362.70212 4294967295
601.5437 2732.0281 -361.11652 4294967295
600.59784 2735.2419 -361.0907 4294967295
599.42889 2735.7734 -360.57861 4294967295
601.55316 2734.0742 -360.97827 4294967295
596.4248 2736.0957 -360.7392 4294967295
582.57813 2738.8127 -359.03467 4294967295
597.7818 2736.0349 -359.11154 4294967295
600.41022 2735.5269 -358.44818 4294967295
601.69885 2733.5305 -358.96182 4294967295
582.15765 2739.8103 -358.53152 4294967295
601.07416 2735.0488 -357.08386 4294967295
598.41974 2736.0522 -357.03851 4294967295
601.56726 2731.2097 -356.53268 4294967295
601.64691 2733.9343 -356.77847 4294967295
583.01819 2738.3245 -356.89505 4294967295
582.09656 2740.0291 -356.73962 4294967295
601.73645 2732.043 -355.06262 4294967295
601.57361 2733.824 -355.16449 4294967295
583.05237 2738.3213 -355.09009 4294967295
598.25305 2736.2554 -355.01212 4294967295
599.56689 2736.1338 -354.85593 4294967295
582.0567 2739.9412 -354.6449 4294967295
601.7594 2730.6792 -353.03204 4294967295
601.85107 2733.1077 -353.16705 4294967295
582.03479 2739.854 -353.17526 4294967295
600.78003 2735.6636 -352.69916 4294967295
586.17145 2736.5732 -352.70157 4294967295
597.89221 2736.47 -352.87531 4294967295
582.12158 2739.5198 -352.77921 4294967295
600.99072 2735.5669 -351.09067 4294967295
601.67694 2734.167 -351.23553 4294967295
601.57764 2729.8079 -350.78772 4294967295
601.70233 2732.9775 -350.6405 4294967295
582.5224 2738.5776 -350.99008 4294967295
597.34552 2736.8145 -350.94864 4294967295
582.03589 2739.644 -350.75391 4294967295
601.5965 2733.9973 -349.11084 4294967295
600.0813 2736.3657 -349.23468 4294967295
601.71118 2732.6396 -348.76404 4294967295
601.00726 2735.7422 -348.56018 4294967295
584.39526 2737.3926 -348.86276 4294967295
597.3725 2736.9595 -348.74954 4294967295
581.9884 2739.573 -348.99915 4294967295
601.7229 2732.782 -347.03201 4294967295
601.58179 2734.1929 -347.06003 4294967295
601.45398 2729.6226 -346.87659 4294967295
600.85272 2735.9453 -346.85269 4294967295
593.65948 2737.0295 -346.88254 4294967295
596.85767 2737.1467 -346.65274 4294967295
599.1947 2736.7039 -346.83676 4294967295
601.34155 2729.1958 -345.13345 4294967295
596.59918 2737.2034 -345.03891 4294967295
601.71954 2732.7153 -344.91782 4294967295
601.56897 2734.2373 -344.81161 4294967295
593.90125 2737.0701 -344.9079 4294967295
599.73383 2736.554 -344.9563 4294967295
601.37061 2729.4727 -342.53424 4294967295
601.73529 2732.4929 -342.80722 4294967295
601.07623 2735.5227 -342.94061 4294967295
586.31616 2737.033 -342.95706 4294967295
596.80408 2737.4619 -342.93738 4294967295
598.75586 2737.0017 -342.93192 4294967295
601.42218 2729.7217 -341.11237 4294967295
601.71454 2732.7727 -341.07291 4294967295
600.85681 2736.0898 -341.06046 4294967295
601.76685 2734.2332 -340.6908 4294967295
584.46454 2737.6521 -340.94653 4294967295
591.37579 2737.0227 -340.84122 4294967295
596.55823 2737.4185 -340.94806 4294967295
601.22742 2735.2061 -339.07489 4294967295
596.62244 2737.4497 -339.15237 4294967295
601.44025 2729.8669 -338.7265 4294967295
601.70288 2732.6548 -338.96021 4294967295
584.68726 2737.8428 -338.58511 4294967295
586.04639 2737.2051 -338.75882 4294967295
600.4917 2736.3564 -338.89606 4294967295
583.18945 2738.9995 -337.11728 4294967295
600.09637 2736.6094 -337.0708 4294967295
582.19269 2740.3733 -337.00217 4294967295
601.6626 2732.7842 -336.69327 4294967295
588.49542 2736.9602 -336.50986 4294967295
601.56866 2734.0547 -335.38092 4294967295
583.48999 2739.0024 -335.25418 4294967295
601.68188 2732.7068 -334.85321 4294967295
600.151 2736.5696 -334.95969 4294967295
582.46576 2740.4834 -334.47379 4294967295
600.06274 2736.5334 -333.02719 4294967295
596.66205 2737.7988 -332.89957 4294967295
601.67096 2732.085 -330.75418 4294967295
601.57489 2733.9197 -330.98166 4294967295
596.53027 2737.9326 -330.89352 4294967295
601.69153 2731.9709 -329.08594 4294967295
596.8551 2738.0322 -329.23254 4294967295
600.34473 2736.5298 -328.75085 4294967295
596.67761 2738.1785 -327.07919 4294967295
601.71735 2732.1611 -326.98935 4294967295
601.30402 2735.1824 -326.85309 4294967295
598.68127 2737.6023 -326.89166 4294967295
600.2652 2736.8386 -326.66632 4294967295
584.87946 2738.5557 -325.07135 4294967295
600.38538 2736.8628 -325.07108 4294967295
601.67224 2732.5264 -324.8446 4294967295
601.64099 2734.2622 -324.79221 4294967295
598.80133 2737.7185 -324.80173 4294967295
581.93958 2741.8154 -324.51852 4294967295
582.57294 2740.7031 -324.9325 4294967295
601.67938 2732.7275 -323.26736 4294967295
588.4455 2737.6848 -323.01819 4294967295
584.8609 2738.6733 -322.90982 4294967295
586.12927 2738.0439 -322.97739 4294967295
593.60474 2738.1436 -322.60233 4294967295
596.90222 2738.4087 -322.85498 4294967295
600.34698 2737.0891 -322.89682 4294967295
582.94464 2740.2126 -322.89554 4294967295
598.81982 2737.9507 -321.02289 4294967295
600.45734 2737.1028 -321.03711 4294967295
601.06097 2736.4094 -321.16293 4294967295
601.65967 2732.7197 -320.87958 4294967295
601.65527 2734.3809 -320.81201 4294967295
586.15112 2738.3291 -320.87903 4294967295
588.70184 2737.9045 -320.55157 4294967295
597.27557 2738.2749 -320.92319 4294967295
582.43591 2741.3662 -320.84454 4294967295
583.76221 2739.5525 -320.79971 4294967295
601.62091 2734.5603 -319.1008 4294967295
598.84259 2738.0232 -319.06186 4294967295
601.08704 2736.5972 -319.05453 4294967295
583.05115 2740.3528 -319.008 4294967295
601.64557 2732.0334 -318.92645 4294967295
588.68317 2738.032 -318.70993 4294967295
593.55164 2738.3945 -318.78543 4294967295
597.31287 2738.3594 -318.97009 4294967295
582.33545 2741.7683 -318.78104 4294967295
584.86865 2739.0261 -318.96161 4294967295
601.70319 2734.1235 -317.08856 4294967295
583.10016 2740.3389 -317.01511 4294967295
601.6004 2731.6543 -316.7749 4294967295
601.48151 2735.7776 -316.95245 4294967295
586.22906 2738.575 -316.88678 4294967295
591.198 2738.29 -316.99612 4294967295
593.61621 2738.4229 -316.88629 4294967295
596.74603 2738.6455 -316.88791 4294967295
600.68103 2737.2498 -316.81253 4294967295
584.97754 2739.1045 -316.95871 4294967295
582.37592 2742.106 -316.83591 4294967295
601.55414 2731.5715 -315.02829 4294967295
601.41296 2735.8379 -315.63037 4294967295
596.40912 2738.7207 -315.2124 4294967295
601.70715 2734.0872 -314.98221 4294967295
586.1955 2738.7109 -314.75842 4294967295
588.80701 2738.261 -314.681 4294967295
591.36548 2738.4153 -314.89517 4294967295
593.74493 2738.5239 -314.96112 4294967295
598.93799 2738.2344 -314.53931 4294967295
600.92511 2736.9482 -314.66559 4294967295
582.59912 2741.5242 -314.8345 4294967295
584.81067 2739.238 -314.78171 4294967295
601.53296 2731.6819 -313.12335 4294967295
593.63947 2738.6384 -313.04803 4294967295
597.36743 2738.5776 -313.33575 4294967295
599.94293 2737.8542 -313.09583 4294967295
601.46136 2735.8059 -312.36365 4294967295
586.34656 2738.6208 -312.69394 4294967295
588.90839 2738.342 -312.87842 4294967295
591.16016 2738.4604 -312.85364 4294967295
599.24799 2738.2131 -312.95557 4294967295
600.93396 2737.2764 -312.88083 4294967295
583.21124 2740.2739 -312.83838 4294967295
584.7774 2739.176 -312.85373 4294967295
601.633 2734.7261 -311.20993 4294967295
588.36359 2738.4031 -311.07224 4294967295
601.5 2731.7925 -310.58105 4294967295
586.06189 2738.7607 -310.84189 4294967295
591.49609 2738.5388 -310.90897 4294967295
593.2301 2738.6917 -310.38867 4294967295
597.41992 2738.7021 -310.85068 4294967295
598.97217 2738.3921 -310.68503 4294967295
582.65082 2740.77 -310.90021 4294967295
584.73303 2739.3928 -310.79034 4294967295
582.02893 2743.0593 -310.73187 4294967295
585.94464 2738.9758 -309.01093 4294967295
600.9137 2737.4214 -309.06754 4294967295
601.62378 2734.7104 -308.74884 4294967295
588.85889 2738.5254 -308.93585 4294967295
591.42542 2738.6375 -308.55807 4294967295
596.28925 2738.927 -308.64832 4294967295
599.2121 2738.3599 -308.73184 4294967295
583.00641 2740.5649 -308.79379 4294967295
582.10883 2742.9763 -308.69556 4294967295
591.32593 2738.7368 -307.04889 4294967295
601.59601 2734.8105 -306.79425 4294967295
588.62848 2738.6338 -306.9473 4294967295
593.38147 2738.9087 -306.91068 4294967295
597.26282 2738.8296 -306.81973 4294967295
583.10199 2740.4688 -306.67755 4294967295
584.19177 2739.7253 -306.91983 4294967295
601.35284 2731.4482 -305.0864 4294967295
600.88739 2737.6011 -305.05203 4294967295
582.96716 2740.7185 -305.01376 4294967295
588.86133 2738.7354 -304.97729 4294967295
591.20032 2738.8699 -304.77097 4294967295
593.77191 2738.979 -304.98172 4294967295
599.13147 2738.5637 -304.78403 4294967295
585.93524 2739.0752 -304.64185 4294967295
596.47327 2739.1448 -304.90048 4294967295
588.5993 2738.804 -303.14893 4294967295
598.93848 2738.7283 -303.00418 4294967295
593.6087 2739.0693 -303.2225 4294967295
596.68665 2739.208 -303.10278 4294967295
582.01031 2743.6323 -303.27661 4294967295
601.64441 2734.6357 -302.85361 4294967295
591.37567 2738.9758 -302.99982 4294967295
600.99579 2737.3796 -302.88531 4294967295
601.52869 2736.0903 -302.8291 4294967295
583.271 2740.6619 -302.95248 4294967295
584.49182 2739.8376 -302.96686 4294967295
586.35394 2739.1675 -302.95178 4294967295
582.30518 2742.1497 -302.84167 4294967295
598.49835 2738.9722 -301.04291 4294967295
599.78418 2738.4609 -301.00009 4294967295
601.65649 2734.8298 -300.71075 4294967295
588.51678 2738.8857 -300.733 4294967295
583.28333 2740.8452 -300.88428 4294967295
584.67175 2739.9189 -300.69775 4294967295
586.44873 2739.2534 -300.79761 4294967295
593.55237 2739.2009 -300.80136 4294967295
596.72858 2739.4302 -300.84164 4294967295
582.39197 2742.3706 -300.4718 4294967295
583.35321 2740.9387 -299.09808 4294967295
588.71307 2738.9634 -298.8927 4294967295
599.70062 2738.5354 -298.94681 4294967295
601.34418 2736.7114 -298.96344 4294967295
584.78619 2739.9636 -298.91541 4294967295
593.7168 2739.3743 -298.83728 4294967295
596.50696 2739.4099 -298.7276 4294967295
583.46631 2740.8784 -297.45093 4294967295
585.065 2739.9802 -297.12665 4294967295
586.42737 2739.4397 -297.10025 4294967295
588.59363 2739.0583 -297.00757 4294967295
582.09155 2743.7795 -297.20682 4294967295
600.24811 2738.4717 -296.77448 4294967295
601.5592 2736.1506 -296.83575 4294967295
596.62531 2739.5759 -296.86566 4294967295
598.74823 2739.0344 -296.93384 4294967295
582.38904 2742.7209 -296.93573 4294967295
585.97852 2739.4778 -295.07565 4294967295
591.36011 2739.3406 -295.09573 4294967295
596.612 2739.6504 -295.00302 4294967295
601.87457 2734.5432 -294.98367 4294967295
583.3421 2741.0334 -294.61209 4294967295
584.59113 2740.188 -294.85574 4294967295
588.87219 2739.2041 -294.6304 4294967295
593.61798 2739.5178 -294.74667 4294967295
598.85376 2739.0762 -294.96124 4294967295
582.01672 2743.7759 -294.99573 4294967295
581.91437 2746.3208 -294.58658 4294967295
601.55573 2736.24 -293.35626 4294967295
584.57709 2740.228 -293.19931 4294967295
600.29175 2738.4504 -292.67386 4294967295
583.15271 2741.177 -292.99454 4294967295
586.32159 2739.4878 -292.73352 4294967295
588.38507 2739.3008 -292.9115 4294967295
591.21674 2739.5376 -292.75854 4294967295
596.67566 2739.7607 -292.71616 4294967295
598.81439 2739.186 -292.75134 4294967295
582.27216 2742.6902 -292.948 4294967295
581.75189 2745.625 -292.9444 4294967295
582.19513 2748.1772 -292.50391 4294967295
593.61755 2739.7537 -291.15701 4294967295
596.79572 2739.856 -291.06052 4294967295
598.81909 2739.2266 -291.11356 4294967295
582.21844 2742.5381 -291.02426 4294967295
601.68396 2734.0833 -290.82932 4294967295
600.50323 2738.5081 -290.84448 4294967295
601.58191 2736.146 -290.97397 4294967295
583.01331 2741.217 -290.75714 4294967295
584.47729 2740.3079 -290.65363 4294967295
586.18439 2739.7336 -290.87347 4294967295
588.68115 2739.4705 -290.90176 4294967295
581.92615 2743.3538 -290.80725 4294967295
581.8974 2747.0532 -290.67407 4294967295
583.70166 2740.7144 -289.20715 4294967295
588.82092 2739.6492 -289.01782 4294967295
582.07764 2748.4404 -289.198 4294967295
601.72406 2734.2524 -288.70239 4294967295
600.22357 2738.6631 -288.84412 4294967295
601.61078 2736.2483 -288.88156 4294967295
585.88922 2739.7251 -288.87723 4294967295
593.45679 2739.9167 -288.8721 4294967295
596.68372 2739.99 -288.83887 4294967295
598.76379 2739.3823 -288.92624 4294967295
581.75238 2743.689 -288.71625 4294967295
581.56488 2745.6548 -288.86392 4294967295
601.29193 2737.29 -287.16568 4294967295
584.14001 2740.4973 -287.06873 4294967295
598.77563 2739.5313 -287.02451 4294967295
581.52106 2745.9631 -287.29297 4294967295
601.70087 2734.6372 -286.61118 4294967295
600.50739 2738.6855 -286.75708 4294967295
582.93036 2741.1824 -286.9451 4294967295
585.91931 2739.8638 -286.79904 4294967295
588.76886 2739.814 -286.95895 4294967295
591.39386 2739.8787 -286.77023 4294967295
596.88983 2739.947 -286.9874 4294967295
581.77106 2743.1682 -286.88159 4294967295
586.24115 2739.9216 -285.18036 4294967295
581.59991 2743.6936 -285.04645 4294967295
601.74316 2734.437 -284.91907 4294967295
601.44574 2737.5254 -284.70682 4294967295
582.82526 2741.2595 -284.85873 4294967295
583.88629 2740.636 -284.78076 4294967295
588.60419 2739.9561 -284.82333 4294967295
598.8501 2739.6062 -284.67728 4294967295
581.49426 2745.0154 -284.68137 4294967295
581.83203 2748.2014 -284.52097 4294967295
593.63965 2740.2341 -283.022 4294967295
601.94672 2734.7864 -282.98645 4294967295
601.255 2737.5237 -282.80856 4294967295
582.72711 2741.229 -282.9494 4294967295
586.00671 2740.2004 -282.55719 4294967295
589.35284 2740.1208 -282.85873 4294967295
596.87909 2740.2109 -282.96371 4294967295
600.36511 2739.0117 -282.71164 4294967295
581.54858 2743.5491 -282.68881 4294967295
581.42407 2745.1445 -282.42255 4294967295
598.75238 2739.7827 -281.16373 4294967295
581.70306 2748.3367 -281.28549 4294967295
601.30676 2737.5537 -280.6311 4294967295
582.93573 2741.2966 -280.98264 4294967295
584.08411 2740.7202 -280.8812 4294967295
586.25519 2740.1338 -280.69687 4294967295
600.29968 2739.1038 -280.83276 4294967295
581.56262 2743.8123 -280.83435 4294967295
581.45178 2743.3513 -279.01138 4294967295
601.65509 2734.1924 -278.4826 4294967295
600.34351 2738.9619 -278.89023 4294967295
601.59094 2736.2927 -278.64694 4294967295
584.11841 2740.782 -278.79816 4294967295
586.24207 2740.3135 -278.90045 4294967295
588.63098 2740.2932 -278.82864 4294967295
591.55096 2740.3923 -278.87305 4294967295
593.96527 2740.4238 -278.84024 4294967295
597.38513 2740.384 -278.90848 4294967295
581.84387 2742.1816 -278.73294 4294967295
581.26593 2745.0701 -278.94254 4294967295
600.42059 2726.8054 -277.06882 4294967295
596.83154 2740.5117 -277.14801 4294967295
