# .PCD v0.7 - Point Cloud Data file format
VERSION 0.7
FIELDS x y z rgba
SIZE 4 4 4 4
TYPE F F F U
COUNT 1 1 1 1
WIDTH 1147
HEIGHT 1
VIEWPOINT 0 0 0 1 0 0 0
POINTS 1147
DATA ascii
503.59097 2513.8394 -651.07159 4294967295
503.53873 2516.0232 -651.51044 4294967295
535.70709 2516.5706 -651.59296 4294967295
543.72278 2516.4883 -651.82172 4294967295
545.87122 2516.4673 -651.16492 4294967295
505.41949 2517.1953 -651.46997 4294967295
512.8717 2519.3064 -651.90698 4294967295
517.09186 2519.3247 -651.76636 4294967295
531.91144 2517.2251 -651.1817 4294967295
548.85809 2517.603 -651.05908 4294967295
549.7099 2519.8459 -651.90857 4294967295
549.32245 2540.6279 -651.90784 4294967295
515.25537 2543.3904 -651.82813 4294967295
517.01367 2543.1162 -651.84778 4294967295
537.61102 2542.2927 -651.05176 4294967295
542.11578 2542.2778 -651.92621 4294967295
511.44632 2545.6621 -651.55176 4294967295
509.15729 2547.5059 -651.8609 4294967295
99.524849 2574.1018 -651.21454 4294967295
103.22208 2575.5647 -651.35956 4294967295
104.82985 2576.9063 -651.6062 4294967295
507.22092 2513.915 -650.13953 4294967295
507.45544 2516.0242 -650.38361 4294967295
507.21527 2517.1785 -650.93616 4294967295
508.98999 2517.1926 -650.39209 4294967295
510.09488 2518.3596 -650.92365 4294967295
513.29749 2519.0322 -650.63855 4294967295
522.64075 2518.8049 -650.04688 4294967295
525.26959 2518.3928 -650.63916 4294967295
527.14899 2518.1035 -650.61108 4294967295
533.34814 2517.0425 -650.97046 4294967295
551.97089 2521.783 -650.94324 4294967295
551.2616 2540.6794 -650.79547 4294967295
519.16522 2543.0942 -650.64911 4294967295
521.26404 2542.9968 -650.02039 4294967295
524.89166 2542.4553 -650.04443 4294967295
529.08997 2542.0942 -650.24121 4294967295
531.39581 2542.2065 -650.75079 4294967295
533.38074 2542.2485 -650.91895 4294967295
535.62543 2542.2849 -650.99731 4294967295
546.10419 2542.0417 -650.0058 4294967295
548.03027 2541.6304 -650.09082 4294967295
95.346565 2573.8054 -650.72321 4294967295
93.924522 2574.6277 -650.5451 4294967295
101.28028 2575.1694 -650.64496 4294967295
102.10884 2576.302 -650.29431 4294967295
103.19433 2576.9424 -650.68286 4294967295
103.84208 2578.3179 -650.87891 4294967295
103.1748 2580.0068 -650.61963 4294967295
511.4404 2516.3267 -649.07983 4294967295
540.04297 2516.1975 -649.55542 4294967295
541.85278 2516.0049 -649.97327 4294967295
511.45151 2517.2839 -649.55109 4294967295
513.50116 2517.6165 -649.09412 4294967295
518.95734 2518.8638 -649.79602 4294967295
535.61298 2517.0444 -649.00897 4294967295
553.83295 2519.6853 -649.23627 4294967295
523.20837 2542.6807 -649.78528 4294967295
526.94153 2542.1736 -649.98193 4294967295
541.55792 2542.1301 -649.66559 4294967295
543.88568 2542.1428 -649.90002 4294967295
550.3631 2541.5376 -649.90106 4294967295
514.96832 2545.6362 -649.90289 4294967295
515.9873 2546.3025 -649.35132 4294967295
517.36029 2544.5437 -649.3894 4294967295
92.253662 2575.1931 -649.97162 4294967295
96.736282 2574.6382 -649.99304 4294967295
99.079453 2575.6702 -649.39655 4294967295
100.85708 2576.3281 -649.65912 4294967295
99.79792 2577.1169 -649.01221 4294967295
101.68137 2577.9912 -649.82672 4294967295
100.92222 2580.6934 -649.60388 4294967295
511.56393 2513.8503 -648.52972 4294967295
515.22296 2517.7891 -648.4314 4294967295
517.20819 2518.4285 -648.92719 4294967295
521.24341 2518.5515 -648.11261 4294967295
524.82916 2518.4497 -648.04089 4294967295
526.94189 2518.4431 -648.03546 4294967295
529.39789 2518.1003 -648.62091 4294967295
531.27588 2517.7979 -648.64996 4294967295
533.30237 2517.4619 -648.83026 4294967295
553.43689 2517.8904 -648.66479 4294967295
555.42615 2522.1536 -648.23737 4294967295
521.70862 2543.6492 -648.28021 4294967295
524.97772 2542.8308 -648.43823 4294967295
533.16052 2541.937 -648.22845 4294967295
535.46387 2542.0564 -648.76538 4294967295
537.32391 2542.0876 -648.93158 4294967295
539.72156 2542.1057 -648.91241 4294967295
517.51837 2546.9463 -648.70605 4294967295
519.53333 2544.7673 -648.34332 4294967295
91.767799 2576.0139 -648.06378 4294967295
94.426933 2575.9399 -648.40845 4294967295
96.90596 2575.9902 -648.53418 4294967295
97.900505 2577.2727 -648.28394 4294967295
99.196663 2578.8618 -648.68628 4294967295
97.350876 2582.2087 -648.02625 4294967295
98.631973 2580.9124 -648.54114 4294967295
541.55145 2516.3516 -647.42072 4294967295
543.91821 2515.9526 -647.85443 4294967295
551.78784 2515.8467 -647.224 4294967295
555.49615 2517.6885 -647.17053 4294967295
528.81549 2542.1963 -647.96899 4294967295
530.72986 2542.0125 -647.95477 4294967295
539.17365 2541.8408 -647.06995 4294967295
545.55969 2541.8911 -647.21918 4294967295
548.22961 2542.1628 -647.86859 4294967295
552.19061 2542.3337 -647.96997 4294967295
553.9726 2542.2056 -647.54657 4294967295
519.07471 2546.7485 -647.97278 4294967295
521.3443 2544.8064 -647.40277 4294967295
521.20789 2550.0237 -647.31763 4294967295
94.641838 2577.5549 -647.22217 4294967295
96.047684 2578.3621 -647.57715 4294967295
539.90753 2516.6274 -646.92517 4294967295
519.56244 2517.2524 -646.66046 4294967295
523.28131 2517.9851 -646.53015 4294967295
524.46802 2518.1899 -646.81464 4294967295
530.92072 2518.0789 -646.31915 4294967295
533.35535 2517.8066 -646.8584 4294967295
535.45367 2517.4321 -646.88623 4294967295
537.20642 2517.1296 -646.84766 4294967295
557.41089 2521.4092 -646.15735 4294967295
525.5752 2543.5186 -646.31079 4294967295
528.79297 2542.6729 -646.1731 4294967295
532.91302 2541.9341 -646.05957 4294967295
535.11096 2541.7263 -646.18835 4294967295
537.51959 2541.7698 -646.56891 4294967295
541.30298 2541.7815 -646.93799 4294967295
543.70062 2541.8577 -646.96472 4294967295
521.2406 2546.8367 -646.97137 4294967295
523.31348 2545.1348 -646.45447 4294967295
92.821739 2577.1396 -646.83759 4294967295
93.538017 2579.0615 -646.36292 4294967295
521.27753 2516.9578 -645.71375 4294967295
543.59747 2516.5002 -645.04956 4294967295
548.3172 2515.5315 -645.89374 4294967295
555.54413 2516.4729 -645.85303 4294967295
526.23242 2517.8816 -645.26111 4294967295
557.48584 2518.5562 -645.20557 4294967295
559.18463 2526.9487 -645.05878 4294967295
530.65717 2542.3779 -645.90942 4294967295
547.6756 2542.2129 -645.26086 4294967295
550.18719 2542.8923 -645.57227 4294967295
523.33112 2545.6921 -645.95221 4294967295
525.21484 2544.7207 -645.3147 4294967295
541.5202 2516.8337 -644.88702 4294967295
553.55292 2515.2192 -644.99744 4294967295
557.03156 2516.9338 -644.33936 4294967295
529.1684 2518.1045 -644.47198 4294967295
531.04578 2518.0847 -644.09424 4294967295
532.79529 2518.0864 -644.25134 4294967295
534.91815 2517.9805 -644.46198 4294967295
537.33014 2517.4932 -644.75452 4294967295
539.30573 2517.2107 -644.90344 4294967295
558.75897 2520.2576 -644.6037 4294967295
559.66595 2522.2393 -644.23303 4294967295
559.41974 2524.303 -644.70819 4294967295
530.81305 2542.6265 -644.35321 4294967295
536.77716 2541.5325 -644.23804 4294967295
539.17285 2541.489 -644.38635 4294967295
525.33606 2546.7581 -644.73254 4294967295
543.30475 2516.8562 -643.0517 4294967295
552.08618 2514.9255 -643.79669 4294967295
554.16132 2514.7744 -643.22681 4294967295
555.98309 2515.761 -643.49036 4294967295
557.18274 2516.2263 -643.20605 4294967295
558.6911 2518.2883 -643.55847 4294967295
559.84698 2519.6536 -643.22211 4294967295
560.39471 2521.4102 -643.34686 4294967295
560.86334 2524.4307 -643.32227 4294967295
529.44983 2543.7188 -643.51581 4294967295
534.7865 2541.7817 -643.87164 4294967295
527.1048 2546.0591 -643.82166 4294967295
527.43225 2516.7537 -642.55927 4294967295
545.42377 2516.4424 -642.64075 4294967295
530.52557 2517.738 -642.69708 4294967295
534.93066 2518.2041 -642.17151 4294967295
537.00781 2518.0415 -642.07593 4294967295
538.88647 2517.6001 -642.80615 4294967295
541.44043 2517.2334 -642.73425 4294967295
561.28088 2521.54 -642.33691 4294967295
562.15649 2524.8984 -642.07281 4294967295
561.63733 2533.2795 -642.98334 4294967295
561.91742 2536.9854 -642.29712 4294967295
561.065 2539.5508 -642.20953 4294967295
531.69574 2543.2737 -642.48621 4294967295
533.2691 2542.6292 -642.57599 4294967295
559.35522 2541.646 -642.4436 4294967295
529.23914 2545.499 -642.31763 4294967295
529.66113 2516.71 -641.13068 4294967295
547.86523 2515.948 -641.12592 4294967295
549.53918 2515.4885 -641.22961 4294967295
552.45386 2514.6902 -641.78839 4294967295
555.7959 2515.0046 -641.03583 4294967295
558.29517 2516.5217 -641.83813 4294967295
530.95386 2517.3325 -641.20038 4294967295
533.14349 2517.9758 -641.99194 4294967295
560.17157 2518.5964 -641.95441 4294967295
562.58997 2522.1143 -641.01569 4294967295
563.19147 2526.9604 -641.22241 4294967295
563.28564 2531.5647 -641.32629 4294967295
562.90137 2534.9641 -641.56512 4294967295
536.78387 2541.6938 -641.97736 4294967295
558.37207 2542.9595 -641.6377 4294967295
531.35004 2544.5598 -641.54675 4294967295
533.16418 2517.6638 -640.52332 4294967295
534.94019 2517.876 -640.09259 4294967295
536.78326 2517.9795 -640.04529 4294967295
539.07562 2517.8887 -640.01959 4294967295
541.20056 2517.6204 -640.5401 4294967295
560.63403 2517.5901 -640.30609 4294967295
562.02069 2519.48 -640.25952 4294967295
563.4743 2524.7087 -640.6806 4294967295
563.60773 2529.2478 -640.93805 4294967295
563.98016 2533.5806 -640.55115 4294967295
564.09778 2536.0989 -640.07666 4294967295
561.52838 2540.8735 -640.23712 4294967295
562.28418 2539.1545 -640.95563 4294967295
563.47223 2538.1912 -640.07745 4294967295
533.66675 2543.1892 -640.96252 4294967295
535.13062 2542.6245 -640.74554 4294967295
536.90173 2542.2456 -640.17743 4294967295
533.27338 2544.5503 -640.02301 4294967295
529.09387 2514.0908 -639.51068 4294967295
549.50586 2515.5503 -639.15125 4294967295
553.53644 2514.5801 -639.2262 4294967295
556.03363 2514.3403 -639.72552 4294967295
557.01593 2514.7891 -639.58075 4294967295
558.27747 2515.3652 -639.16858 4294967295
560.034 2516.4258 -639.38605 4294967295
533.08295 2517.0796 -639.1745 4294967295
563.81885 2521.9741 -639.53271 4294967295
564.86719 2524.468 -639.12866 4294967295
564.71198 2527.0002 -639.6828 4294967295
565.19708 2530.3293 -639.38318 4294967295
564.9433 2534.657 -639.44855 4294967295
564.47119 2537.6934 -639.16907 4294967295
563.17017 2539.9697 -639.27448 4294967295
555.56519 2543.8254 -639.47424 4294967295
557.96472 2543.2449 -639.62451 4294967295
532.9751 2546.9973 -639.47839 4294967295
535.51373 2557.8345 -639.81238 4294967295
531.67413 2516.0925 -638.88977 4294967295
545.23962 2516.8315 -638.92419 4294967295
547.67194 2516.0981 -638.79199 4294967295
551.70605 2515.019 -638.68365 4294967295
557.20142 2514.8108 -638.44958 4294967295
535.44128 2517.5146 -638.43402 4294967295
536.9079 2517.7332 -638.33881 4294967295
540.87396 2517.6978 -638.34589 4294967295
543.25812 2517.3323 -638.82703 4294967295
563.38159 2519.3848 -638.55579 4294967295
564.91553 2522.4304 -638.46204 4294967295
565.78284 2525.9626 -638.4093 4294967295
566.20587 2527.9766 -638.22467 4294967295
566.55048 2530.3013 -638.02686 4294967295
565.76208 2533.6431 -638.7179 4294967295
565.73413 2536.5356 -638.17395 4294967295
535.39691 2543.9941 -638.79419 4294967295
537.51825 2543.0061 -638.04108 4294967295
538.92761 2542.261 -638.66614 4294967295
540.74634 2542.2014 -638.19391 4294967295
543.37054 2542.3069 -638.36426 4294967295
545.44409 2542.7268 -638.61304 4294967295
547.27856 2543.2419 -638.9953 4294967295
560.07776 2542.2661 -638.81061 4294967295
561.56342 2541.7239 -638.75092 4294967295
562.60699 2541.3105 -638.24445 4294967295
553.19 2544.1282 -638.91284 4294967295
530.75848 2511.7952 -637.89661 4294967295
532.3266 2515.2085 -637.7168 4294967295
555.7019 2514.7769 -637.64069 4294967295
560.12793 2515.9377 -637.70386 4294967295
538.67267 2517.8062 -637.97174 4294967295
562.25537 2517.5117 -637.86023 4294967295
564.065 2518.9294 -637.34692 4294967295
564.63184 2520.4939 -637.84009 4294967295
566.02148 2524.1106 -637.70404 4294967295
566.94385 2526.2505 -637.10229 4294967295
566.68677 2532.3352 -637.87909 4294967295
566.50012 2537.1052 -637.21735 4294967295
563.82861 2540.7532 -637.57428 4294967295
564.81702 2539.2485 -637.88855 4294967295
555.69177 2543.5071 -637.26129 4294967295
558.12817 2543.0393 -637.40009 4294967295
561.63147 2542.1404 -637.17743 4294967295
535.12061 2546.9165 -637.84259 4294967295
551.38324 2544.1904 -637.49927 4294967295
533.02057 2512.231 -636.12628 4294967295
533.34589 2515.2175 -636.94928 4294967295
534.61603 2515.6384 -636.20905 4294967295
535.39227 2516.832 -636.98492 4294967295
545.26819 2516.8518 -636.62128 4294967295
547.07104 2516.3469 -636.8761 4294967295
549.31818 2515.7212 -636.97882 4294967295
553.3808 2514.8862 -636.98395 4294967295
558.33185 2515.2051 -636.38226 4294967295
537.58075 2517.2744 -636.38452 4294967295
538.65466 2517.4607 -636.2345 4294967295
540.521 2517.5662 -636.44055 4294967295
543.43445 2517.302 -636.68756 4294967295
564.35077 2518.2581 -636.19702 4294967295
565.39917 2519.8206 -636.36963 4294967295
565.94128 2521.9419 -636.9361 4294967295
567.60498 2528.8564 -636.75653 4294967295
567.90771 2531.5852 -636.57086 4294967295
567.60052 2534.2576 -636.69666 4294967295
567.48792 2536.7124 -636.20715 4294967295
564.70715 2540.8787 -636.24689 4294967295
566.70624 2538.5542 -636.18793 4294967295
541.21136 2543.115 -636.47125 4294967295
543.2605 2543.2058 -636.284 4294967295
545.09052 2543.2397 -636.5528 4294967295
537.34442 2544.512 -636.83716 4294967295
549.16052 2544.0049 -636.88104 4294967295
536.94977 2547.2356 -636.42145 4294967295
555.40564 2515.0989 -635.32184 4294967295
561.19904 2515.9705 -635.76776 4294967295
566.91492 2521.304 -635.20221 4294967295
567.28644 2523.9226 -635.98151 4294967295
568.39905 2526.7485 -635.34406 4294967295
569.05615 2530.0483 -635.09808 4294967295
565.87158 2540.2654 -635.65308 4294967295
560.01105 2542.8401 -635.36926 4294967295
561.78601 2542.4187 -635.5473 4294967295
563.27142 2541.8528 -635.83282 4294967295
539.62427 2544.5684 -635.54694 4294967295
539.25293 2550.366 -635.28516 4294967295
535.11816 2509.5547 -634.60492 4294967295
534.95367 2512.0442 -634.47632 4294967295
535.55652 2514.124 -634.3725 4294967295
536.25635 2515.3176 -634.64355 4294967295
537.32831 2516.312 -634.75854 4294967295
545.16473 2516.8188 -634.42584 4294967295
547.24805 2516.3477 -634.76483 4294967295
551.42255 2515.47 -634.72443 4294967295
563.73779 2516.9792 -634.81683 4294967295
539.42133 2517.0178 -634.80182 4294967295
540.63599 2517.0249 -634.10449 4294967295
543.05829 2517.178 -634.31921 4294967295
565.81812 2518.9226 -634.80829 4294967295
569.22302 2533.1821 -634.91296 4294967295
568.95752 2536.0215 -634.61066 4294967295
568.28516 2538.3103 -634.3905 4294967295
548.99805 2543.8699 -634.63043 4294967295
553.21338 2543.5168 -634.90161 4294967295
555.51312 2543.1348 -634.78479 4294967295
557.62592 2542.9224 -634.96564 4294967295
565.17163 2541.5449 -634.09308 4294967295
539.52417 2546.0313 -634.84436 4294967295
541.42139 2544.6611 -634.90472 4294967295
542.97137 2544.481 -634.16901 4294967295
544.52985 2544.2046 -634.10162 4294967295
546.73669 2544.0527 -634.40155 4294967295
539.59723 2547.6658 -634.4585 4294967295
541.52191 2557.9243 -634.67151 4294967295
557.85754 2515.228 -633.42328 4294967295
560.23395 2515.3669 -633.90784 4294967295
562.13416 2515.7654 -633.88354 4294967295
567.45502 2520.2271 -633.60602 4294967295
568.90436 2523.5386 -633.47931 4294967295
570.49445 2531.6116 -633.29962 4294967295
570.42596 2534.8479 -633.00177 4294967295
567.24536 2540.2605 -633.77948 4294967295
568.56787 2539.4592 -633.06903 4294967295
559.71265 2542.8162 -633.04529 4294967295
562.02747 2542.552 -633.75238 4294967295
563.71326 2542.2253 -633.83484 4294967295
541.39417 2546.3411 -633.72034 4294967295
540.98645 2549.9009 -633.50641 4294967295
537.164 2504.8994 -632.86078 4294967295
537.66217 2512.5081 -632.005 4294967295
538.03467 2513.9558 -632.33374 4294967295
539.24731 2515.9744 -632.84625 4294967295
541.13751 2516.5286 -632.58099 4294967295
544.64783 2516.6323 -632.19775 4294967295
546.45886 2516.5322 -632.341 4294967295
549.35077 2516.0442 -632.43335 4294967295
551.51263 2515.6755 -632.89752 4294967295
561.65546 2515.4229 -632.55255 4294967295
563.63055 2515.9768 -632.24084 4294967295
566.29419 2517.8867 -632.62036 4294967295
569.81689 2538.0986 -632.33374 4294967295
548.65161 2543.697 -632.18658 4294967295
551.13837 2543.459 -632.95801 4294967295
553.29254 2543.1587 -632.7641 4294967295
557.50995 2542.781 -632.77032 4294967295
543.02045 2545.8784 -632.7486 4294967295
546.94141 2544.0493 -632.42584 4294967295
543.29724 2557.7715 -632.83435 4294967295
539.74799 2514.896 -631.24182 4294967295
560.08295 2515.3135 -631.42371 4294967295
562.09094 2515.3928 -631.16693 4294967295
571.72913 2533.1475 -631.37408 4294967295
571.50067 2536.0925 -631.04846 4294967295
568.49042 2540.3855 -631.61816 4294967295
561.38446 2542.8284 -631.03357 4294967295
564.13428 2542.3696 -631.83582 4294967295
566.5705 2541.5796 -631.63733 4294967295
542.59644 2547.6682 -631.91656 4294967295
539.03644 2509.4509 -630.45367 4294967295
538.81183 2511.9854 -630.7489 4294967295
540.08881 2514.2551 -630.41827 4294967295
543.10016 2516.2983 -630.24677 4294967295
546.91479 2516.3799 -630.14722 4294967295
548.86658 2516.3064 -630.59973 4294967295
551.52441 2515.9736 -630.75171 4294967295
557.58331 2515.4817 -630.46252 4294967295
565.70544 2516.3423 -630.25732 4294967295
571.20416 2538.1555 -630.33844 4294967295
548.69232 2543.7124 -630.3103 4294967295
550.36432 2543.2029 -630.27258 4294967295
552.91895 2542.9534 -630.73633 4294967295
555.28687 2542.7815 -630.90576 4294967295
559.52295 2542.7627 -630.87738 4294967295
544.04425 2546.5188 -630.99377 4294967295
545.65936 2544.9019 -630.91284 4294967295
547.11548 2544.2773 -630.73657 4294967295
543.74664 2548.8071 -630.57117 4294967295
544.88348 2556.834 -630.95386 4294967295
545.15192 2558.876 -630.84186 4294967295
561.58209 2515.3689 -629.59772 4294967295
563.45471 2515.5408 -629.78705 4294967295
568.34161 2517.9536 -629.82886 4294967295
569.95319 2520.0659 -629.8432 4294967295
572.05798 2524.5342 -629.12994 4294967295
572.86816 2531.4148 -629.48297 4294967295
572.79504 2534.4751 -629.47565 4294967295
572.41156 2536.9268 -629.24432 4294967295
570.07861 2539.8528 -629.96558 4294967295
563.9939 2542.8125 -629.09283 4294967295
565.82147 2542.2251 -629.77631 4294967295
568.15289 2541.436 -629.0766 4294967295
545.91553 2545.5002 -629.62701 4294967295
546.48944 2556.8345 -629.06165 4294967295
540.6875 2509.2495 -628.46259 4294967295
540.63635 2512.6042 -628.81628 4294967295
541.62103 2514.1821 -628.73218 4294967295
545.38763 2516.2207 -628.4032 4294967295
548.91931 2516.4326 -628.36169 4294967295
551.32562 2516.2593 -628.74268 4294967295
553.29071 2516.0728 -628.83411 4294967295
555.31531 2515.8826 -628.88727 4294967295
559.7652 2515.5205 -628.48944 4294967295
565.03442 2515.6135 -628.15894 4294967295
567.14899 2516.2095 -628.21155 4294967295
570.46497 2519.0161 -628.00348 4294967295
571.4021 2521.4448 -628.57281 4294967295
571.80615 2538.8928 -628.62201 4294967295
548.56171 2543.9309 -628.67297 4294967295
550.32458 2543.3694 -628.38397 4294967295
552.86487 2542.8567 -628.35181 4294967295
554.85248 2542.6802 -628.41077 4294967295
561.32831 2542.6721 -628.9328 4294967295
545.34717 2546.6423 -628.96771 4294967295
545.45612 2547.7036 -628.51782 4294967295
569.3869 2517.0986 -627.04236 4294967295
573.92218 2529.7749 -627.35413 4294967295
573.96899 2532.9709 -627.48755 4294967295
573.32104 2536.6277 -627.71802 4294967295
570.62335 2540.5452 -627.60486 4294967295
566.09705 2542.2715 -627.54333 4294967295
548.22955 2556.8259 -627.02704 4294967295
542.21729 2504.6697 -626.6756 4294967295
542.25165 2512.2205 -626.69159 4294967295
543.38361 2514.5439 -626.7749 4294967295
545.08533 2515.583 -626.86261 4294967295
548.74292 2516.3438 -626.38525 4294967295
550.59851 2516.5349 -626.51953 4294967295
553.08728 2516.3511 -626.69055 4294967295
562.5921 2515.5056 -626.90619 4294967295
564.96429 2515.4365 -626.36017 4294967295
566.24963 2515.5808 -626.97638 4294967295
567.74963 2515.8977 -626.21503 4294967295
571.08331 2518.2593 -626.1192 4294967295
572.04285 2520.2493 -626.41986 4294967295
572.89056 2523.1575 -626.95032 4294967295
574.12354 2536.9302 -626.19348 4294967295
572.91473 2539.2886 -626.2699 4294967295
549.69 2543.8755 -626.81635 4294967295
550.83728 2543.6121 -626.23499 4294967295
552.80902 2543.1125 -626.24622 4294967295
554.89856 2542.6809 -626.48651 4294967295
563.51697 2542.5518 -626.99646 4294967295
548.14935 2544.7876 -626.90588 4294967295
546.92163 2548.6235 -626.41724 4294967295
548.49445 2558.7822 -626.92877 4294967295
548.74445 2560.8948 -626.87299 4294967295
559.65973 2515.8296 -625.28955 4294967295
566.28583 2515.5127 -625.54474 4294967295
569.43372 2516.2993 -625.1001 4294967295
570.69958 2517.2615 -625.24219 4294967295
574.42151 2524.948 -625.01294 4294967295
574.74176 2528.0754 -625.43341 4294967295
574.75171 2534.6094 -625.78711 4294967295
571.38123 2540.8254 -625.83997 4294967295
572.51898 2540.5117 -625.12122 4294967295
569.08081 2541.7346 -625.62305 4294967295
549.79962 2544.6667 -625.04614 4294967295
549.56287 2554.7539 -625.03552 4294967295
549.96887 2556.8462 -625.00256 4294967295
550.14606 2558.8613 -625.01526 4294967295
550.6225 2564.8362 -625.04016 4294967295
543.60248 2511.6538 -624.88141 4294967295
547.14008 2515.9248 -624.6261 4294967295
552.91766 2516.6106 -624.40265 4294967295
555.13727 2516.3835 -624.78906 4294967295
557.33777 2516.1116 -624.97784 4294967295
570.74774 2516.8162 -624.18378 4294967295
573.54846 2521.7917 -624.79663 4294967295
575.33698 2531.5593 -624.77917 4294967295
575.71216 2534.0969 -624.01984 4294967295
573.44244 2539.9534 -624.85278 4294967295
574.32751 2538.6052 -624.828 4294967295
551.37408 2543.8098 -624.97479 4294967295
561.37329 2542.3948 -624.97028 4294967295
565.95697 2542.3208 -624.86743 4294967295
571.58514 2541.2844 -624.3028 4294967295
548.97308 2546.0186 -624.64075 4294967295
548.72534 2548.6187 -624.28503 4294967295
550.37775 2560.8774 -624.9707 4294967295
550.57562 2562.96 -624.94708 4294967295
551.19727 2569.8765 -624.96649 4294967295
561.82318 2515.7842 -623.53931 4294967295
564.74756 2515.5522 -623.98602 4294967295
567.76294 2515.6658 -623.97614 4294967295
569.73059 2516.04 -623.73535 4294967295
570.89722 2516.5205 -623.02826 4294967295
572.42371 2518.5447 -623.83154 4294967295
574.09125 2520.9097 -623.2193 4294967295
575.56525 2525.5496 -623.04236 4294967295
575.47211 2527.896 -623.95117 4294967295
576.24054 2533.0378 -623.03937 4294967295
575.48407 2536.2568 -623.98895 4294967295
573.13831 2540.6736 -623.89282 4294967295
574.31116 2539.7959 -623.67767 4294967295
575.35339 2538.4453 -623.18463 4294967295
568.09155 2542.2576 -623.00256 4294967295
551.19318 2544.6755 -623.05627 4294967295
551.83832 2560.9233 -623.23077 4294967295
552.10797 2562.7188 -623.0932 4294967295
552.69012 2568.9824 -623.0376 4294967295
549.15515 2516.1875 -622.66052 4294967295
552.5484 2516.6106 -622.37445 4294967295
554.92755 2516.6458 -622.53088 4294967295
569.34534 2515.7141 -622.21942 4294967295
571.85565 2516.8936 -622.19269 4294967295
573.59314 2518.7764 -622.25146 4294967295
574.0061 2519.7285 -622.47009 4294967295
575.1214 2523.2009 -622.80115 4294967295
576.20337 2527.7363 -622.38647 4294967295
576.27368 2530.8662 -622.81348 4294967295
576.63129 2534.6179 -622.09125 4294967295
574.24432 2540.646 -622.3996 4294967295
575.30176 2539.7166 -622.26117 4294967295
552.96252 2543.7009 -622.71399 4294967295
556.61523 2542.6357 -622.55127 4294967295
559.07184 2542.3884 -622.58246 4294967295
561.15497 2542.343 -622.87238 4294967295
563.62927 2542.3899 -622.77795 4294967295
570.61945 2541.937 -622.61627 4294967295
572.68018 2541.4219 -622.34424 4294967295
549.98456 2546.8821 -622.7475 4294967295
550.45233 2549.9558 -622.50275 4294967295
551.13855 2552.7251 -622.50372 4294967295
551.4505 2554.842 -622.81238 4294967295
551.8689 2556.8743 -622.71027 4294967295
552.00067 2558.8733 -622.80463 4294967295
552.45441 2564.9292 -622.87823 4294967295
552.61066 2566.823 -622.87347 4294967295
547.38214 2513.9355 -621.02356 4294967295
559.35663 2516.262 -621.07776 4294967295
570.82886 2516.0796 -621.8316 4294967295
573.08429 2517.7456 -621.53076 4294967295
575.021 2521.1099 -621.75336 4294967295
576.49615 2525.4309 -621.00439 4294967295
576.98413 2530.1536 -621.11823 4294967295
576.99133 2532.6357 -621.39069 4294967295
576.7821 2536.8401 -621.16187 4294967295
562.94586 2542.3711 -621.06958 4294967295
574.04956 2541.4756 -621.00891 4294967295
552.76855 2554.9014 -621.0813 4294967295
553.85565 2564.9109 -621.07678 4294967295
547.07855 2509.5776 -620.61353 4294967295
546.99048 2512.1184 -620.72791 4294967295
551.12524 2516.3665 -620.51721 4294967295
552.71411 2516.5549 -620.25073 4294967295
554.60522 2516.8032 -620.57849 4294967295
556.97943 2516.6436 -620.42426 4294967295
563.08014 2515.8684 -620.80981 4294967295
567.06604 2515.5691 -620.8717 4294967295
569.02698 2515.5251 -620.87177 4294967295
570.13403 2515.7195 -620.98981 4294967295
571.71704 2516.3528 -620.48383 4294967295
574.57605 2519.2527 -620.91486 4294967295
575.80292 2520.9026 -620.2066 4294967295
576.17395 2522.8259 -620.57184 4294967295
577.05585 2527.7764 -620.4967 4294967295
577.46393 2533.9512 -620.30615 4294967295
577.32758 2535.1799 -620.52026 4294967295
575.97156 2540.5881 -620.66766 4294967295
576.37695 2539.1345 -620.84821 4294967295
554.3689 2543.7883 -620.5658 4294967295
558.84351 2542.429 -620.46851 4294967295
561.23651 2542.3474 -620.58942 4294967295
567.72034 2542.4788 -620.86871 4294967295
569.79742 2542.3994 -620.75085 4294967295
551.64984 2547.6292 -620.51141 4294967295
552.6582 2552.7473 -620.52045 4294967295
553.32239 2557.8298 -620.92017 4294967295
553.76013 2562.6196 -620.96216 4294967295
554.21808 2566.9666 -620.80304 4294967295
569.68433 2515.6174 -619.35101 4294967295
573.97339 2517.48 -619.16479 4294967295
577.45764 2526.7004 -619.29047 4294967295
577.87946 2532.0591 -619.21149 4294967295
565.55231 2542.387 -619.11249 4294967295
572.4209 2542.1794 -619.49237 4294967295
574.74988 2541.7419 -619.15527 4294967295
548.47711 2509.4202 -618.73883 4294967295
548.71234 2512.2808 -618.35999 4294967295
549.29053 2514.0208 -618.51007 4294967295
551.2337 2515.8215 -618.67365 4294967295
553.1319 2516.4497 -618.53558 4294967295
554.54138 2516.717 -618.57343 4294967295
556.33771 2516.7581 -618.33557 4294967295
559.82922 2516.4495 -618.6723 4294967295
565.604 2515.6594 -618.84369 4294967295
576.11414 2519.6089 -618.4798 4294967295
576.745 2521.9338 -618.97198 4294967295
577.43518 2524.4412 -618.5769 4294967295
577.9502 2529.0205 -618.61304 4294967295
578.19928 2535.3425 -618.37347 4294967295
576.86981 2540.5723 -618.815 4294967295
577.66376 2538.5278 -618.62634 4294967295
557.04187 2543.0991 -618.43805 4294967295
558.52344 2542.6926 -618.2951 4294967295
560.57251 2542.356 -618.62988 4294967295
563.15857 2542.3962 -618.82166 4294967295
553.75696 2545.1255 -618.99896 4294967295
554.36554 2554.7312 -618.724 4294967295
567.7157 2515.5737 -617.1463 4294967295
569.91156 2515.2432 -617.11682 4294967295
572.09735 2515.9702 -617.95679 4294967295
575.3493 2517.8352 -617.74945 4294967295
578.08777 2526.7698 -617.76263 4294967295
578.52106 2530.884 -617.50079 4294967295
578.72552 2532.6204 -617.18024 4294967295
578.51886 2537.6782 -617.39783 4294967295
569.56915 2542.4961 -617.11432 4294967295
574.54053 2542.2483 -617.44421 4294967295
575.9657 2541.5896 -617.31329 4294967295
549.87219 2507.1804 -616.86572 4294967295
550.10883 2509.5747 -616.36469 4294967295
549.91431 2512.2832 -616.5249 4294967295
551.43433 2515.1697 -616.81378 4294967295
553.00067 2516.1975 -616.94397 4294967295
554.66339 2516.5916 -616.29498 4294967295
556.36682 2516.7942 -616.30145 4294967295
558.94183 2516.7449 -616.7699 4294967295
561.25287 2516.4822 -616.62024 4294967295
563.45374 2516.124 -616.97931 4294967295
574.42493 2516.5044 -616.41315 4294967295
576.56866 2518.2048 -616.4292 4294967295
577.34406 2519.8992 -616.77332 4294967295
577.80798 2521.9209 -616.82471 4294967295
578.60315 2527.9792 -616.70099 4294967295
578.73889 2529.5825 -616.68365 4294967295
577.94666 2540.5122 -616.55029 4294967295
578.66473 2539.2703 -616.92603 4294967295
558.46405 2542.9387 -616.51642 4294967295
560.56378 2542.4258 -616.44641 4294967295
563.22638 2542.3938 -616.69891 4294967295
565.23535 2542.4321 -616.84875 4294967295
552.44171 2515.1458 -615.05908 4294967295
575.67737 2515.9868 -615.12793 4294967295
578.61127 2520.0073 -615.11456 4294967295
578.77972 2525.3779 -615.57843 4294967295
579.19403 2531.1006 -615.73645 4294967295
579.33203 2537.3936 -615.57227 4294967295
565.24701 2542.4204 -615.01416 4294967295
574.40991 2542.5 -615.28735 4294967295
551.26544 2509.9939 -614.55176 4294967295
551.448 2512.9541 -614.90198 4294967295
553.78345 2516.0593 -614.87592 4294967295
556.13977 2516.7261 -614.47052 4294967295
558.50159 2516.9922 -614.2196 4294967295
560.69629 2516.7158 -614.8244 4294967295
572.66595 2515.2175 -614.9538 4294967295
578.03778 2518.0281 -614.71191 4294967295
579.13269 2522.1492 -614.12152 4294967295
579.34546 2528.6638 -614.7514 4294967295
579.68274 2533.7966 -614.9101 4294967295
578.966 2540.1421 -614.8316 4294967295
558.75098 2543.1572 -614.71948 4294967295
560.5213 2542.6924 -614.39972 4294967295
562.63037 2542.3723 -614.60223 4294967295
567.57642 2542.4673 -614.88007 4294967295
577.7937 2541.208 -614.69458 4294967295
552.84711 2513.9973 -613.04523 4294967295
553.71027 2515.2551 -613.02808 4294967295
574.45947 2515.498 -613.09381 4294967295
578.55151 2517.7405 -613.12439 4294967295
579.25079 2519.3936 -613.28088 4294967295
580.90796 2536.1042 -613.28442 4294967295
580.08661 2539.2244 -613.24408 4294967295
573.98145 2542.6077 -613.2616 4294967295
576.46997 2542.2422 -613.04193 4294967295
578.12354 2541.4912 -613.11505 4294967295
557.36847 2544.5012 -613.03589 4294967295
552.48529 2509.6899 -612.59247 4294967295
552.38184 2512.0737 -612.71161 4294967295
555.27356 2516.2473 -612.81738 4294967295
556.7475 2516.6587 -612.38544 4294967295
561.05408 2516.8386 -612.69135 4294967295
570.29126 2515.5256 -612.82434 4294967295
577.56177 2516.5415 -612.85931 4294967295
579.71771 2524.1731 -612.95654 4294967295
579.80396 2526.4844 -612.95013 4294967295
580.22003 2528.8225 -612.14075 4294967295
579.27026 2540.5813 -612.82733 4294967295
559.14746 2543.3916 -612.56921 4294967295
560.47888 2542.9333 -612.32526 4294967295
565.25439 2542.3508 -612.72986 4294967295
567.45502 2542.4082 -612.94507 4294967295
569.51031 2542.4253 -612.84631 4294967295
572.24384 2515.3721 -611.1557 4294967295
575.02502 2515.4868 -611.53412 4294967295
578.14905 2516.4741 -611.01495 4294967295
579.29999 2517.9612 -611.43628 4294967295
580.45068 2521.8909 -611.06067 4294967295
580.34796 2524.8069 -611.17419 4294967295
580.42072 2526.9004 -611.00275 4294967295
580.67255 2530.7351 -611.34607 4294967295
578.24084 2541.6638 -611.2428 4294967295
558.52527 2544.1802 -611.21198 4294967295
553.52069 2508.8945 -610.99341 4294967295
553.81659 2512.9705 -610.51233 4294967295
554.00677 2513.98 -610.96637 4294967295
555.2597 2515.6675 -610.95569 4294967295
556.86066 2516.6362 -610.5351 4294967295
558.22479 2516.9231 -610.26416 4294967295
578.38995 2516.4438 -610.12292 4294967295
580.12787 2519.6206 -610.76074 4294967295
581.26569 2537.9924 -610.88141 4294967295
579.51501 2540.8264 -610.96008 4294967295
560.55688 2543.2039 -610.51538 4294967295
562.13519 2542.6177 -610.2807 4294967295
564.53473 2542.2659 -610.77899 4294967295
569.38043 2542.3506 -610.84851 4294967295
557.62451 2546.4072 -610.88855 4294967295
557.95728 2550.082 -610.58209 4294967295
566.87793 2516.4441 -609.15369 4294967295
576.57953 2515.4714 -609.28021 4294967295
580.83759 2519.6729 -609.10114 4294967295
581.04919 2521.864 -609.3136 4294967295
581.01636 2524.6162 -609.07629 4294967295
581.16364 2529.1492 -609.13751 4294967295
581.70349 2533.1379 -609.04889 4294967295
582.05365 2535.8992 -609.40161 4294967295
581.55414 2539.0403 -609.17816 4294967295
554.75 2508.823 -608.69153 4294967295
554.69128 2511.99 -608.61218 4294967295
555.21082 2514.0596 -608.37708 4294967295
557.12817 2516.2256 -608.81549 4294967295
579.94531 2540.9988 -608.9303 4294967295
561.34003 2543.2607 -608.6474 4294967295
564.45428 2542.3677 -608.54895 4294967295
567.38342 2542.2209 -608.73004 4294967295
558.76453 2545.7842 -608.89227 4294967295
559.38739 2544.5527 -608.93384 4294967295
556.90332 2515.8301 -607.17041 4294967295
574.56244 2515.4019 -607.11884 4294967295
576.54596 2515.4275 -607.40912 4294967295
578.41071 2516.1606 -607.98822 4294967295
581.59113 2526.8677 -607.13794 4294967295
582.63318 2535.9089 -607.40344 4294967295
576.54095 2542.6123 -607.23883 4294967295
555.82825 2509.2778 -606.52362 4294967295
555.88239 2513.9395 -606.85632 4294967295
558.64288 2516.6265 -606.67432 4294967295
562.77563 2517.1648 -606.57587 4294967295
580.88745 2518.0923 -606.776 4294967295
581.37701 2519.6675 -606.9657 4294967295
581.63965 2522.1099 -606.96936 4294967295
581.66681 2524.7849 -606.7005 4294967295
581.9787 2530.6277 -606.71057 4294967295
582.36328 2533.49 -606.81909 4294967295
582.58087 2537.8562 -606.83185 4294967295
580.99176 2540.6716 -606.8241 4294967295
561.4964 2543.5522 -606.94073 4294967295
562.56134 2543.0769 -606.62408 4294967295
564.73865 2542.3396 -606.43494 4294967295
566.76624 2542.1638 -606.83875 4294967295
569.21753 2542.2131 -606.72345 4294967295
559.38605 2547.575 -606.65857 4294967295
566.91364 2516.8135 -605.01459 4294967295
581.81494 2519.4822 -605.12585 4294967295
582.07703 2522.0049 -605.2326 4294967295
582.36133 2530.9082 -605.25848 4294967295
576.26471 2542.6458 -605.06592 4294967295
556.55286 2512.2837 -604.80908 4294967295
557.11139 2514.0566 -604.82117 4294967295
558.05518 2515.2407 -604.25305 4294967295
560.51868 2516.8579 -604.51514 4294967295
569.51746 2516.4521 -604.68085 4294967295
580.32404 2516.6245 -604.79871 4294967295
562.74219 2517.189 -604.49091 4294967295
564.88104 2517.1162 -604.63904 4294967295
582.26556 2526.5627 -604.31238 4294967295
582.32574 2529.188 -604.58838 4294967295
583.27094 2535.791 -604.89478 4294967295
581.38098 2540.8169 -604.82587 4294967295
564.32922 2542.7349 -604.58221 4294967295
566.91211 2542.1963 -604.42841 4294967295
569.00562 2542.1768 -604.79846 4294967295
571.29028 2542.3184 -604.82898 4294967295
573.67395 2542.4797 -604.78662 4294967295
561.67529 2544.1279 -604.84991 4294967295
577.0979 2515.3833 -603.1944 4294967295
582.53918 2526.9424 -603.01819 4294967295
583.12982 2533.0862 -603.12708 4294967295
580.42645 2541.9016 -603.14862 4294967295
557.56622 2512.0273 -602.46527 4294967295
559.4433 2516.0388 -602.77997 4294967295
562.35791 2516.9929 -602.47333 4294967295
567.30359 2516.9268 -602.66821 4294967295
564.21808 2517.2793 -602.77148 4294967295
582.40747 2519.615 -602.86865 4294967295
582.68768 2522.0459 -602.81396 4294967295
582.91412 2530.9194 -602.64069 4294967295
583.68042 2536.1821 -602.90265 4294967295
583.14569 2539.1948 -602.7713 4294967295
562.85541 2543.6387 -602.82379 4294967295
566.43091 2542.4414 -602.72266 4294967295
568.91846 2542.187 -602.68854 4294967295
571.51758 2542.3015 -602.49219 4294967295
558.1062 2513.49 -601.83856 4294967295
559.56653 2515.3325 -601.04541 4294967295
582.87592 2524.6125 -601.29132 4294967295
583.54663 2533.386 -601.03021 4294967295
573.58331 2542.4614 -601.00146 4294967295
558.24951 2512.1631 -600.7597 4294967295
558.8692 2514.1343 -600.9068 4294967295
561.06531 2516.3853 -600.88116 4294967295
562.7583 2516.9785 -600.65485 4294967295
564.64075 2517.1917 -600.3866 4294967295
566.87842 2517.1384 -600.93127 4294967295
582.38062 2518.8894 -600.80011 4294967295
583.11206 2521.9524 -600.95551 4294967295
583.8277 2537.8174 -600.87396 4294967295
564.966 2543.0969 -600.82721 4294967295
566.27081 2542.6218 -600.81396 4294967295
569.0816 2542.2266 -600.77289 4294967295
571.14496 2542.3145 -600.9458 4294967295
581.97485 2541.1111 -600.8938 4294967295
579.91766 2515.9856 -599.07562 4294967295
583.02057 2519.6299 -599.20306 4294967295
583.45667 2521.9211 -599.13696 4294967295
584.23865 2535.7188 -599.12573 4294967295
559.05743 2511.9014 -598.67987 4294967295
560.58759 2515.5557 -598.85376 4294967295
581.51227 2516.9326 -598.87909 4294967295
564.44708 2517.3303 -598.7215 4294967295
566.79938 2517.3005 -598.7157 4294967295
583.28052 2524.7195 -598.96289 4294967295
583.29236 2526.5962 -598.72986 4294967295
584.08624 2537.8335 -598.74347 4294967295
566.5899 2542.7546 -598.48865 4294967295
568.83081 2542.2249 -598.64233 4294967295
573.62842 2542.4761 -598.828 4294967295
578.68231 2542.6829 -598.98187 4294967295
580.53741 2542.1436 -598.83618 4294967295
582.12793 2541.1438 -598.797 4294967295
576.04565 2515.7114 -597.17603 4294967295
583.81085 2521.7756 -597.16772 4294967295
575.66364 2542.6025 -597.01898 4294967295
578.35938 2542.7427 -597.06665 4294967295
581.81293 2541.5105 -597.06079 4294967295
560.29138 2513.8918 -596.79315 4294967295
562.83411 2516.7942 -596.7677 4294967295
571.34845 2516.6453 -596.71216 4294967295
581.75104 2516.8203 -596.6828 4294967295
566.39166 2517.4404 -596.51123 4294967295
568.89618 2517.0962 -596.77319 4294967295
583.49524 2519.4414 -596.87085 4294967295
583.6333 2525.0603 -596.67834 4294967295
584.39386 2537.5242 -596.76447 4294967295
583.40625 2539.9299 -596.95819 4294967295
568.47687 2542.3264 -596.64496 4294967295
570.81586 2542.2764 -596.66882 4294967295
561.57153 2515.5288 -595.03241 4294967295
576.43298 2515.8169 -595.19049 4294967295
578.992 2515.5586 -595.24213 4294967295
581.86243 2541.5352 -595.2066 4294967295
564.01105 2516.8948 -594.99023 4294967295
571.2392 2516.8279 -594.91174 4294967295
573.80511 2516.3425 -594.72858 4294967295
580.70551 2516.0935 -594.75769 4294967295
582.27179 2516.9565 -594.57483 4294967295
566.58606 2517.4775 -594.45752 4294967295
583.23383 2518.3064 -594.98474 4294967295
584.23669 2521.9807 -594.63263 4294967295
583.74359 2539.8281 -594.987 4294967295
570.40912 2542.2737 -594.52539 4294967295
562.80884 2515.8884 -592.91565 4294967295
564.71649 2516.9595 -592.55493 4294967295
575.75598 2516.1377 -592.76038 4294967295
578.63739 2515.6189 -592.80798 4294967295
582.17621 2516.6558 -592.95221 4294967295
566.41577 2517.4983 -592.50745 4294967295
583.72583 2518.3459 -592.73486 4294967295
584.45215 2521.5627 -592.80096 4294967295
583.21918 2540.884 -592.68213 4294967295
566.73035 2543.2703 -592.66101 4294967295
578.17761 2542.7473 -592.88007 4294967295
581.44073 2516.1821 -591.20239 4294967295
584.52002 2519.6978 -591.26398 4294967295
584.65405 2539.1948 -591.02362 4294967295
582.18427 2541.8462 -591.12836 4294967295
565.78821 2544.6077 -591.16565 4294967295
562.64886 2514.7524 -590.7373 4294967295
563.9679 2516.3501 -590.9563 4294967295
575.63135 2516.2476 -590.87329 4294967295
580.45251 2515.9653 -590.95538 4294967295
568.17609 2517.6216 -590.34344 4294967295
571.17389 2517.1792 -590.61273 4294967295
583.03723 2517.012 -590.74921 4294967295
568.29059 2542.8743 -590.88879 4294967295
570.27765 2542.4458 -590.91278 4294967295
583.3374 2517.0325 -589.03613 4294967295
580.65387 2542.6833 -589.18085 4294967295
583.64215 2541.1252 -589.11346 4294967295
563.53363 2514.7549 -588.5498 4294967295
564.76245 2516.4719 -588.90808 4294967295
578.52728 2515.8433 -588.92389 4294967295
566.42645 2517.1736 -588.67175 4294967295
570.64301 2542.5278 -588.60321 4294967295
573.26831 2542.4675 -588.69318 4294967295
565.53143 2545.9675 -588.78546 4294967295
582.22534 2516.3733 -587.17102 4294967295
568.07355 2543.6174 -587.36523 4294967295
566.49799 2545.0017 -587.21448 4294967295
566.44318 2516.9121 -586.76685 4294967295
580.66852 2516.0586 -586.96088 4294967295
568.53033 2517.5806 -586.45953 4294967295
584.87305 2518.6799 -586.42627 4294967295
585.20667 2539.6982 -586.34009 4294967295
568.80426 2543.293 -586.82367 4294967295
580.90601 2542.6743 -586.88031 4294967295
584.03253 2541.1594 -586.91876 4294967295
565.75311 2547.7832 -586.76105 4294967295
581.03186 2515.9944 -585.08173 4294967295
582.42578 2516.4424 -585.16864 4294967295
584.15967 2517.4114 -585.07507 4294967295
575.2959 2542.5305 -585.0506 4294967295
580.33075 2542.699 -585.19489 4294967295
582.29828 2542.1951 -585.08484 4294967295
566.55994 2516.4556 -584.42108 4294967295
577.99072 2516.4163 -584.73383 4294967295
570.26984 2517.6487 -584.7627 4294967295
585.54034 2519.8333 -584.63104 4294967295
585.98145 2537.9573 -584.83777 4294967295
568.66052 2543.3701 -584.86206 4294967295
570.64246 2542.665 -584.71924 4294967295
572.79572 2542.4207 -584.93231 4294967295
577.77295 2542.6301 -584.95837 4294967295
584.39001 2541.0747 -584.69318 4294967295
566.12067 2546.6262 -584.32086 4294967295
566.07794 2549.9678 -584.83514 4294967295
582.77087 2516.6331 -583.28833 4294967295
566.21246 2547.6887 -583.23712 4294967295
565.34186 2514.2869 -582.78802 4294967295
580.76819 2516.3015 -582.93951 4294967295
583.2691 2516.8901 -582.13538 4294967295
570.19446 2517.5911 -582.64972 4294967295
585.25909 2518.6016 -582.53601 4294967295
586.01166 2521.5972 -582.91827 4294967295
585.82697 2539.7048 -582.92944 4294967295
569.33313 2543.2742 -582.67108 4294967295
572.4776 2542.3716 -582.96771 4294967295
575.43457 2542.532 -582.85217 4294967295
577.66309 2542.5952 -582.94086 4294967295
582.43158 2542.2197 -582.99884 4294967295
584.30786 2541.2856 -582.9939 4294967295
566.57318 2546.2168 -582.78119 4294967295
585.92981 2519.8132 -581.09778 4294967295
585.44269 2540.2139 -581.16528 4294967295
567.03693 2515.8091 -580.81897 4294967295
568.89874 2516.9624 -580.92426 4294967295
580.30457 2516.2966 -580.98346 4294967295
581.87256 2516.5432 -580.90747 4294967295
570.42352 2517.4307 -580.38879 4294967295
585.26392 2518.4109 -580.87915 4294967295
586.35199 2537.7043 -580.94354 4294967295
569.08331 2543.3975 -580.9975 4294967295
572.29913 2542.3657 -580.52771 4294967295
577.85596 2542.634 -580.89624 4294967295
580.22192 2542.7212 -580.53741 4294967295
582.62817 2542.3618 -580.75311 4294967295
567.61304 2544.4258 -580.94733 4294967295
566.51447 2547.4197 -580.29877 4294967295
579.90918 2516.5066 -579.24152 4294967295
586.10699 2519.741 -579.52637 4294967295
586.59998 2522.1533 -579.58032 4294967295
568.96936 2543.4521 -579.05579 4294967295
575.47485 2542.5925 -579.00061 4294967295
568.52899 2516.4114 -578.84625 4294967295
582.4964 2516.6572 -578.65356 4294967295
572.24188 2517.7996 -578.8584 4294967295
585.2876 2518.1646 -578.84918 4294967295
572.21027 2542.3921 -578.99066 4294967295
577.79724 2542.6948 -578.87213 4294967295
584.56421 2541.3445 -578.77155 4294967295
566.87347 2545.8425 -578.5849 4294967295
566.71655 2550.0225 -578.92407 4294967295
582.40936 2516.6719 -577.04779 4294967295
582.46045 2542.5571 -577.10437 4294967295
568.05481 2515.1411 -576.90674 4294967295
569.01483 2516.3184 -576.86267 4294967295
579.88342 2516.7 -576.39313 4294967295
572.48822 2517.8491 -576.27362 4294967295
577.6015 2517.0891 -576.979 4294967295
583.95282 2517.1445 -576.98962 4294967295
585.68713 2518.219 -576.96582 4294967295
586.45593 2519.7314 -576.93604 4294967295
586.96924 2521.7322 -576.39685 4294967295
586.20929 2539.6565 -576.89648 4294967295
570.25055 2542.7957 -576.59192 4294967295
572.42114 2542.4221 -576.68286 4294967295
567.51056 2544.731 -576.8905 4294967295
582.49652 2516.7439 -575.38104 4294967295
569.03052 2543.4746 -575.05109 4294967295
567.79065 2544.4136 -575.0069 4294967295
569.23944 2515.8008 -574.69354 4294967295
571.37689 2517.4436 -574.88312 4294967295
574.35999 2517.8967 -574.58209 4294967295
584.026 2517.0757 -574.39008 4294967295
586.10187 2518.4333 -574.54266 4294967295
587.08929 2519.9282 -574.92261 4294967295
572.30151 2542.4827 -574.71088 4294967295
579.50806 2516.9536 -573.03003 4294967295
581.91077 2516.79 -573.81793 4294967295
568.94086 2543.553 -573.03455 4294967295
568.51868 2512.2625 -572.80499 4294967295
569.44366 2515.2327 -572.65009 4294967295
570.54602 2516.5378 -572.91394 4294967295
572.54272 2517.4883 -572.59515 4294967295
574.66296 2517.8804 -572.24847 4294967295
585.70844 2517.7881 -572.7915 4294967295
587.79175 2521.4868 -572.68274 4294967295
586.92444 2538.127 -572.93646 4294967295
570.42499 2542.9917 -572.70361 4294967295
585.63904 2541.0549 -572.50757 4294967295
566.94153 2546.9028 -572.70587 4294967295
567.83154 2544.4868 -572.80475 4294967295
586.82733 2518.5022 -571.25464 4294967295
582.21967 2542.8547 -571.16193 4294967295
569.61804 2512.772 -570.49695 4294967295
570.33032 2515.4351 -570.92853 4294967295
582.24744 2516.7585 -570.04126 4294967295
571.82452 2517.0215 -570.48096 4294967295
575.96149 2517.7505 -570.7749 4294967295
579.5719 2517.1516 -570.63062 4294967295
584.75665 2517.1064 -570.60297 4294967295
588.18048 2521.8586 -570.79175 4294967295
586.56476 2539.6804 -570.98193 4294967295
587.21667 2538.3164 -570.83759 4294967295
569.14703 2543.5571 -570.99719 4294967295
570.23608 2543.1072 -570.78027 4294967295
572.29688 2542.697 -570.96759 4294967295
583.97913 2542.1804 -570.84686 4294967295
567.03442 2548.2959 -570.4248 4294967295
571.06873 2515.4697 -569.0199 4294967295
579.04059 2517.3042 -569.08807 4294967295
585.39972 2517.6045 -569.45801 4294967295
587.67151 2519.6655 -569.08429 4294967295
570.06555 2511.8867 -568.77893 4294967295
582.50519 2516.8374 -568.60767 4294967295
587.0531 2519.0781 -568.53601 4294967295
586.77728 2539.8372 -568.8808 4294967295
587.42529 2538.1582 -568.92804 4294967295
569.98401 2543.282 -568.83459 4294967295
572.73895 2542.6797 -568.5459 4294967295
580.25037 2543.0574 -568.96265 4294967295
582.75177 2542.75 -568.73938 4294967295
584.14398 2542.3176 -568.9444 4294967295
585.81018 2541.2314 -568.81567 4294967295
567.83698 2544.7437 -568.94031 4294967295
567.11237 2547.2065 -568.75232 4294967295
583.84619 2517.2058 -567.17889 4294967295
587.63843 2538.3708 -567.08331 4294967295
569.06818 2543.7507 -567.18994 4294967295
580.57477 2543.1147 -567.15106 4294967295
582.58344 2542.8984 -567.00806 4294967295
584.21674 2542.4487 -567.02094 4294967295
570.78418 2511.4829 -566.97473 4294967295
571.57745 2514.6919 -566.53894 4294967295
572.71545 2516.6685 -566.9881 4294967295
574.20667 2517.2937 -566.4151 4294967295
586.60956 2518.5183 -566.86688 4294967295
587.67914 2519.781 -566.58643 4294967295
570.16858 2543.3083 -566.85077 4294967295
586.05109 2541.2927 -566.83698 4294967295
567.74524 2545.2437 -566.69299 4294967295
581.81635 2517.1282 -565.02429 4294967295
572.17657 2542.8503 -565.02985 4294967295
580.25977 2543.1597 -565.08319 4294967295
584.36194 2542.55 -565.14154 4294967295
567.26587 2547.7292 -565.4339 4294967295
571.76221 2513.8623 -564.69647 4294967295
574.90796 2517.3899 -564.77545 4294967295
579.1579 2517.5608 -564.50378 4294967295
584.48206 2517.3757 -564.48816 4294967295
587.06854 2519.071 -564.4707 4294967295
587.5354 2539.844 -564.64368 4294967295
570.31207 2543.4031 -564.75208 4294967295
568.92816 2544.1199 -564.78436 4294967295
572.17731 2512.6489 -563.07507 4294967295
572.78101 2515.3306 -563.3725 4294967295
579.51538 2517.5752 -563.24445 4294967295
582.15997 2543.2429 -563.14124 4294967295
584.5968 2542.6226 -563.06232 4294967295
574.5686 2516.8794 -562.73322 4294967295
581.92542 2517.3108 -562.81799 4294967295
570.33142 2543.6003 -562.47253 4294967295
572.2287 2543.0708 -562.68018 4294967295
577.68481 2543.0698 -562.84845 4294967295
580.07764 2543.2 -562.99017 4294967295
585.62573 2542.1316 -562.87128 4294967295
586.81342 2541.1399 -562.72491 4294967295
567.72626 2546.262 -562.8009 4294967295
568.74109 2544.5754 -562.48883 4294967295
567.50055 2549.9478 -562.41229 4294967295
587.78003 2539.7168 -561.09613 4294967295
572.99146 2511.6382 -560.43182 4294967295
575.17499 2516.8699 -560.84552 4294967295
578.60889 2517.8052 -560.45044 4294967295
580.6394 2517.6443 -560.93469 4294967295
572.21094 2543.0371 -560.63977 4294967295
575.28528 2543.0042 -560.5368 4294967295
577.47443 2543.0791 -560.80579 4294967295
579.57245 2543.1992 -560.88898 4294967295
582.4295 2543.3271 -560.95764 4294967295
584.38568 2542.8047 -560.88898 4294967295
585.69843 2542.2366 -560.73187 4294967295
