# .PCD v0.7 - Point Cloud Data file format
VERSION 0.7
FIELDS x y z rgba
SIZE 4 4 4 4
TYPE F F F U
COUNT 1 1 1 1
WIDTH 1112
HEIGHT 1
VIEWPOINT 0 0 0 1 0 0 0
POINTS 1112
DATA ascii
-120.74982 -610.99036 -530.09467 4294967295
-118.82833 -610.85797 -530.37805 4294967295
-115.6871 -610.4375 -530.63776 4294967295
-114.38766 -609.44653 -530.00378 4294967295
-113.11866 -609.74658 -530.26172 4294967295
-110.25951 -610.05359 -530.79529 4294967295
-106.44402 -608.64667 -530.42395 4294967295
-100.65267 -608.00104 -530.3446 4294967295
-98.184235 -607.36316 -530.05157 4294967295
-92.761925 -607.53583 -530.19885 4294967295
-88.837395 -607.75989 -530.10992 4294967295
253.45059 -654.21411 -529.81104 4294967295
257.41333 -654.48816 -529.82587 4294967295
267.4137 -654.89447 -529.84625 4294967295
269.05225 -654.60492 -529.06317 4294967295
203.42973 -651.01318 -529.91614 4294967295
205.33163 -651.14709 -529.89044 4294967295
215.39398 -651.92706 -529.98529 4294967295
219.88835 -652.23035 -529.91724 4294967295
270.67438 -653.66559 -529.33856 4294967295
272.93445 -652.87238 -529.01025 4294967295
274.42068 -651.82214 -529.2561 4294967295
161.43486 -648.13763 -529.72491 4294967295
163.49838 -648.30396 -529.63892 4294967295
165.46017 -648.49127 -529.85223 4294967295
167.3448 -648.62329 -529.76874 4294967295
169.05406 -648.58203 -529.74194 4294967295
171.77718 -648.76794 -529.79163 4294967295
173.10001 -648.89856 -529.88483 4294967295
175.64606 -649.15369 -529.9165 4294967295
179.47902 -649.34167 -529.96454 4294967295
181.47789 -649.59125 -529.94684 4294967295
185.3484 -649.83612 -529.85449 4294967295
187.67116 -649.9834 -529.71631 4294967295
189.80539 -649.62738 -529.97546 4294967295
191.62982 -649.79382 -529.60901 4294967295
193.43102 -649.95221 -529.32288 4294967295
196.97278 -650.28412 -529.32007 4294967295
199.36417 -650.45135 -529.8537 4294967295
201.29517 -650.86157 -529.9704 4294967295
275.0773 -650.22009 -529.85443 4294967295
276.76602 -649.92694 -529.56201 4294967295
278.62442 -649.84485 -529.26477 4294967295
280.59012 -649.96155 -529.02496 4294967295
284.34155 -648.00513 -529.15308 4294967295
127.31168 -645.52197 -529.40076 4294967295
129.47806 -645.711 -529.50989 4294967295
147.34329 -646.95313 -529.70911 4294967295
149.25815 -647.08087 -529.53894 4294967295
151.49303 -647.23779 -529.39026 4294967295
153.19333 -647.40198 -529.61963 4294967295
155.59483 -647.59149 -529.64288 4294967295
157.5247 -647.72784 -529.39276 4294967295
159.25253 -647.93335 -529.70453 4294967295
280.04651 -647.30127 -529.84631 4294967295
282.26373 -647.33765 -529.53717 4294967295
286.29431 -646.29327 -529.14386 4294967295
77.475975 -642.00989 -529.31372 4294967295
83.329414 -642.48175 -529.91888 4294967295
85.428085 -642.53339 -529.39954 4294967295
89.66732 -642.87097 -529.47919 4294967295
97.603378 -643.40558 -529.53107 4294967295
100.58656 -643.40887 -529.59326 4294967295
103.57172 -643.5484 -529.42834 4294967295
106.86651 -643.85687 -529.71857 4294967295
109.34411 -644.25726 -529.65851 4294967295
284.42892 -643.86621 -529.66553 4294967295
287.09305 -643.48926 -529.21716 4294967295
37.533276 -639.18427 -529.05823 4294967295
43.299065 -639.63379 -529.31738 4294967295
49.385651 -640.09576 -529.5506 4294967295
51.518074 -640.21387 -529.39423 4294967295
56.025616 -640.42529 -529.07043 4294967295
57.458656 -640.55017 -529.22058 4294967295
59.396736 -640.69159 -529.15515 4294967295
61.391632 -640.84601 -529.22595 4294967295
64.800247 -641.16516 -529.56146 4294967295
67.687668 -641.35052 -529.39423 4294967295
73.450821 -641.75079 -529.32336 4294967295
75.55014 -641.92865 -529.56805 4294967295
284.73822 -639.78284 -529.66431 4294967295
286.45929 -640.90179 -529.3869 4294967295
288.2872 -641.21429 -529.00037 4294967295
-8.7633352 -636.13495 -529.57037 4294967295
-5.5075603 -636.08221 -529.8158 4294967295
5.656671 -636.84448 -529.78723 4294967295
7.4994221 -637.10492 -529.17377 4294967295
11.443068 -637.37909 -529.16742 4294967295
33.767803 -638.88025 -529.052 4294967295
282.07217 -636.43079 -529.59784 4294967295
283.32068 -638.01514 -529.77704 4294967295
285.05151 -637.1261 -529.16418 4294967295
286.44894 -638.26971 -529.09082 4294967295
-54.509285 -633.08942 -529.87225 4294967295
-42.400955 -633.8526 -529.67554 4294967295
-40.370033 -633.97839 -529.5144 4294967295
-36.534863 -634.29376 -529.73627 4294967295
-34.80492 -634.43951 -529.92297 4294967295
-30.666681 -634.61823 -529.60913 4294967295
-26.771685 -634.82782 -529.57385 4294967295
-24.379992 -634.99957 -529.60168 4294967295
-22.081074 -635.09668 -529.06793 4294967295
-20.697149 -635.24817 -529.45959 4294967295
-16.865248 -635.55908 -529.7392 4294967295
-14.652184 -635.65985 -529.43903 4294967295
-12.980386 -635.76697 -529.40417 4294967295
269.24164 -633.09277 -529.09442 4294967295
274.64194 -634.15607 -529.48181 4294967295
276.60968 -634.44379 -529.42902 4294967295
278.85468 -635.13416 -529.4624 4294967295
280.94592 -635.31323 -529.3161 4294967295
-95.935013 -630.01874 -529.83704 4294967295
-84.356232 -631.04407 -529.79419 4294967295
-82.866974 -631.21973 -529.95984 4294967295
-80.619873 -631.44269 -529.8139 4294967295
-79.12278 -631.5321 -529.96411 4294967295
-77.289368 -631.5918 -529.58685 4294967295
-73.698257 -631.74207 -529.63184 4294967295
-70.765892 -631.90009 -529.58014 4294967295
-68.331001 -632.22064 -529.61749 4294967295
-62.504883 -632.53931 -529.74139 4294967295
249.17061 -631.10889 -529.96252 4294967295
251.74557 -631.23541 -529.92767 4294967295
255.7653 -631.50702 -529.9729 4294967295
259.48526 -631.86475 -529.83185 4294967295
263.58911 -632.19525 -529.66949 4294967295
265.69897 -632.30841 -529.24829 4294967295
267.49344 -632.60345 -529.35669 4294967295
-114.79665 -627.5368 -529.95117 4294967295
-110.99695 -628.09924 -529.7829 4294967295
-108.63699 -628.7804 -529.60358 4294967295
187.72678 -627.03668 -529.40826 4294967295
190.51228 -627.3894 -529.79492 4294967295
194.5806 -627.53491 -529.83862 4294967295
205.87608 -628.07214 -529.58075 4294967295
208.02621 -628.22845 -529.19025 4294967295
212.98077 -628.81842 -529.9837 4294967295
215.3476 -628.46991 -529.8269 4294967295
219.50244 -628.74298 -529.98602 4294967295
221.50447 -628.98712 -529.87048 4294967295
223.60533 -629.02698 -529.98309 4294967295
227.70145 -629.46899 -529.93866 4294967295
-131.00534 -625.03436 -529.07672 4294967295
-128.6962 -625.74554 -529.81763 4294967295
-125.85079 -625.2428 -529.97852 4294967295
-124.40688 -626.53864 -529.31219 4294967295
145.49956 -624.16321 -529.07898 4294967295
151.45714 -624.6828 -529.07098 4294967295
179.31319 -626.49683 -529.22516 4294967295
183.38614 -626.67761 -529.19189 4294967295
184.85797 -626.86157 -529.4892 4294967295
-130.72073 -622.68616 -529.48315 4294967295
95.982841 -621.06323 -529.05511 4294967295
96.629616 -621.16095 -529.7536 4294967295
104.64793 -621.64087 -529.10321 4294967295
107.75179 -621.8241 -529.29651 4294967295
111.2476 -621.86523 -529.09021 4294967295
133.29939 -623.45178 -529.03638 4294967295
139.08397 -623.7998 -529.13464 4294967295
-131.82961 -619.9986 -529.23358 4294967295
-130.55241 -618.71588 -529.58368 4294967295
-129.91782 -620.34668 -529.81726 4294967295
83.281288 -619.68384 -529.20416 4294967295
87.740372 -620.30841 -529.27032 4294967295
91.346161 -620.69574 -529.12067 4294967295
-131.06018 -615.22437 -529.16858 4294967295
-130.26941 -617.18927 -529.56464 4294967295
-128.91814 -615.95032 -529.79333 4294967295
17.522303 -615.05695 -529.11475 4294967295
19.063953 -615.17419 -529.08508 4294967295
21.667336 -615.35699 -529.02301 4294967295
23.271311 -615.4649 -529.17773 4294967295
25.546179 -615.54041 -529.05383 4294967295
35.470474 -616.46021 -529.05066 4294967295
41.015259 -616.92328 -529.14038 4294967295
-129.39297 -613.29553 -529.23926 4294967295
-127.34747 -613.62573 -529.72998 4294967295
-24.8081 -612.10291 -529.04376 4294967295
-6.5999122 -613.30798 -529.2912 4294967295
7.840991 -614.59509 -529.50256 4294967295
-126.00679 -611.43872 -529.33691 4294967295
-124.30245 -610.26538 -529.09619 4294967295
-122.70462 -611.01379 -529.79156 4294967295
-117.1968 -609.55804 -529.82941 4294967295
-111.88844 -609.33978 -529.99963 4294967295
-54.426899 -610.04956 -529.14978 4294967295
-52.902386 -610.14917 -529.1524 4294967295
-50.348003 -610.3548 -529.06927 4294967295
-48.687447 -610.47522 -529.1748 4294967295
-46.481293 -610.67017 -529.10626 4294967295
-42.370113 -610.96307 -529.19415 4294967295
-28.631042 -611.85217 -529.01691 4294967295
-26.843353 -611.94086 -529.25427 4294967295
-115.50486 -608.81085 -529.42261 4294967295
-108.48317 -608.76288 -529.99554 4294967295
-106.96503 -607.84027 -529.11786 4294967295
-104.30246 -608.07495 -529.89319 4294967295
-90.632027 -607.63928 -529.7829 4294967295
249.72214 -654.41974 -528.16882 4294967295
253.57422 -654.61322 -528.19403 4294967295
255.48863 -654.71246 -528.11334 4294967295
261.47906 -654.95544 -528.86963 4294967295
263.69885 -655.06879 -528.64502 4294967295
265.6362 -655.11456 -528.87451 4294967295
267.7894 -655.16937 -528.62915 4294967295
270.15964 -654.70386 -528.20789 4294967295
274.66153 -653.12653 -528.17114 4294967295
275.75439 -651.74768 -528.8938 4294967295
277.30215 -651.85315 -528.45697 4294967295
279.07269 -652.02808 -528.13397 4294967295
282.56705 -650.31628 -528.73962 4294967295
284.74789 -650.90002 -528.39093 4294967295
286.03177 -648.78052 -528.82458 4294967295
287.17523 -650.14581 -528.35364 4294967295
289.55139 -649.84253 -528.00861 4294967295
287.99115 -647.90729 -528.63641 4294967295
288.2287 -645.44635 -528.84497 4294967295
289.70273 -646.49493 -528.39105 4294967295
290.76862 -646.49457 -528.12146 4294967295
289.04727 -643.27173 -528.77832 4294967295
290.86292 -643.23309 -528.25305 4294967295
291.4249 -644.88165 -528.01776 4294967295
287.85852 -639.08167 -528.97632 4294967295
289.33258 -639.47754 -528.62463 4294967295
290.4653 -640.46875 -528.33038 4294967295
-0.75128591 -636.12213 -528.08282 4294967295
4.1598573 -636.59491 -528.60748 4294967295
29.527378 -638.59637 -528.98346 4294967295
287.86115 -637.39795 -528.55823 4294967295
288.89786 -637.97772 -528.47839 4294967295
290.04297 -638.1485 -528.15631 4294967295
273.13583 -633.50745 -528.83032 4294967295
276.41379 -633.50543 -528.1734 4294967295
280.81235 -634.33588 -528.54803 4294967295
282.49527 -634.71454 -528.4234 4294967295
283.8342 -635.95105 -528.94482 4294967295
285.15414 -635.71765 -528.49896 4294967295
286.80942 -635.93958 -528.04132 4294967295
-93.309258 -630.52814 -528.19714 4294967295
-125.84077 -627.10461 -528.15344 4294967295
-122.00823 -627.23486 -528.68341 4294967295
-118.66179 -627.59943 -528.88782 4294967295
-115.45198 -628.24298 -528.19897 4294967295
-112.93989 -628.25018 -528.90143 4294967295
-110.69631 -629.04584 -528.12891 4294967295
199.13751 -627.67291 -528.80908 4294967295
-132.52327 -625.54346 -528.46313 4294967295
-130.63356 -626.22131 -528.83862 4294967295
-127.77085 -626.84979 -528.93085 4294967295
155.59169 -624.98828 -528.95294 4294967295
177.58517 -626.39154 -528.95282 4294967295
-133.61069 -622.84418 -528.61133 4294967295
-132.67828 -621.33618 -528.99152 4294967295
101.82587 -621.42169 -528.36987 4294967295
114.93977 -622.19257 -528.91809 4294967295
137.35709 -623.69855 -528.85687 4294967295
141.01897 -623.93555 -528.97461 4294967295
143.33337 -623.99329 -528.97791 4294967295
-134.35118 -619.76794 -528.47577 4294967295
94.470741 -620.94879 -528.59924 4294967295
-134.64482 -615.29944 -528.26782 4294967295
-132.72711 -617.22296 -528.86908 4294967295
-133.00517 -614.71942 -528.6662 4294967295
-131.97549 -612.87024 -528.69727 4294967295
-22.363731 -612.20422 -528.99347 4294967295
5.3284225 -614.39374 -528.92273 4294967295
-130.58669 -610.3595 -528.323 4294967295
-128.28784 -610.50275 -528.57208 4294967295
-126.09557 -609.69745 -528.47253 4294967295
-122.03663 -609.15967 -528.84357 4294967295
-44.414719 -610.83234 -528.97174 4294967295
-38.598606 -611.26349 -528.95612 4294967295
-120.87082 -607.97449 -528.10193 4294967295
-119.23011 -608.59583 -528.81403 4294967295
-113.4433 -607.95459 -528.4007 4294967295
-110.75487 -608.26117 -528.9986 4294967295
245.47716 -654.05304 -527.8797 4294967295
258.98804 -654.74304 -527.93091 4294967295
269.16742 -655.06281 -527.50916 4294967295
270.32181 -655.03613 -527.04297 4294967295
271.20807 -654.70892 -527.54376 4294967295
272.17975 -654.20496 -527.99475 4294967295
273.47842 -654.19861 -527.34229 4294967295
209.65027 -651.14636 -527.47754 4294967295
213.14659 -651.34869 -527.15375 4294967295
219.39212 -651.8631 -527.36719 4294967295
221.50075 -652.01947 -527.24054 4294967295
223.39182 -652.23431 -527.62506 4294967295
225.29968 -652.37604 -527.57697 4294967295
227.51558 -652.53961 -527.62134 4294967295
229.50671 -652.67078 -527.53961 4294967295
231.37201 -652.85437 -527.74689 4294967295
233.33809 -652.96899 -527.33258 4294967295
237.18871 -653.35065 -527.78107 4294967295
239.82048 -653.45703 -527.29034 4294967295
241.47646 -653.67706 -527.85767 4294967295
276.05743 -653.10571 -527.78186 4294967295
280.96283 -652.25116 -527.94421 4294967295
282.78152 -652.62244 -527.71478 4294967295
284.47021 -653.14215 -527.33563 4294967295
286.66333 -652.1485 -527.71112 4294967295
288.53424 -651.57599 -527.71228 4294967295
290.60974 -652.04858 -527.29993 4294967295
291.72809 -652.12518 -527.16223 4294967295
292.11865 -651.10065 -527.34552 4294967295
177.37151 -648.73877 -527.02167 4294967295
181.40181 -649.05139 -527.02081 4294967295
184.98853 -649.33795 -527.12653 4294967295
187.19484 -649.4967 -527.03851 4294967295
189.4498 -649.67133 -527.04126 4294967295
193.60461 -649.99933 -527.16046 4294967295
195.46747 -650.14063 -527.19342 4294967295
197.35938 -650.23419 -527.04602 4294967295
199.44684 -650.44794 -527.46991 4294967295
201.41573 -650.51501 -527.06396 4294967295
291.53394 -649.20715 -527.68579 4294967295
292.97202 -649.93103 -527.28308 4294967295
129.2468 -645.38135 -527.09021 4294967295
131.26552 -645.5271 -527.06287 4294967295
159.39677 -647.60492 -527.06696 4294967295
161.53996 -647.68951 -527.00531 4294967295
292.46826 -646.17981 -527.64594 4294967295
293.69699 -647.92737 -527.22174 4294967295
294.00537 -645.91333 -527.19666 4294967295
97.542885 -643.04657 -527.01337 4294967295
99.597694 -643.19769 -527.04053 4294967295
293.1218 -643.55743 -527.52258 4294967295
63.366421 -640.63464 -527.04382 4294967295
291.76004 -641.46204 -527.96997 4294967295
292.82498 -639.75928 -527.49408 4294967295
293.01657 -641.46057 -527.55652 4294967295
294.41595 -641.26794 -527.08575 4294967295
2.0414896 -636.2771 -527.57196 4294967295
289.41769 -636.51874 -527.65942 4294967295
291.52179 -637.66235 -527.48547 4294967295
-40.431328 -633.65552 -527.02051 4294967295
-18.369757 -635.09454 -527.03046 4294967295
-6.6684575 -635.91815 -527.14905 4294967295
-3.4718082 -635.9538 -527.43695 4294967295
275.12695 -633.11627 -527.59766 4294967295
278.20853 -633.60321 -527.82526 4294967295
280.13144 -633.64746 -527.57623 4294967295
281.60425 -633.74408 -527.53949 4294967295
284.88284 -634.5509 -527.40436 4294967295
-96.632103 -630.11334 -527.94299 4294967295
-90.281418 -630.51013 -527.45129 4294967295
-88.839691 -630.68231 -527.85986 4294967295
-86.788643 -630.68481 -527.33032 4294967295
-84.582581 -630.81744 -527.42279 4294967295
-82.798424 -630.84869 -527.00183 4294967295
-80.991135 -630.97388 -527.11371 4294967295
-74.262001 -631.40192 -527.07135 4294967295
-70.622841 -631.69092 -527.13098 4294967295
-68.926628 -631.80951 -527.3363 4294967295
249.34222 -630.69373 -527.66669 4294967295
251.73865 -630.80225 -527.6897 4294967295
253.76353 -630.91406 -527.71741 4294967295
255.46474 -631.01978 -527.94257 4294967295
259.42102 -631.28577 -527.8504 4294967295
267.67599 -631.96515 -527.80969 4294967295
271.43661 -632.78021 -527.88092 4294967295
273.77051 -632.7597 -527.21051 4294967295
-119.37386 -628.00916 -527.50671 4294967295
201.64029 -627.81976 -527.8125 4294967295
204.33678 -627.96857 -527.34753 4294967295
207.32968 -628.08936 -527.08093 4294967295
209.6526 -628.24017 -527.2063 4294967295
211.2722 -628.36218 -527.17938 4294967295
217.20523 -628.78595 -527.07452 4294967295
219.37967 -628.93048 -527.08118 4294967295
221.59245 -629.06085 -527.10199 4294967295
223.53157 -629.16504 -527.14349 4294967295
225.22411 -629.27625 -527.11249 4294967295
227.38849 -629.39801 -527.38306 4294967295
97.820908 -621.11224 -527.14349 4294967295
-136.57278 -618.82208 -527.77661 4294967295
-136.04974 -616.96356 -527.89984 4294967295
-138.60498 -613.77344 -527.15967 4294967295
-136.80328 -613.49414 -527.74933 4294967295
-138.85847 -610.04175 -527.24017 4294967295
-136.52902 -610.14685 -527.55035 4294967295
-133.08661 -609.9408 -527.92603 4294967295
-44.817562 -610.87714 -527.16022 4294967295
-138.5764 -608.1767 -527.03906 4294967295
-136.60327 -606.81696 -527.0556 4294967295
-135.04007 -608.46204 -527.42981 4294967295
-131.36488 -607.84528 -527.08691 4294967295
-129.30899 -608.3512 -527.36377 4294967295
-127.12553 -608.0423 -527.15802 4294967295
-124.45207 -608.41217 -527.82904 4294967295
-122.25035 -607.67322 -527.48303 4294967295
-118.2439 -606.99457 -527.20966 4294967295
-116.36333 -607.58093 -527.96857 4294967295
-114.74386 -607.10626 -527.15692 4294967295
-111.44135 -607.29297 -527.24335 4294967295
-109.09578 -607.40057 -527.58099 4294967295
-106.25969 -607.22046 -527.50018 4294967295
-98.397804 -607.20459 -527.60535 4294967295
-96.576668 -607.33411 -527.75409 4294967295
-94.558662 -607.58044 -527.15149 4294967295
-92.85704 -607.70673 -527.255 4294967295
272.48502 -654.80951 -526.44391 4294967295
273.56476 -654.73645 -526.00842 4294967295
274.93713 -654.3089 -526.43866 4294967295
281.4097 -654.07556 -526.60486 4294967295
283.03238 -654.06525 -526.71857 4294967295
285.86313 -654.39642 -526.29773 4294967295
289.66925 -654.43115 -526.05408 4294967295
217.13225 -651.61548 -526.97375 4294967295
277.3808 -653.83179 -526.73151 4294967295
279.56824 -653.71875 -526.90131 4294967295
285.71039 -653.68262 -526.90979 4294967295
287.27231 -653.84192 -526.57892 4294967295
289.18607 -653.74976 -526.57355 4294967295
290.37061 -653.8363 -526.52094 4294967295
291.70178 -653.32385 -526.64227 4294967295
293.49686 -652.10248 -526.79303 4294967295
295.39777 -652.92749 -526.27649 4294967295
297.32327 -652.46564 -526.3623 4294967295
179.31279 -648.95074 -526.86505 4294967295
183.60248 -649.21021 -526.99054 4294967295
191.40326 -649.80023 -526.95984 4294967295
295.15558 -650.16724 -526.74695 4294967295
297.22662 -649.44745 -526.21527 4294967295
153.25534 -646.99054 -526.95544 4294967295
155.67659 -647.2713 -526.99249 4294967295
163.77791 -647.85565 -526.98743 4294967295
295.73685 -647.19354 -526.63898 4294967295
295.24799 -644.00305 -526.83093 4294967295
296.87897 -644.92499 -526.28424 4294967295
297.6196 -642.19244 -526.078 4294967295
47.057037 -639.51117 -526.95166 4294967295
51.418121 -639.78778 -526.90491 4294967295
53.375977 -639.90503 -526.82123 4294967295
55.902763 -640.0899 -526.979 4294967295
57.617298 -640.16992 -526.95093 4294967295
59.612587 -640.30383 -526.83386 4294967295
61.523205 -640.43835 -526.755 4294967295
64.913414 -640.68805 -526.76605 4294967295
75.774094 -641.56781 -526.87415 4294967295
294.3562 -639.42297 -526.97906 4294967295
295.87427 -640.62585 -526.58118 4294967295
297.43033 -639.84637 -526.07458 4294967295
291.10968 -636.07397 -526.85291 4294967295
292.40948 -636.42578 -526.66248 4294967295
293.56213 -637.78601 -526.88812 4294967295
294.91116 -637.91907 -526.52271 4294967295
296.30103 -638.17358 -526.15887 4294967295
-42.165165 -633.52698 -526.88293 4294967295
-38.184811 -633.87366 -526.96899 4294967295
-36.406147 -633.94836 -526.98755 4294967295
-22.459505 -634.78625 -526.90594 4294967295
-20.427767 -634.94604 -526.94794 4294967295
-16.661911 -635.21295 -526.9411 4294967295
-14.525395 -635.27887 -526.82465 4294967295
-13.073427 -635.38867 -526.93579 4294967295
-10.322724 -635.55945 -526.75079 4294967295
-8.9588547 -635.69629 -526.96674 4294967295
283.09415 -633.685 -526.62189 4294967295
286.75555 -634.45209 -526.62537 4294967295
288.4671 -634.87164 -526.50659 4294967295
290.1785 -635.20978 -526.37305 4294967295
-79.18129 -631.06207 -526.90741 4294967295
-77.12883 -631.19141 -526.88483 4294967295
273.78229 -632.21069 -526.07788 4294967295
277.28152 -632.90668 -526.02271 4294967295
-116.61457 -628.45679 -526.20416 4294967295
-114.89619 -628.87305 -526.82568 4294967295
-112.74345 -629.10962 -526.15436 4294967295
-111.14355 -629.19244 -526.03937 4294967295
141.64217 -624.08392 -526.98273 4294967295
143.70535 -624.25592 -526.89667 4294967295
145.37329 -624.36322 -526.78876 4294967295
147.51973 -624.52155 -526.82758 4294967295
149.32021 -624.66687 -526.92999 4294967295
111.32145 -622.01483 -526.83136 4294967295
117.2623 -622.49438 -526.80499 4294967295
135.52301 -623.69525 -526.84113 4294967295
139.2518 -623.95605 -526.99524 4294967295
87.562012 -620.08997 -526.73407 4294967295
90.06749 -620.47589 -526.78424 4294967295
93.143181 -620.79926 -526.43848 4294967295
95.228325 -620.948 -526.77393 4294967295
31.771532 -616.24609 -526.94061 4294967295
39.335201 -616.86639 -526.91223 4294967295
-26.961823 -612.10175 -526.82977 4294967295
-24.929689 -612.24121 -526.84192 4294967295
-22.792309 -612.36725 -526.71368 4294967295
-20.433571 -612.54865 -526.79993 4294967295
-140.77135 -610.68903 -526.66046 4294967295
-56.574577 -610.06836 -526.91632 4294967295
-52.636703 -610.34296 -526.63629 4294967295
-50.779118 -610.46002 -526.99719 4294967295
-48.284748 -610.66156 -526.84521 4294967295
-46.5592 -610.77747 -526.90546 4294967295
-42.510956 -611.06921 -526.78302 4294967295
-40.39468 -611.21277 -526.75677 4294967295
-30.354752 -611.88629 -526.73541 4294967295
-140.60594 -608.46716 -526.45691 4294967295
-138.54556 -606.55121 -526.3916 4294967295
-133.97 -607.07025 -526.73767 4294967295
-131.94267 -606.5625 -526.22546 4294967295
-125.03011 -606.93335 -526.09656 4294967295
-123.59419 -607.36865 -526.89221 4294967295
-120.20612 -607.02631 -526.95593 4294967295
-117.07963 -606.55878 -526.25256 4294967295
-113.87377 -606.80292 -526.11792 4294967295
-112.60484 -606.94568 -526.3584 4294967295
-102.21705 -607.32001 -526.98358 4294967295
-88.61689 -608.09491 -526.8559 4294967295
259.40512 -654.53882 -525.3894 4294967295
261.68671 -654.80182 -525.66467 4294967295
265.31479 -655.10736 -525.71307 4294967295
267.68655 -655.34735 -525.80341 4294967295
269.62863 -655.14978 -525.91473 4294967295
271.13489 -655.03772 -525.729 4294967295
275.79837 -654.80353 -525.08582 4294967295
278.72177 -654.59778 -525.73126 4294967295
280.05078 -654.68243 -525.7403 4294967295
282.61282 -654.84174 -525.77545 4294967295
284.3645 -654.68042 -525.94745 4294967295
286.08234 -655.05719 -525.32764 4294967295
288.33017 -655.16089 -525.02954 4294967295
290.8479 -654.7489 -525.59839 4294967295
293.27777 -654.24225 -525.91699 4294967295
295.55063 -655.50043 -525.44965 4294967295
299.23624 -654.3349 -525.05499 4294967295
299.77383 -652.50177 -525.3197 4294967295
189.47083 -649.38409 -525.14453 4294967295
199.43114 -650.06683 -525.02948 4294967295
299.5463 -650.02631 -525.49579 4294967295
298.28784 -647.28497 -525.80896 4294967295
299.41849 -644.91589 -525.42151 4294967295
300.62891 -642.64624 -525.14642 4294967295
299.25186 -640.25116 -525.60876 4294967295
301.89978 -640.22516 -525.04156 4294967295
293.92773 -636.08569 -525.98608 4294967295
295.59604 -636.6463 -525.87506 4294967295
297.42883 -636.63397 -525.37 4294967295
298.02563 -638.55054 -525.76971 4294967295
299.7291 -638.01306 -525.43604 4294967295
-18.744152 -634.8175 -525.1192 4294967295
279.60394 -633.03217 -525.82648 4294967295
281.50955 -633.21924 -525.95709 4294967295
284.61923 -633.56598 -525.54578 4294967295
285.92752 -633.80255 -525.68213 4294967295
287.53857 -633.88599 -525.09717 4294967295
291.89847 -635.12225 -525.70044 4294967295
295.59979 -635.41052 -525.14117 4294967295
-88.36087 -630.16742 -525.16034 4294967295
-81.152733 -630.61688 -525.04303 4294967295
257.22525 -631.33087 -525.14691 4294967295
261.62231 -631.56006 -525.00464 4294967295
267.56326 -631.71893 -525.50665 4294967295
271.50641 -631.94501 -525.79199 4294967295
275.19189 -632.56433 -525.22449 4294967295
-119.87206 -628.18561 -525.69208 4294967295
-92.93882 -629.81085 -525.17969 4294967295
207.44807 -628.14514 -525.28949 4294967295
209.76508 -628.33472 -525.01263 4294967295
213.22336 -628.63147 -525.00012 4294967295
-142.69676 -608.14154 -525.79962 4294967295
-140.50024 -606.33038 -525.71765 4294967295
-129.21088 -606.31226 -525.26001 4294967295
-126.91207 -606.69861 -525.80872 4294967295
-122.37746 -606.54211 -525.703 4294967295
-120.23309 -606.21216 -525.14264 4294967295
-118.57923 -606.32324 -525.55109 4294967295
-115.46903 -606.62335 -525.95642 4294967295
-112.9794 -606.6156 -525.22736 4294967295
-108.2463 -606.84448 -525.21405 4294967295
-106.60043 -606.53833 -525.88568 4294967295
-98.792259 -607.4928 -525.00629 4294967295
-138.95717 -605.21973 -525.25043 4294967295
-136.52684 -604.90588 -525.25739 4294967295
-133.06567 -605.56329 -525.15778 4294967295
277.41855 -654.95087 -524.70483 4294967295
279.39786 -655.20288 -524.23212 4294967295
281.35678 -655.19043 -524.89563 4294967295
283.02075 -655.34039 -524.78467 4294967295
292.71271 -655.88574 -524.31097 4294967295
297.42337 -655.6767 -524.78223 4294967295
301.75491 -654.34387 -524.14935 4294967295
221.66997 -651.66431 -524.94971 4294967295
223.57944 -651.79382 -524.96545 4294967295
227.53259 -652.15234 -524.93652 4294967295
229.35861 -652.29431 -524.97571 4294967295
233.32327 -652.59711 -524.98822 4294967295
241.48756 -653.21875 -524.75671 4294967295
301.71921 -652.52032 -524.80878 4294967295
303.54404 -652.46985 -524.12872 4294967295
181.45038 -648.68402 -524.84619 4294967295
185.41785 -648.95447 -524.7442 4294967295
193.49046 -649.60516 -524.91962 4294967295
197.42494 -649.88318 -524.90698 4294967295
155.60696 -646.81366 -524.78021 4294967295
157.30318 -646.99255 -524.86499 4294967295
159.83371 -647.19525 -524.76532 4294967295
161.49789 -647.3277 -524.8894 4294967295
128.95148 -644.99023 -524.87286 4294967295
49.661003 -639.25928 -524.53888 4294967295
55.763466 -639.7066 -524.68512 4294967295
57.612118 -639.82324 -524.69629 4294967295
59.575108 -639.93042 -524.63257 4294967295
61.487175 -639.99884 -524.26978 4294967295
65.080956 -640.26703 -524.40814 4294967295
67.699455 -640.44989 -524.44098 4294967295
303.36536 -637.91809 -524.45856 4294967295
-36.746807 -633.55493 -524.9137 4294967295
-16.49687 -634.79059 -524.70557 4294967295
-12.845625 -635.01831 -524.67255 4294967295
-10.64182 -635.26129 -524.85089 4294967295
-8.7255335 -635.38214 -524.75098 4294967295
-4.9780288 -635.56921 -524.63861 4294967295
283.25812 -633.16943 -524.30829 4294967295
289.9418 -634.17755 -524.74017 4294967295
292.09149 -634.11578 -524.14185 4294967295
293.79288 -634.63055 -524.77332 4294967295
297.36511 -634.97009 -524.79498 4294967295
299.46194 -634.99078 -524.14307 4294967295
-86.909393 -630.17377 -524.8371 4294967295
-84.688271 -630.32648 -524.82605 4294967295
-74.177956 -631.06958 -524.82532 4294967295
-54.08609 -632.34058 -524.68652 4294967295
243.5172 -630.66974 -524.5304 4294967295
249.35378 -630.87555 -524.94958 4294967295
251.48135 -630.98035 -524.98639 4294967295
253.53166 -631.0921 -524.97974 4294967295
203.19347 -627.99249 -524.77582 4294967295
205.34114 -628.11615 -524.78259 4294967295
211.37535 -628.47913 -524.82581 4294967295
217.06967 -628.90759 -524.89429 4294967295
219.60503 -629.08173 -524.94537 4294967295
221.69112 -629.2392 -524.70929 4294967295
223.62228 -629.33002 -524.88879 4294967295
139.56497 -624.08167 -524.34155 4294967295
141.42334 -624.2146 -524.40637 4294967295
143.43498 -624.3371 -524.67395 4294967295
145.2923 -624.48401 -524.32104 4294967295
147.37498 -624.63184 -524.33099 4294967295
153.70981 -625.02612 -524.10785 4294967295
157.71881 -625.22821 -524.52057 4294967295
105.60098 -621.75171 -524.17767 4294967295
119.70448 -622.70166 -524.65216 4294967295
123.37489 -622.9425 -524.70453 4294967295
129.29756 -623.37927 -524.33368 4294967295
135.53168 -623.78046 -524.63116 4294967295
137.33727 -623.90302 -524.68182 4294967295
53.863747 -618.10309 -524.2843 4294967295
57.128605 -618.34827 -524.20941 4294967295
85.647316 -619.94128 -524.40253 4294967295
89.305809 -620.38141 -524.63782 4294967295
91.679153 -620.72821 -524.3656 4294967295
93.587189 -620.909 -524.25464 4294967295
95.396683 -620.94885 -524.84705 4294967295
29.305843 -616.12738 -524.82977 4294967295
31.599045 -616.33044 -524.35522 4294967295
35.21817 -616.61951 -524.35144 4294967295
-30.233393 -612.00018 -524.61572 4294967295
-28.654161 -612.09717 -524.75598 4294967295
-26.592001 -612.22498 -524.62323 4294967295
-24.956678 -612.31305 -524.9425 4294967295
-22.877962 -612.49445 -524.46167 4294967295
-20.546732 -612.67297 -524.38422 4294967295
-18.428251 -612.78998 -524.5965 4294967295
-8.5788279 -613.35504 -524.83923 4294967295
-52.284893 -610.52509 -524.54993 4294967295
-50.708969 -610.65704 -524.60443 4294967295
-48.506016 -610.80872 -524.63995 4294967295
-46.974308 -610.87274 -524.88159 4294967295
-44.637486 -611.03815 -524.59644 4294967295
-42.767086 -611.14514 -524.78809 4294967295
-32.132973 -611.87769 -524.52155 4294967295
-144.58804 -606.15088 -524.51453 4294967295
-125.92518 -606.05225 -524.49664 4294967295
-123.92524 -606.07092 -524.40839 4294967295
-116.7589 -606.20111 -524.36566 4294967295
-111.25944 -606.74475 -524.86066 4294967295
-100.88679 -607.30615 -524.74023 4294967295
-83.48938 -608.57678 -524.74719 4294967295
-142.83408 -604.94025 -524.0094 4294967295
-140.354 -604.86011 -524.54407 4294967295
-137.04285 -604.45544 -524.47729 4294967295
-134.74557 -604.34332 -524.07483 4294967295
-121.01227 -605.93182 -524.07086 4294967295
269.69565 -654.9295 -523.52875 4294967295
273.38489 -654.94489 -523.89337 4294967295
275.92569 -655.12299 -523.55164 4294967295
280.79086 -655.46924 -523.59174 4294967295
282.1832 -655.60425 -523.42346 4294967295
284.36536 -655.5965 -523.83838 4294967295
286.28415 -655.71686 -523.9035 4294967295
287.24896 -655.95319 -523.2157 4294967295
288.47742 -656.04205 -523.35541 4294967295
290.09869 -655.97437 -523.76074 4294967295
295.03113 -656.87787 -523.36499 4294967295
297.47855 -656.81909 -523.16901 4294967295
299.32745 -656.44104 -523.51276 4294967295
301.38779 -655.85419 -523.43274 4294967295
305.93948 -640.3205 -523.77887 4294967295
305.56989 -636.86133 -523.1156 4294967295
307.82486 -638.11993 -523.05225 4294967295
285.84296 -633.30316 -523.32776 4294967295
288.45334 -633.51245 -523.25964 4294967295
293.80554 -633.66461 -523.68073 4294967295
295.65063 -633.89612 -523.81183 4294967295
297.50635 -633.99292 -523.36627 4294967295
301.27127 -635.09094 -523.58521 4294967295
302.89893 -635.70898 -523.5495 4294967295
269.52856 -632.10321 -523.07825 4294967295
276.84866 -632.61096 -523.2948 4294967295
278.90833 -632.76416 -523.90497 4294967295
281.0415 -632.90186 -523.57758 4294967295
97.184517 -620.9082 -523.013 4294967295
-114.1256 -606.40802 -523.72949 4294967295
-140.83597 -604.23969 -523.44269 4294967295
-126.62637 -605.60559 -523.44037 4294967295
-122.40314 -605.85699 -523.72485 4294967295
-118.96196 -605.93402 -523.22662 4294967295
292.97986 -657.02777 -522.52173 4294967295
295.45065 -657.19061 -522.03174 4294967295
267.42047 -654.79529 -522.9812 4294967295
277.63321 -655.24805 -522.64752 4294967295
289.08511 -656.29303 -522.67346 4294967295
291.51459 -656.55133 -522.90582 4294967295
302.11899 -656.24268 -522.91571 4294967295
303.30127 -655.89154 -522.73645 4294967295
305.45859 -654.23114 -522.86224 4294967295
307.15857 -654.31354 -522.21533 4294967295
229.0947 -651.87915 -522.80969 4294967295
231.56824 -651.98193 -522.58087 4294967295
233.4944 -652.11536 -522.67285 4294967295
237.48535 -652.49573 -522.66156 4294967295
241.71454 -652.80707 -522.70929 4294967295
243.38452 -652.8941 -522.84985 4294967295
247.20171 -653.24908 -522.93945 4294967295
189.63429 -648.81702 -522.19025 4294967295
191.77948 -649.00323 -522.3158 4294967295
193.37854 -649.13519 -522.32172 4294967295
195.21841 -649.36676 -522.8468 4294967295
197.52516 -649.51404 -522.73712 4294967295
199.62119 -649.6369 -522.65631 4294967295
203.46579 -649.87042 -522.4903 4294967295
153.74976 -646.27209 -522.06866 4294967295
155.33743 -646.41278 -522.35089 4294967295
157.4446 -646.58765 -522.40277 4294967295
159.92918 -646.78241 -522.31342 4294967295
176.07291 -647.88306 -522.38385 4294967295
95.390045 -642.15198 -522.12982 4294967295
69.287674 -640.1236 -522.06689 4294967295
79.374046 -640.99878 -522.32294 4294967295
83.666435 -641.19495 -522.01404 4294967295
89.71479 -641.64386 -522.10571 4294967295
21.913527 -636.95361 -522.11298 4294967295
44.798542 -638.58136 -522.29822 4294967295
49.417744 -638.8631 -522.05286 4294967295
-30.601921 -633.52185 -522.22821 4294967295
-20.657875 -634.22583 -522.11536 4294967295
-14.110366 -634.67975 -522.22278 4294967295
-8.9344168 -634.99414 -522.1424 4294967295
-5.0198302 -635.1922 -522.19385 4294967295
297.37814 -633.54736 -522.12097 4294967295
299.59796 -634.04169 -522.64362 4294967295
305.17032 -635.23804 -522.10706 4294967295
-82.458725 -630.03168 -522.15753 4294967295
-81.087578 -630.2077 -522.67426 4294967295
-76.894936 -630.57343 -522.50677 4294967295
-62.584343 -631.4588 -522.47131 4294967295
-60.436466 -631.57471 -522.289 4294967295
-59.015526 -631.76959 -522.94116 4294967295
235.15776 -630.24573 -522.46234 4294967295
237.56183 -630.40912 -522.63501 4294967295
239.86719 -630.56311 -522.57648 4294967295
241.37479 -630.66016 -522.71655 4294967295
243.43214 -630.77008 -522.48553 4294967295
247.48839 -630.93719 -522.66907 4294967295
249.22331 -630.88989 -522.67651 4294967295
251.39742 -630.97656 -522.83984 4294967295
253.23868 -631.12677 -522.73175 4294967295
255.40428 -631.31213 -522.79431 4294967295
257.17178 -631.44025 -522.72888 4294967295
273.97891 -632.37177 -522.89838 4294967295
275.0495 -632.41528 -522.99847 4294967295
190.93695 -627.22772 -522.87549 4294967295
193.43535 -627.47089 -522.24188 4294967295
199.23331 -627.90808 -522.06445 4294967295
203.27766 -628.12866 -522.40942 4294967295
205.35213 -628.2533 -522.15747 4294967295
207.83243 -628.3833 -522.31042 4294967295
209.65805 -628.49115 -522.18542 4294967295
213.537 -628.78485 -522.59106 4294967295
219.44325 -629.19513 -522.67914 4294967295
221.54173 -629.33533 -522.38208 4294967295
223.31902 -629.45209 -522.61206 4294967295
225.13339 -629.57849 -522.26074 4294967295
227.29828 -629.66675 -522.70538 4294967295
185.20494 -626.88202 -522.05347 4294967295
91.742943 -620.7594 -522.41602 4294967295
-78.495522 -609.10541 -522.02386 4294967295
-68.241096 -609.70013 -522.0368 4294967295
-32.44289 -611.98676 -522.0119 4294967295
-109.30903 -606.74127 -522.56567 4294967295
-102.01196 -607.34088 -522.59656 4294967295
-100.93555 -607.5083 -522.67755 4294967295
-98.513062 -607.67584 -522.24945 4294967295
-96.500893 -607.7691 -522.63293 4294967295
-86.750832 -608.55859 -522.06519 4294967295
-84.111832 -608.78217 -522.10846 4294967295
-143.24063 -603.87122 -522.17743 4294967295
-138.79242 -603.54834 -522.07788 4294967295
-135.54562 -603.97211 -522.59082 4294967295
-120.97053 -605.71759 -522.46661 4294967295
291.83685 -657.11719 -521.86804 4294967295
299.73926 -657.25024 -521.64423 4294967295
301.43204 -657.2337 -521.30609 4294967295
275.5972 -655.05975 -521.41608 4294967295
280.19617 -655.43811 -521.65063 4294967295
282.95966 -655.69867 -521.50903 4294967295
285.48654 -655.93109 -521.81677 4294967295
287.89774 -656.22394 -521.59094 4294967295
290.1178 -656.52985 -521.66394 4294967295
305.34015 -656.4549 -521.56329 4294967295
309.72348 -652.12982 -521.83771 4294967295
311.51822 -652.26544 -521.17908 4294967295
97.676254 -642.35962 -521.92267 4294967295
99.24958 -642.45532 -521.96301 4294967295
101.31718 -642.65039 -521.90198 4294967295
131.6613 -644.8338 -521.86224 4294967295
311.48187 -643.67163 -521.44373 4294967295
53.762253 -639.1413 -521.83868 4294967295
57.409878 -639.32605 -521.99658 4294967295
61.167198 -639.53363 -521.8717 4294967295
63.113453 -639.65942 -521.74481 4294967295
64.920715 -639.78729 -521.90167 4294967295
67.718491 -639.94269 -521.83667 4294967295
73.669594 -640.49445 -521.83398 4294967295
85.63649 -641.31726 -521.89319 4294967295
87.5327 -641.54047 -521.97736 4294967295
19.200027 -636.71674 -521.75391 4294967295
39.483971 -638.13037 -521.54297 4294967295
47.482082 -638.77246 -521.5957 4294967295
51.636227 -638.98743 -521.80695 4294967295
-36.497128 -633.16748 -521.92725 4294967295
-28.031067 -633.65735 -521.91901 4294967295
-16.55192 -634.49127 -521.89978 4294967295
-10.067857 -634.89795 -521.93414 4294967295
-6.5442281 -635.06976 -521.85693 4294967295
-0.97448158 -635.27478 -521.86591 4294967295
287.99774 -633.23273 -521.11945 4294967295
291.13474 -633.46124 -521.74152 4294967295
293.66788 -633.28607 -521.88751 4294967295
301.54498 -634.01648 -521.80609 4294967295
307.34918 -635.52686 -521.65344 4294967295
-55.973335 -631.711 -521.4541 4294967295
189.6171 -627.10968 -521.71869 4294967295
201.53946 -628.05463 -521.88379 4294967295
139.58949 -624.11713 -521.78284 4294967295
141.56638 -624.24603 -521.66132 4294967295
143.38399 -624.40076 -521.82147 4294967295
145.40187 -624.53119 -521.74945 4294967295
147.25072 -624.65979 -521.81445 4294967295
149.42128 -624.82141 -521.56628 4294967295
153.37788 -625.11694 -521.77936 4294967295
155.13051 -625.20093 -521.76831 4294967295
159.26323 -625.28217 -521.93738 4294967295
165.6947 -625.64795 -521.56683 4294967295
167.75182 -625.9043 -521.90192 4294967295
169.36967 -626.08905 -521.92725 4294967295
187.50862 -626.98486 -521.80603 4294967295
103.40774 -621.37 -521.06842 4294967295
105.56236 -621.60297 -521.71216 4294967295
109.29333 -621.88501 -521.74915 4294967295
111.37486 -622.13898 -521.68115 4294967295
115.01608 -622.41888 -521.54077 4294967295
117.28733 -622.59784 -521.65289 4294967295
119.65647 -622.75336 -521.64331 4294967295
121.56306 -622.84796 -521.57428 4294967295
123.27631 -622.89587 -521.64899 4294967295
125.23586 -623.02252 -521.63611 4294967295
127.49135 -623.25604 -521.76251 4294967295
130.93867 -623.52972 -521.7724 4294967295
133.73407 -623.70697 -521.32782 4294967295
135.36499 -623.72974 -521.79999 4294967295
137.42497 -623.83838 -521.65948 4294967295
57.421421 -618.08594 -521.69214 4294967295
59.515347 -618.3501 -521.70642 4294967295
61.283676 -618.38953 -521.78607 4294967295
67.278664 -619.01099 -521.84174 4294967295
69.206688 -619.10028 -521.58966 4294967295
71.269012 -619.29218 -521.74255 4294967295
73.40004 -619.44714 -521.63391 4294967295
89.437111 -620.21033 -521.65979 4294967295
93.549126 -620.85211 -521.67303 4294967295
95.291954 -620.96985 -521.67413 4294967295
17.373831 -615.12543 -521.68781 4294967295
19.078512 -615.27228 -521.73035 4294967295
23.154388 -615.50702 -521.55585 4294967295
27.255924 -615.8399 -521.72986 4294967295
29.623432 -616.00836 -521.72461 4294967295
31.554117 -616.14618 -521.63623 4294967295
33.529797 -616.32751 -521.73694 4294967295
35.245152 -616.59027 -521.69659 4294967295
37.431446 -616.80341 -521.60901 4294967295
39.537453 -616.71942 -521.54352 4294967295
40.768532 -616.81262 -521.77258 4294967295
45.089329 -617.09204 -521.53638 4294967295
49.49506 -617.46252 -521.51355 4294967295
51.827484 -617.64337 -521.63757 4294967295
53.578789 -617.78723 -521.72595 4294967295
55.471703 -617.92236 -521.80499 4294967295
-30.375477 -612.12482 -521.7821 4294967295
-28.484652 -612.25201 -521.73206 4294967295
-26.260498 -612.41718 -521.69434 4294967295
-24.148348 -612.55591 -521.64539 4294967295
-20.704367 -612.7157 -521.98376 4294967295
-18.559612 -612.8078 -521.84656 4294967295
-16.508505 -612.96808 -521.64954 4294967295
-12.367929 -613.17865 -521.94745 4294967295
-8.5708303 -613.43427 -521.56293 4294967295
-6.7075434 -613.47229 -521.63477 4294967295
-4.7088437 -613.57843 -521.8302 4294967295
-0.48235923 -613.90948 -521.56708 4294967295
3.2379296 -614.15869 -521.84009 4294967295
5.5540986 -614.33508 -521.68207 4294967295
7.4096446 -614.46252 -521.56604 4294967295
9.4409523 -614.64587 -521.68884 4294967295
11.576744 -614.77808 -521.57947 4294967295
13.398345 -614.90082 -521.83392 4294967295
-74.064583 -609.30768 -521.16492 4294967295
-72.530205 -609.45068 -521.95093 4294967295
-70.491608 -609.58124 -521.93964 4294967295
-64.602562 -609.89868 -521.8819 4294967295
-50.79105 -610.80316 -521.94342 4294967295
-46.566483 -611.00543 -521.86737 4294967295
-44.700665 -611.18982 -521.82935 4294967295
-42.903015 -611.2724 -521.87451 4294967295
-40.147835 -611.42889 -521.91809 4294967295
-38.450691 -611.54584 -521.68506 4294967295
-36.53307 -611.69501 -521.91193 4294967295
-34.560299 -611.83453 -521.70496 4294967295
-116.20197 -606.11578 -521.64435 4294967295
-114.17234 -606.32959 -521.09662 4294967295
-112.2113 -606.54144 -521.18671 4294967295
-82.239822 -608.94092 -521.88214 4294967295
-144.90668 -603.74561 -521.53827 4294967295
-140.75188 -603.64063 -521.90625 4294967295
-136.61427 -603.82166 -521.97375 4294967295
-123.53507 -605.54291 -521.87103 4294967295
295.63318 -657.43701 -520.05231 4294967295
299.49423 -657.70905 -520.04108 4294967295
267.56885 -654.32227 -520.49188 4294967295
271.13074 -654.65991 -520.31964 4294967295
273.77789 -654.82153 -520.37451 4294967295
277.57498 -655.12378 -520.09314 4294967295
311.56708 -654.48834 -520.86115 4294967295
227.49879 -651.24182 -520.12219 4294967295
241.22972 -652.26447 -520.09259 4294967295
247.45535 -652.68799 -520.10425 4294967295
249.60188 -652.87109 -520.1618 4294967295
251.43898 -652.9917 -520.12042 4294967295
257.60834 -653.39905 -520.18542 4294967295
261.73224 -653.79437 -520.20923 4294967295
313.53302 -652.11743 -520.38654 4294967295
205.07611 -649.7486 -520.03632 4294967295
311.63321 -649.29999 -520.97632 4294967295
313.67322 -649.56409 -520.24286 4294967295
311.77139 -647.12378 -520.91461 4294967295
315.63367 -640.05267 -520.63818 4294967295
315.19269 -637.4231 -520.4325 4294967295
285.93082 -633.11896 -520.51849 4294967295
301.77161 -633.42444 -520.20038 4294967295
-69.448051 -630.71161 -520.30524 4294967295
235.323 -630.33929 -520.0556 4294967295
237.6725 -630.53241 -520.20215 4294967295
243.23434 -630.90131 -520.05933 4294967295
247.45235 -630.93701 -520.15009 4294967295
256.9968 -631.62799 -520.16425 4294967295
269.707 -632.34424 -520.55432 4294967295
273.65564 -632.46954 -520.72046 4294967295
274.92178 -632.53082 -520.69446 4294967295
279.25064 -632.75775 -520.88605 4294967295
207.02376 -628.32629 -520.25244 4294967295
69.288765 -618.51538 -520.13495 4294967295
83.344887 -619.30249 -520.95172 4294967295
85.481392 -619.47375 -520.93256 4294967295
87.419884 -619.92194 -520.93225 4294967295
91.571899 -620.40216 -520.71094 4294967295
93.451889 -620.15387 -520.03082 4294967295
97.781433 -620.52527 -520.01544 4294967295
43.509594 -616.97241 -520.92651 4294967295
47.666382 -617.12024 -520.91241 4294967295
-60.791271 -609.71033 -520.10962 4294967295
-110.18978 -606.72351 -520.40381 4294967295
-107.41688 -606.87012 -520.97217 4294967295
-104.35138 -607.16943 -520.55927 4294967295
-87.165909 -608.099 -520.08978 4294967295
-80.830849 -608.62695 -520.03412 4294967295
-145.65511 -603.36523 -520.35065 4294967295
301.71902 -657.67029 -519.81506 4294967295
303.60849 -657.59094 -519.80542 4294967295
305.45505 -657.60236 -519.73145 4294967295
283.85385 -655.67035 -519.44775 4294967295
286.13895 -655.90625 -519.1488 4294967295
291.59955 -656.82428 -519.55353 4294967295
309.56665 -656.99902 -519.80682 4294967295
314.70898 -654.46588 -519.69153 4294967295
225.48724 -651.05469 -519.9707 4294967295
231.51245 -651.53137 -519.98639 4294967295
234.87485 -651.7749 -519.87885 4294967295
237.2612 -651.94946 -519.84058 4294967295
239.3548 -652.08472 -519.73291 4294967295
243.81996 -652.39099 -519.8811 4294967295
245.51851 -652.52161 -519.93835 4294967295
263.43719 -653.93579 -519.88104 4294967295
315.68365 -652.02307 -519.48273 4294967295
183.20953 -648.01154 -519.59766 4294967295
185.39807 -648.16486 -519.60468 4294967295
187.43507 -648.30438 -519.71057 4294967295
191.5731 -648.63025 -519.73322 4294967295
193.51793 -648.92096 -519.62146 4294967295
195.39848 -649.01526 -519.84247 4294967295
197.41692 -649.04193 -519.80402 4294967295
198.9883 -649.26349 -519.72815 4294967295
201.44107 -649.41748 -519.72571 4294967295
203.59998 -649.59607 -519.71094 4294967295
207.7822 -649.69409 -519.67413 4294967295
223.57574 -650.89862 -519.88721 4294967295
315.84406 -649.18805 -519.33502 4294967295
153.60272 -645.94891 -519.52722 4294967295
155.39108 -646.2619 -519.62323 4294967295
157.31639 -646.42169 -519.56879 4294967295
159.79503 -646.60541 -519.78851 4294967295
163.40308 -646.87207 -519.81177 4294967295
165.31024 -646.99695 -519.69287 4294967295
167.16789 -647.13196 -519.7348 4294967295
175.72655 -647.51318 -519.58533 4294967295
179.48393 -647.77844 -519.6026 4294967295
181.50302 -647.88953 -519.50043 4294967295
315.60889 -647.2417 -519.3606 4294967295
93.407051 -642.0155 -519.49951 4294967295
95.535385 -642.09216 -519.52429 4294967295
315.54059 -644.98193 -519.66296 4294967295
49.804977 -639.00836 -519.35059 4294967295
53.664948 -639.39954 -519.7121 4294967295
55.750835 -639.55658 -519.84729 4294967295
59.386482 -639.73785 -519.92035 4294967295
61.068634 -639.8623 -519.95563 4294967295
65.090363 -640.10809 -519.9306 4294967295
67.722923 -640.31293 -519.92389 4294967295
71.630096 -640.51862 -519.79535 4294967295
73.526283 -640.67157 -519.73926 4294967295
77.298454 -641.06421 -519.58936 4294967295
81.992836 -641.35217 -519.50793 4294967295
87.512184 -641.68793 -519.7439 4294967295
91.375099 -641.80121 -519.7179 4294967295
317.49619 -639.96033 -519.71014 4294967295
41.864979 -638.6142 -519.66718 4294967295
43.551048 -638.68091 -519.80011 4294967295
45.247726 -638.84265 -519.55322 4294967295
47.528683 -638.93164 -519.52563 4294967295
317.54532 -637.89069 -519.68689 4294967295
-13.106944 -634.81519 -519.05658 4294967295
-6.7249565 -635.26007 -519.78992 4294967295
-2.319648 -635.50134 -519.74896 4294967295
-0.42805976 -635.56812 -519.6803 4294967295
1.5942891 -635.50775 -519.77423 4294967295
293.59286 -633.26007 -519.1358 4294967295
295.54169 -633.2088 -519.92517 4294967295
297.1886 -633.24609 -519.66699 4294967295
299.50754 -633.26471 -519.75867 4294967295
303.78183 -633.76233 -519.98438 4294967295
305.63916 -633.90717 -519.76257 4294967295
307.45651 -634.185 -519.65546 4294967295
315.25345 -635.44568 -519.33478 4294967295
-72.261009 -630.43127 -519.10651 4294967295
-64.869148 -630.91589 -519.65302 4294967295
-62.563343 -631.27301 -519.01105 4294967295
-60.510616 -631.34753 -519.10675 4294967295
-56.688007 -631.62836 -519.12219 4294967295
233.51543 -630.17767 -519.72223 4294967295
239.66367 -630.67542 -519.93439 4294967295
241.49736 -630.80841 -519.82068 4294967295
245.75436 -630.90033 -519.94849 4294967295
251.2798 -631.03406 -519.86438 4294967295
253.14639 -631.32617 -519.96057 4294967295
255.1853 -631.48926 -519.93152 4294967295
-86.19371 -629.28992 -519.40344 4294967295
-84.363197 -629.49988 -519.97076 4294967295
-82.367165 -629.69019 -519.89819 4294967295
-78.358643 -629.93384 -519.04169 4294967295
193.35646 -627.13922 -519.88568 4294967295
197.29034 -627.48407 -519.8476 4294967295
201.46783 -627.77673 -519.49542 4294967295
203.36316 -627.9328 -519.64612 4294967295
205.4709 -628.0639 -519.52643 4294967295
211.1474 -628.58252 -519.74939 4294967295
213.61469 -628.79395 -519.57745 4294967295
215.08063 -628.92078 -519.7605 4294967295
219.23271 -629.15625 -519.72217 4294967295
223.27904 -629.47217 -519.92676 4294967295
225.41258 -629.49731 -519.93335 4294967295
227.59032 -629.62823 -519.74829 4294967295
229.57724 -629.87146 -519.73871 4294967295
231.24377 -629.99219 -519.69836 4294967295
151.3214 -624.29688 -519.65686 4294967295
157.40427 -624.78864 -519.81201 4294967295
159.23856 -624.73651 -519.48627 4294967295
163.7588 -624.86377 -519.22437 4294967295
167.69319 -625.35553 -519.63831 4294967295
169.60413 -625.52924 -519.56458 4294967295
171.44446 -625.72705 -519.75275 4294967295
185.2756 -626.43665 -519.74506 4294967295
