# .PCD v0.7 - Point Cloud Data file format
VERSION 0.7
FIELDS x y z rgba
SIZE 4 4 4 4
TYPE F F F U
COUNT 1 1 1 1
WIDTH 1147
HEIGHT 1
VIEWPOINT 0 0 0 1 0 0 0
POINTS 1147
DATA ascii
432.37881 532.88812 -93.241943 4294967295
413.39822 532.94708 -92.71051 4294967295
417.06989 533.99567 -92.202744 4294967295
428.27734 531.62378 -92.667038 4294967295
434.26511 535.69043 -92.501656 4294967295
434.65134 537.62799 -92.465645 4294967295
434.522 549.38654 -92.688515 4294967295
417.32959 559.13257 -92.055534 4294967295
418.42862 558.62579 -92.940331 4294967295
414.35556 566.47308 -92.899864 4294967295
411.19077 528.06177 -91.54229 4294967295
434.1734 553.93298 -91.064842 4294967295
414.48044 561.8158 -91.989784 4294967295
411.93268 533.3186 -90.656212 4294967295
413.26505 533.68964 -90.958862 4294967295
426.02072 531.88159 -90.830956 4294967295
430.33264 532.02362 -90.460846 4294967295
432.6568 533.95435 -90.169083 4294967295
433.97885 536.00415 -90.811867 4294967295
434.3024 538.06323 -90.839149 4294967295
414.01163 561.02472 -90.53038 4294967295
415.09308 533.93188 -89.976753 4294967295
412.83517 534.07086 -89.094505 4294967295
433.77655 541.13727 -89.294502 4294967295
415.55115 559.14063 -89.251106 4294967295
409.84848 531.6153 -88.551727 4294967295
411.07361 533.45361 -88.91433 4294967295
426.0166 531.84436 -88.39106 4294967295
428.72916 531.81909 -88.473679 4294967295
431.46738 532.89954 -88.756561 4294967295
433.285 535.71295 -88.423988 4294967295
433.83182 537.82233 -88.951782 4294967295
433.82928 552.98767 -88.885803 4294967295
433.05954 555.19531 -88.636833 4294967295
416.75647 558.55988 -88.906128 4294967295
408.93405 531.43561 -87.203781 4294967295
416.41006 533.98071 -87.4702 4294967295
412.61298 534.29993 -87.518509 4294967295
432.45529 555.63281 -87.199394 4294967295
409.07953 533.25189 -86.659904 4294967295
426.15991 531.85181 -86.544441 4294967295
429.67075 532.53821 -86.710922 4294967295
432.36487 535.63702 -86.115112 4294967295
433.26129 538.09692 -86.869751 4294967295
432.95926 542.92584 -86.973671 4294967295
433.2572 550.57111 -86.567444 4294967295
433.15973 553.83838 -86.768173 4294967295
430.46704 556.95612 -86.412025 4294967295
407.32361 531.38898 -85.108322 4294967295
408.93997 534.41315 -85.31102 4294967295
410.60281 534.54828 -85.439117 4294967295
411.77017 534.46259 -85.92469 4294967295
414.45926 534.32697 -85.396927 4294967295
431.71664 534.89606 -85.202438 4294967295
407.8356 533.60541 -84.852203 4294967295
417.21432 533.49219 -84.761093 4294967295
421.55252 532.51978 -84.685585 4294967295
426.17657 531.92072 -84.237793 4294967295
429.99094 532.9704 -84.742577 4294967295
412.11005 534.57605 -84.044388 4294967295
432.52005 537.82471 -84.625412 4294967295
432.18719 541.4978 -84.357063 4294967295
432.72885 550.47192 -84.789429 4294967295
432.54028 553.96155 -84.932068 4294967295
423.06305 557.72314 -84.456642 4294967295
426.13336 557.84979 -84.851601 4294967295
431.78433 555.49219 -84.768845 4294967295
405.78076 531.44012 -83.322929 4294967295
406.56464 533.8725 -83.053886 4294967295
428.26819 532.52625 -83.66629 4294967295
408.81927 534.86035 -83.293846 4294967295
414.74481 534.04565 -83.199661 4294967295
431.62888 546.8783 -83.137421 4294967295
417.38281 557.95074 -83.175537 4294967295
419.19659 557.74255 -83.620377 4294967295
426.93115 557.75989 -83.15889 4294967295
430.34476 556.56573 -83.156464 4294967295
414.7485 558.2558 -83.374733 4294967295
417.20627 533.41815 -82.841644 4294967295
419.48843 532.78644 -82.77742 4294967295
421.65948 532.40594 -82.836716 4294967295
424.16135 532.03455 -82.78125 4294967295
426.34195 532.07697 -82.426636 4294967295
428.01123 532.62933 -82.15802 4294967295
430.00867 533.64496 -82.952469 4294967295
406.12512 534.34668 -82.118004 4294967295
431.30383 535.75134 -82.238617 4294967295
431.86575 537.82379 -82.861923 4294967295
431.44748 541.5321 -82.440094 4294967295
431.65411 549.00641 -82.5112 4294967295
432.07275 551.92206 -82.535019 4294967295
431.85651 553.80316 -82.978371 4294967295
421.54431 557.87726 -82.997276 4294967295
428.66907 557.52887 -82.79879 4294967295
424.38614 558.03931 -82.82859 4294967295
404.34399 532.125 -81.458847 4294967295
415.22968 533.72833 -81.02684 4294967295
408.21747 535.16949 -81.708961 4294967295
410.04218 535.04639 -81.734238 4294967295
412.09375 534.7262 -81.660355 4294967295
430.11258 534.41913 -81.35424 4294967295
431.03674 555.13391 -81.436653 4294967295
419.50424 558.10657 -81.043732 4294967295
404.56277 533.41943 -80.967125 4294967295
417.30603 533.27203 -80.870888 4294967295
421.64975 532.34967 -80.748184 4294967295
424.35062 532.04559 -80.569572 4294967295
427.79526 532.85999 -80.267105 4294967295
405.57156 534.64978 -80.811424 4294967295
430.69269 546.69617 -80.53466 4294967295
431.33896 551.93884 -80.671089 4294967295
428.2612 557.40497 -80.606766 4294967295
421.93924 558.22473 -80.64122 4294967295
424.9126 558.3335 -80.74971 4294967295
426.01462 558.10181 -80.186172 4294967295
404.9906 565.24255 -80.88884 4294967295
402.29654 530.74121 -79.606117 4294967295
406.64584 535.45526 -79.302147 4294967295
407.74991 535.48468 -79.641037 4294967295
410.29443 535.06494 -79.819115 4294967295
429.96985 535.55225 -79.083488 4294967295
430.58923 538.33075 -79.118851 4294967295
430.65179 553.90039 -79.330536 4294967295
428.93585 556.67847 -79.025307 4294967295
404.82294 562.48724 -79.49102 4294967295
402.36316 533.05682 -78.030602 4294967295
417.51871 532.99835 -78.858879 4294967295
419.57974 532.60632 -78.912788 4294967295
424.48267 532.13129 -78.45369 4294967295
426.6311 532.64539 -78.401993 4294967295
428.07111 533.25873 -78.821922 4294967295
403.44156 534.01147 -78.919212 4294967295
405.20563 535.1427 -78.805145 4294967295
407.61856 535.54987 -78.043053 4294967295
429.37552 534.6059 -78.768013 4294967295
430.07471 544.95898 -78.86467 4294967295
430.2569 550.49255 -78.326447 4294967295
426.53778 557.95032 -78.276405 4294967295
427.50323 557.58502 -78.611397 4294967295
419.46271 558.43579 -78.969246 4294967295
422.40048 558.47821 -78.611626 4294967295
424.48584 558.45282 -78.390129 4294967295
403.54587 562.96136 -78.309921 4294967295
400.44345 529.82837 -77.020378 4294967295
401.5528 532.51685 -77.343369 4294967295
403.53351 534.61292 -77.076477 4294967295
405.11749 535.33936 -77.233276 4294967295
411.36752 534.6842 -77.409668 4294967295
429.78305 539.93835 -77.011902 4294967295
403.20303 562.21875 -77.351151 4294967295
401.29749 565.00824 -77.001183 4294967295
422.7041 532.22034 -76.59977 4294967295
424.91702 532.49347 -76.486053 4294967295
429.48846 535.75153 -76.646317 4294967295
429.36841 548.93811 -76.335281 4294967295
429.24057 553.99933 -76.254105 4294967295
427.70328 557.24402 -76.75161 4294967295
422.51514 558.69385 -76.398293 4294967295
425.06393 558.37555 -76.489082 4294967295
402.02579 562.6795 -76.776787 4294967295
399.45715 531.55328 -75.244682 4294967295
400.97916 533.46667 -75.171997 4294967295
402.13004 534.41626 -75.046165 4294967295
405.44366 535.64752 -75.277077 4294967295
406.54196 560.60492 -75.760544 4294967295
419.69742 558.73993 -75.069389 4294967295
404.13577 561.10034 -75.347816 4294967295
419.43997 532.59393 -74.457207 4294967295
422.81689 532.36438 -74.442299 4294967295
426.10413 532.93713 -74.43586 4294967295
403.65833 535.22662 -74.373863 4294967295
408.84311 535.39581 -74.922958 4294967295
427.63324 534.00818 -74.957588 4294967295
428.38257 535.55078 -74.412941 4294967295
428.81055 554.38995 -74.915421 4294967295
425.74936 557.81891 -74.730957 4294967295
409.58972 560.09619 -74.841408 4294967295
415.56229 559.07745 -74.899925 4294967295
422.83084 558.76666 -74.206818 4294967295
398.88818 563.57013 -74.959587 4294967295
400.70309 534.02454 -73.105896 4294967295
402.80276 535.08624 -73.177528 4294967295
405.12659 560.65082 -73.218742 4294967295
396.85214 564.26721 -73.363365 4294967295
413.26196 533.73224 -72.706421 4294967295
417.41794 532.82275 -72.730408 4294967295
424.23196 532.92474 -72.248131 4294967295
407.20789 535.66949 -72.955757 4294967295
399.70798 560.66168 -72.12886 4294967295
410.9451 560.10376 -72.761765 4294967295
420.86481 559.12 -72.132202 4294967295
423.9437 558.32129 -72.231094 4294967295
397.71191 533.3197 -71.045303 4294967295
420.61316 532.42358 -71.918228 4294967295
423.12924 532.71643 -71.969185 4294967295
401.6488 534.78235 -71.290985 4294967295
425.98163 534.02417 -71.705833 4294967295
405.42529 560.62787 -71.006859 4294967295
394.36563 563.7132 -71.34938 4294967295
395.53363 562.51849 -71.786545 4294967295
396.31656 561.9527 -71.997139 4294967295
393.63248 565.82153 -71.295204 4294967295
415.62589 533.03223 -70.855469 4294967295
418.1788 532.63171 -70.222618 4294967295
422.37314 532.90729 -70.139259 4294967295
424.5386 533.37305 -70.281128 4294967295
398.81009 560.37433 -70.020508 4294967295
417.58389 559.52789 -70.256927 4294967295
422.41827 558.70868 -70.381996 4294967295
393.54584 562.58813 -70.029625 4294967295
393.3515 531.24884 -69.964104 4294967295
395.20029 533.12109 -69.79007 4294967295
420.94046 532.73071 -69.72612 4294967295
424.93039 534.57239 -69.13369 4294967295
396.81888 560.69629 -69.691986 4294967295
395.21658 561.15662 -69.209938 4294967295
391.05121 565.16156 -69.047783 4294967295
392.03436 565.01099 -69.877563 4294967295
391.75974 533.18463 -68.430855 4294967295
393.74976 533.41907 -68.917824 4294967295
413.62491 533.33557 -68.747978 4294967295
416.37119 532.77747 -68.263748 4294967295
418.33954 532.77289 -68.127113 4294967295
421.97961 533.27783 -68.402466 4294967295
398.98819 534.72089 -68.953781 4294967295
401.14703 535.07477 -68.554405 4294967295
403.28296 535.20331 -68.662476 4294967295
424.9541 536.41895 -68.060654 4294967295
402.64569 560.27216 -68.741554 4294967295
404.54202 560.47137 -68.864655 4294967295
420.68921 559.07214 -68.377602 4294967295
421.88385 558.7113 -68.586487 4294967295
390.19739 563.76593 -68.065392 4294967295
391.31503 568.03168 -68.897606 4294967295
393.45007 535.21674 -67.26593 4294967295
395.24509 535.30322 -67.172256 4294967295
396.9494 534.92371 -67.805984 4294967295
399.47842 535.11646 -67.351685 4294967295
394.7955 560.86957 -67.682899 4294967295
396.91904 560.45642 -67.73774 4294967295
400.85077 560.11664 -67.540756 4294967295
411.68738 560.54358 -67.036842 4294967295
416.84656 559.91022 -67.808899 4294967295
389.1897 563.48254 -67.014809 4294967295
391.24332 562.35107 -67.987366 4294967295
393.02335 561.37457 -67.435822 4294967295
389.26187 568.01428 -67.402054 4294967295
416.4873 532.98596 -66.040787 4294967295
421.55762 533.78992 -66.633232 4294967295
423.59036 537.46344 -66.119072 4294967295
422.99884 557.38831 -66.990356 4294967295
413.90854 560.37701 -66.621635 4294967295
416.3764 560.07715 -66.419609 4294967295
417.9425 559.77557 -66.089943 4294967295
419.86636 559.17798 -66.07798 4294967295
421.62262 558.51154 -66.90448 4294967295
387.45624 563.71594 -66.190544 4294967295
387.11749 568.03021 -66.062225 4294967295
418.14841 533.0741 -65.958397 4294967295
395.34384 536.22247 -65.164322 4294967295
397.53021 535.81232 -65.048668 4294967295
401.40259 535.21112 -65.28669 4294967295
394.27597 560.59204 -65.221291 4294967295
397.19644 560.27979 -65.525208 4294967295
387.18497 562.95038 -65.554314 4294967295
389.81784 561.74219 -65.038513 4294967295
391.04129 561.4953 -65.692078 4294967295
385.12662 564.45715 -65.003105 4294967295
419.76208 533.83411 -64.968338 4294967295
385.33197 536.04486 -64.313278 4294967295
386.89444 536.65277 -64.357719 4294967295
388.73489 536.44177 -64.971611 4294967295
403.12662 535.04407 -64.765106 4294967295
405.61304 534.79407 -64.807327 4294967295
421.85812 556.82275 -64.9645 4294967295
401.49695 560.30896 -64.76664 4294967295
408.9783 560.72333 -64.327583 4294967295
411.93845 560.66107 -64.924995 4294967295
413.94513 560.57349 -64.107544 4294967295
416.22134 560.1394 -64.22982 4294967295
418.10626 559.599 -64.258987 4294967295
385.12454 563.18677 -64.487022 4294967295
390.80267 561.15753 -64.039589 4294967295
383.66385 536.26324 -63.676163 4294967295
397.05573 536.27533 -63.179291 4294967295
386.86557 537.36096 -63.048351 4294967295
391.33163 537.14447 -63.702015 4294967295
392.60065 560.77539 -63.578411 4294967295
394.82062 560.58643 -63.354992 4294967295
399.74298 560.44568 -63.043999 4294967295
383.38962 563.80182 -63.836185 4294967295
387.12952 561.65051 -63.429924 4294967295
388.41089 561.60858 -63.566238 4294967295
381.88046 536.24689 -62.452496 4294967295
382.80484 537.49158 -62.188461 4294967295
383.32068 537.03546 -62.909653 4294967295
384.68701 537.66919 -62.052822 4294967295
419.78577 556.85132 -62.505131 4294967295
397.45706 560.53992 -62.787106 4294967295
412.39709 560.72565 -62.167774 4294967295
415.56186 560.16913 -62.475601 4294967295
417.95477 559.08685 -62.320309 4294967295
419.50287 558.03021 -62.876328 4294967295
380.05209 564.2312 -62.082005 4294967295
381.03375 537.65918 -61.186058 4294967295
386.86789 537.80957 -61.562847 4294967295
389.03134 537.66541 -61.796909 4294967295
391.85434 537.56195 -61.759369 4294967295
418.98535 556.5462 -61.187302 4294967295
390.64767 560.96515 -61.597046 4294967295
393.11612 560.84558 -61.482914 4294967295
379.21899 563.35669 -61.064598 4294967295
381.91562 562.52826 -61.575939 4294967295
384.73486 561.8468 -61.932919 4294967295
379.54739 537.4577 -60.615467 4294967295
417.65009 557.99731 -60.554001 4294967295
407.82666 560.71521 -60.771961 4294967295
412.62238 560.40784 -60.199539 4294967295
415.82608 559.69763 -60.663521 4294967295
377.53339 563.28412 -60.032356 4294967295
384.65353 561.57422 -60.446709 4294967295
375.3428 565.77161 -60.063786 4294967295
377.2547 536.73444 -59.890392 4294967295
377.62637 537.15601 -59.457005 4294967295
383.57849 538.2439 -59.473232 4294967295
385.2323 538.18695 -59.776222 4294967295
387.36212 538.07495 -59.846596 4294967295
389.19971 537.98724 -59.321552 4294967295
391.78854 537.62567 -59.068371 4294967295
410.06927 560.77368 -59.892269 4294967295
415.92325 558.87756 -59.371876 4294967295
379.24249 562.24255 -59.174881 4294967295
381.99405 561.84827 -59.899338 4294967295
386.93188 561.18732 -59.761036 4294967295
388.84421 561.10547 -59.597866 4294967295
392.80676 561.0788 -59.142235 4294967295
375.35074 536.80981 -58.88512 4294967295
402.01361 534.87048 -58.311977 4294967295
416.80389 556.58765 -58.713219 4294967295
405.61795 560.79218 -58.798313 4294967295
410.3483 560.67822 -58.188217 4294967295
412.4859 560.08698 -58.289379 4294967295
373.54794 564.3205 -58.665836 4294967295
371.26117 567.49268 -58.810875 4294967295
373.60156 537.39154 -57.447636 4294967295
376.41519 538.07837 -57.908524 4294967295
378.97955 538.58899 -57.746849 4294967295
381.25024 538.51337 -57.655449 4294967295
385.10062 538.46411 -57.671928 4294967295
387.74323 538.08264 -57.316082 4294967295
389.60568 537.83234 -57.039207 4294967295
371.6347 563.59161 -57.250725 4294967295
372.96143 563.5097 -57.573002 4294967295
375.65024 562.55347 -57.124588 4294967295
376.80478 562.30011 -57.457989 4294967295
378.93793 561.81293 -57.734634 4294967295
380.95636 561.66486 -57.870213 4294967295
387.30212 561.31409 -57.455456 4294967295
391.51971 561.32959 -57.039032 4294967295
367.04541 567.07782 -57.431252 4294967295
369.50018 535.71185 -56.938747 4294967295
397.78824 535.91553 -56.911682 4294967295
371.33578 537.11786 -56.894627 4294967295
410.21585 560.2641 -56.220913 4294967295
411.66052 559.94714 -56.665012 4294967295
413.51239 559.04913 -56.92997 4294967295
389.04813 561.37073 -56.954071 4294967295
403.8519 561.07458 -56.296322 4294967295
367.35077 564.52454 -56.510578 4294967295
369.5968 564.09418 -56.943089 4294967295
396.46594 535.97675 -55.11483 4294967295
373.88599 538.6333 -55.431431 4294967295
374.88416 538.62091 -55.918953 4294967295
377.03549 538.87817 -55.955215 4294967295
379.17502 538.89307 -55.680252 4294967295
413.90018 557.53314 -55.947296 4294967295
406.08508 560.95319 -55.990368 4294967295
408.14828 560.66046 -55.987801 4294967295
411.85184 559.19354 -55.010342 4294967295
365.64316 563.79688 -55.105221 4294967295
369.36508 563.11127 -55.19582 4294967295
371.68002 562.83447 -55.685406 4294967295
372.79907 562.65594 -55.679089 4294967295
375.46191 562.18695 -55.537956 4294967295
377.01651 561.83929 -55.802422 4294967295
361.68735 566.84674 -55.888699 4294967295
363.22766 565.57581 -55.74361 4294967295
365.04214 564.74603 -55.872311 4294967295
359.25189 571.41144 -55.214767 4294967295
359.90671 536.54468 -54.252888 4294967295
398.61841 535.3916 -54.714546 4294967295
359.56433 537.1391 -54.06694 4294967295
369.24695 538.20886 -54.832664 4294967295
393.13055 537.07977 -54.92215 4294967295
411.69376 557.0105 -54.017879 4294967295
406.92789 560.7135 -54.067955 4294967295
408.00055 560.41455 -54.142002 4294967295
409.72769 560.13043 -54.80785 4294967295
411.99194 558.14526 -54.717308 4294967295
366.94617 563.36218 -54.754646 4294967295
372.91257 562.31006 -54.005276 4294967295
391.29572 561.57379 -54.889961 4294967295
355.40149 566.29022 -54.129974 4294967295
357.50525 565.5166 -54.181393 4294967295
359.43805 565.81879 -54.957905 4294967295
361.47681 565.12524 -54.941528 4294967295
347.37842 569.5387 -54.055679 4294967295
349.62177 569.89209 -54.172573 4294967295
350.90588 569.73462 -54.214165 4294967295
351.59286 567.5993 -54.108032 4294967295
353.44659 568.82581 -54.408684 4294967295
355.35934 568.72607 -54.647045 4294967295
357.14142 568.59534 -54.974922 4294967295
351.05417 572.72107 -54.012001 4294967295
353.65118 572.58783 -54.249844 4294967295
355.52319 572.60455 -54.493912 4294967295
357.49539 572.6615 -54.785866 4294967295
353.27771 574.46423 -54.126949 4294967295
353.74869 533.30524 -53.058804 4294967295
356.14627 533.68378 -53.607738 4294967295
351.73795 535.60303 -53.087395 4294967295
355.43588 536.05475 -53.574642 4294967295
399.16602 534.9032 -53.046711 4294967295
353.94531 537.8739 -53.141586 4294967295
357.59665 537.70032 -53.797985 4294967295
374.60864 539.21002 -53.785133 4294967295
377.09708 539.11603 -53.752468 4294967295
379.45972 538.87903 -53.084473 4294967295
363.05066 563.51007 -53.370495 4294967295
365.16922 563.28082 -53.689556 4294967295
375.10641 561.9585 -53.629242 4294967295
401.92606 561.43982 -53.552761 4294967295
404.65842 561.02051 -53.441311 4294967295
345.05444 566.61566 -53.243706 4294967295
351.38873 566.52625 -53.694008 4294967295
353.65314 566.42847 -53.930176 4294967295
355.48434 564.90332 -53.318081 4294967295
359.16644 564.28082 -53.729939 4294967295
327.12424 569.73895 -53.203117 4294967295
329.27118 568.81799 -53.320435 4294967295
331.39798 569.54095 -53.588734 4294967295
333.15979 567.86279 -53.171452 4294967295
337.39432 568.61774 -53.518963 4294967295
339.31427 568.77405 -53.591812 4294967295
341.15076 567.78564 -53.461048 4294967295
343.30515 568.56897 -53.725334 4294967295
347.44955 567.83569 -53.88744 4294967295
349.0939 567.69122 -53.94894 4294967295
51.610443 589.82477 -53.254337 4294967295
55.28846 589.40973 -53.078678 4294967295
56.890347 589.17535 -53.007912 4294967295
65.044861 588.95239 -53.062321 4294967295
55.072956 591.8382 -53.159431 4294967295
351.27014 532.26282 -52.488808 4294967295
352.99561 531.05426 -52.598434 4294967295
347.39047 535.83655 -52.611126 4294967295
349.87067 535.91992 -52.888889 4294967295
393.74466 536.47919 -52.691055 4294967295
397.67752 535.03278 -52.139709 4294967295
323.78006 539.80402 -52.125469 4294967295
329.45651 538.05005 -52.35331 4294967295
339.70145 539.81879 -52.057827 4294967295
345.44479 538.13678 -52.334072 4294967295
349.16925 538.13055 -52.497204 4294967295
350.78073 537.88818 -52.729431 4294967295
351.38831 538.98016 -52.403652 4294967295
354.11438 538.95337 -52.73341 4294967295
357.48642 539.51917 -52.490227 4294967295
359.35297 539.54492 -52.355919 4294967295
409.92502 556.69556 -52.144878 4294967295
410.37674 556.76685 -52.765629 4294967295
406.10229 560.6767 -52.107319 4294967295
408.08096 559.9834 -52.415516 4294967295
409.62521 558.6084 -52.82523 4294967295
365.08807 562.935 -52.036079 4294967295
393.38345 561.74005 -52.841351 4294967295
395.49414 561.698 -52.686882 4294967295
397.36157 561.69794 -52.329472 4294967295
331.14175 566.00513 -52.276974 4294967295
333.39169 566.31793 -52.443436 4294967295
335.67044 566.36438 -52.604904 4294967295
339.42905 566.21149 -52.64484 4294967295
341.40338 566.32794 -52.81456 4294967295
343.74039 565.88422 -52.714695 4294967295
345.36816 565.23944 -52.275021 4294967295
347.12302 565.22656 -52.459915 4294967295
349.4292 565.25604 -52.679798 4294967295
351.12415 565.11975 -52.780064 4294967295
357.56104 564.16614 -52.861916 4294967295
307.15775 568.05426 -52.278542 4294967295
311.28793 569.00787 -52.487854 4294967295
313.69495 569.09399 -52.589069 4294967295
315.51685 569.50769 -52.860416 4294967295
319.50232 568.38654 -52.538044 4294967295
323.16293 568.50494 -52.761696 4294967295
324.86661 567.06006 -52.17062 4294967295
329.44724 567.22174 -52.639427 4294967295
275.10947 572.67816 -52.183071 4294967295
277.1528 572.14551 -52.181782 4294967295
287.82098 571.31085 -52.326317 4294967295
291.4548 571.72577 -52.441467 4294967295
293.20154 571.22192 -52.551994 4294967295
251.20654 574.71631 -52.15596 4294967295
253.14963 574.73151 -52.247742 4294967295
255.68411 573.31323 -52.047031 4294967295
257.17596 574.67975 -52.510815 4294967295
259.37848 574.90552 -52.696594 4294967295
261.82639 574.64722 -52.286633 4294967295
264.9169 573.724 -52.162403 4294967295
233.33495 577.06787 -52.01125 4294967295
235.19151 577.47064 -52.094322 4294967295
257.35327 577.71368 -52.21619 4294967295
41.248913 587.97552 -52.271542 4294967295
47.643879 587.91687 -52.521488 4294967295
51.405846 586.77209 -52.007721 4294967295
55.475189 587.02515 -52.17466 4294967295
57.202911 586.93048 -52.198208 4294967295
61.568024 586.68243 -52.277905 4294967295
63.458275 586.33752 -52.206303 4294967295
65.289978 586.47479 -52.270149 4294967295
67.023048 586.40466 -52.325031 4294967295
69.278435 586.99274 -52.710354 4294967295
71.252274 587.65137 -52.63826 4294967295
73.554787 586.94983 -52.399181 4294967295
75.3507 586.61273 -52.182465 4294967295
81.508423 586.49847 -52.00296 4294967295
82.743149 586.54749 -52.05933 4294967295
83.232994 587.78632 -52.61924 4294967295
85.754974 587.76526 -52.504196 4294967295
87.655617 586.77026 -52.257385 4294967295
89.552498 586.73065 -52.487888 4294967295
90.960419 586.99451 -52.551041 4294967295
93.379601 585.59583 -52.168339 4294967295
105.45284 586.80408 -52.209705 4294967295
107.49696 586.65857 -52.26926 4294967295
111.1144 585.85602 -52.028873 4294967295
139.51529 585.97931 -52.016174 4294967295
42.75795 588.47577 -52.621635 4294967295
43.660858 589.13776 -52.959579 4294967295
52.907505 588.25684 -52.675884 4294967295
59.304306 588.00891 -52.633759 4294967295
61.053211 588.36487 -52.681095 4294967295
63.47871 588.25995 -52.75317 4294967295
67.449272 589.84167 -52.96114 4294967295
69.221779 589.99176 -52.911613 4294967295
71.422951 589.66565 -52.831913 4294967295
87.146759 590.11731 -52.653038 4294967295
396.66364 535.28442 -51.552734 4294967295
327.05823 539.69464 -51.854534 4294967295
343.10843 539.86304 -51.866955 4294967295
345.7117 539.53656 -51.991268 4294967295
377.45779 539.09576 -51.228386 4294967295
283.62753 542.30579 -51.200123 4294967295
285.22797 542.17102 -51.387272 4294967295
289.55615 542.61194 -51.421772 4294967295
309.77725 542.56396 -51.565289 4294967295
313.46674 542.26398 -51.624035 4294967295
315.42816 541.61597 -51.729095 4294967295
317.83408 541.8396 -51.535282 4294967295
321.68781 542.16589 -51.12751 4294967295
327.19617 541.77985 -51.001167 4294967295
347.44308 540.73157 -51.288021 4294967295
349.19507 540.82318 -51.316345 4294967295
351.3447 540.62213 -51.307644 4294967295
353.31842 540.63275 -51.226048 4294967295
355.3175 540.4613 -51.718678 4294967295
273.77142 544.00708 -51.036999 4294967295
287.34695 543.79449 -51.006603 4294967295
313.39435 543.00812 -51.323017 4294967295
77.684357 554.95618 -51.268402 4294967295
65.948288 555.80945 -51.301991 4294967295
67.573456 555.71552 -51.33828 4294967295
68.821358 557.56329 -51.362789 4294967295
69.723938 555.49152 -51.324554 4294967295
72.315186 556.29645 -51.456287 4294967295
73.743202 557.66754 -51.329533 4294967295
75.422012 556.35095 -51.337437 4294967295
79.244247 556.26184 -51.525871 4294967295
81.524307 557.01508 -51.285858 4294967295
83.652557 556.53442 -51.466209 4294967295
86.02742 555.67163 -51.254498 4294967295
88.372192 556.67706 -51.222095 4294967295
408.25058 557.27917 -51.036556 4294967295
54.221619 560.32751 -51.561008 4294967295
55.691479 558.91669 -51.873043 4294967295
58.484245 558.43982 -51.73716 4294967295
63.950527 559.46655 -51.353157 4294967295
66.536285 558.70251 -51.347008 4294967295
71.457726 558.05347 -51.448219 4294967295
84.805893 558.07001 -51.118813 4294967295
408.71603 558.38806 -51.657722 4294967295
61.766548 561.51636 -51.079414 4294967295
354.96909 563.86493 -51.705593 4294967295
359.19455 563.31183 -51.878929 4294967295
361.22391 563.27576 -51.839359 4294967295
362.87201 563.11884 -51.891552 4294967295
367.28058 562.55585 -51.851826 4294967295
370.88232 562.41431 -51.506649 4294967295
372.76953 562.37012 -51.242596 4294967295
375.53024 562.28668 -51.098892 4294967295
400.39319 561.62439 -51.883556 4294967295
402.77536 561.16394 -51.384769 4294967295
319.53452 566.97437 -51.62228 4294967295
321.53973 566.42938 -51.235878 4294967295
324.19559 566.69397 -51.732338 4294967295
325.54785 565.91644 -51.133678 4294967295
329.23547 565.65094 -51.615898 4294967295
333.34018 565.4306 -51.291607 4294967295
337.58475 565.18274 -51.168545 4294967295
341.54501 564.94836 -51.271526 4294967295
343.60529 564.73285 -51.247345 4294967295
345.56424 564.59247 -51.252602 4294967295
349.35736 564.30969 -51.25988 4294967295
351.16 564.12927 -51.207542 4294967295
281.38663 569.5047 -51.146656 4294967295
289.43478 569.4906 -51.803337 4294967295
291.44547 569.38794 -51.88055 4294967295
293.60049 568.43457 -51.358421 4294967295
311.42947 567.22491 -51.290508 4294967295
251.4825 572.66052 -51.250374 4294967295
253.5424 572.12048 -51.112129 4294967295
255.40616 572.31183 -51.516163 4294967295
257.28293 572.61627 -51.612461 4294967295
259.25363 572.4021 -51.570667 4294967295
261.22055 572.44495 -51.586151 4294967295
263.18201 572.05719 -51.264416 4294967295
273.52231 570.62811 -51.033318 4294967295
275.58191 570.56702 -51.33466 4294967295
277.36096 570.01715 -51.163601 4294967295
225.37546 575.50391 -51.100224 4294967295
227.40399 575.62573 -51.277309 4294967295
228.98004 575.81067 -51.450878 4294967295
230.64354 574.98877 -51.177826 4294967295
233.10611 575.44598 -51.458614 4294967295
235.23903 575.91022 -51.701389 4294967295
189.66669 578.22205 -51.016582 4294967295
190.76741 578.39789 -51.029793 4294967295
195.40326 577.91846 -51.012356 4294967295
203.42773 577.61749 -51.438923 4294967295
209.40756 576.50348 -51.31638 4294967295
211.27396 577.01111 -51.381737 4294967295
212.98169 576.38342 -51.136368 4294967295
213.09903 577.67676 -51.616806 4294967295
215.29158 576.88843 -51.391487 4294967295
216.99669 576.78589 -51.520351 4294967295
229.33572 577.43115 -51.99725 4294967295
231.17879 576.9671 -51.962112 4294967295
153.15527 581.09546 -51.277515 4294967295
157.67252 581.64545 -51.590397 4294967295
159.36983 580.68799 -51.093204 4294967295
161.50418 581.12085 -51.303936 4294967295
163.31259 580.5769 -51.174129 4294967295
167.59729 580.83044 -51.236588 4294967295
169.46854 581.79504 -51.609459 4294967295
171.36368 581.53485 -51.592274 4294967295
173.49834 580.94873 -51.588654 4294967295
175.24231 580.95129 -51.636059 4294967295
185.21518 580.47913 -51.626534 4294967295
188.07286 579.11462 -51.301548 4294967295
189.48688 580.73474 -51.580654 4294967295
191.1707 579.75494 -51.509186 4294967295
193.3582 579.81494 -51.44516 4294967295
195.33868 579.68152 -51.544594 4294967295
197.55768 579.59595 -51.553703 4294967295
199.334 579.38397 -51.616562 4294967295
201.70566 579.51001 -51.73476 4294967295
203.39745 579.68176 -51.824253 4294967295
205.72322 579.51672 -51.920227 4294967295
207.32774 579.63409 -51.843838 4294967295
209.23979 579.55151 -51.867615 4294967295
211.42639 579.74402 -51.865345 4294967295
83.467369 584.91132 -51.051311 4294967295
87.301163 584.65173 -51.217918 4294967295
91.482712 584.66089 -51.599903 4294967295
93.348824 584.87421 -51.756256 4294967295
97.431412 584.48004 -51.432598 4294967295
102.92854 584.71118 -51.699352 4294967295
105.32547 583.90887 -51.226315 4294967295
107.17899 584.54175 -51.520054 4294967295
109.69579 584.39606 -51.43478 4294967295
111.65915 584.45227 -51.511387 4294967295
113.67805 584.37488 -51.604198 4294967295
125.46086 582.93317 -51.372032 4294967295
127.49509 582.55682 -51.100227 4294967295
130.89839 582.81567 -51.253315 4294967295
133.31041 583.76733 -51.758194 4294967295
139.28885 583.77991 -51.773277 4294967295
141.58452 583.78595 -51.745266 4294967295
143.49185 582.13745 -51.182461 4294967295
145.10529 583.77124 -51.751228 4294967295
148.02849 584.0036 -51.72514 4294967295
151.22665 582.98962 -51.778614 4294967295
159.45663 583.55499 -51.909882 4294967295
163.6282 583.70349 -51.800751 4294967295
165.41791 583.32184 -51.976402 4294967295
167.0462 584.04901 -51.819832 4294967295
171.27736 584.09949 -51.696812 4294967295
195.30525 582.05469 -51.629593 4294967295
47.04203 586.62189 -51.604954 4294967295
53.739204 586.2533 -51.607792 4294967295
57.0541 585.76636 -51.067245 4294967295
59.505196 585.67822 -51.58992 4294967295
61.794209 585.50226 -51.247257 4294967295
67.615219 585.43976 -51.815628 4294967295
69.381577 585.25012 -51.506489 4294967295
73.327179 585.03241 -51.330574 4294967295
77.290672 585.02588 -51.080055 4294967295
79.486679 586.43896 -51.972496 4294967295
85.765289 585.20044 -51.440212 4294967295
89.204338 585.41815 -51.761898 4294967295
127.2914 585.76129 -51.970348 4294967295
141.80365 586.33759 -51.88229 4294967295
143.56226 585.93848 -51.860184 4294967295
319.34204 542.71307 -50.953766 4294967295
328.71423 542.24817 -50.470783 4294967295
343.4682 541.37744 -50.767067 4294967295
345.33847 541.10364 -50.988956 4294967295
351.61282 541.41406 -50.021763 4294967295
358.8266 540.70099 -50.941032 4294967295
248.77791 545.85382 -50.482273 4294967295
250.90967 544.01764 -50.731937 4294967295
255.08698 543.89795 -50.839211 4294967295
257.5069 544.14215 -50.739788 4294967295
261.88745 544.87549 -50.681984 4294967295
263.48569 545.35876 -50.574654 4294967295
265.83582 545.14941 -50.557529 4294967295
267.1113 544.89752 -50.563004 4294967295
271.46335 545.2478 -50.420799 4294967295
273.37787 545.19849 -50.486641 4294967295
275.18594 544.53308 -50.790958 4294967295
281.62936 544.10248 -50.980362 4294967295
283.42816 545.2865 -50.494099 4294967295
287.29263 545.14539 -50.485443 4294967295
289.39078 544.65637 -50.735245 4294967295
290.69662 545.3634 -50.295395 4294967295
295.11597 544.5722 -50.467438 4294967295
297.40973 544.76123 -50.063194 4294967295
303.93719 543.93622 -50.548431 4294967295
305.45959 543.59393 -50.786312 4294967295
243.35817 546.14813 -50.41806 4294967295
245.54556 546.10492 -50.475151 4294967295
251.62558 547.13159 -50.206692 4294967295
253.28062 546.15308 -50.483067 4294967295
255.51918 546.05463 -50.506535 4294967295
257.10223 547.23065 -50.103497 4294967295
260.3335 546.05371 -50.505356 4294967295
261.66937 547.02496 -50.135754 4294967295
277.88565 546.16699 -50.249535 4294967295
83.39579 553.42975 -50.899059 4294967295
167.88637 552.03058 -50.073364 4294967295
169.21463 552.41156 -50.071934 4294967295
96.010788 556.59674 -50.90295 4294967295
97.42733 557.65002 -50.387009 4294967295
99.958328 557.46332 -50.293705 4294967295
121.40555 555.32043 -50.418129 4294967295
123.51241 555.67206 -50.260189 4294967295
67.292244 560.46967 -50.851322 4294967295
69.997368 559.6236 -50.958099 4294967295
71.342514 559.40826 -50.926197 4294967295
73.090996 559.97241 -50.509544 4294967295
81.451859 560.56006 -50.056801 4294967295
82.881477 559.40137 -50.760086 4294967295
85.364578 559.23047 -50.716263 4294967295
89.769554 558.16718 -50.798107 4294967295
91.493187 558.83044 -50.438 4294967295
93.202843 558.85999 -50.300266 4294967295
403.68747 560.8728 -50.430305 4294967295
407.64035 558.27338 -50.924149 4294967295
43.846687 562.83392 -50.778156 4294967295
47.37426 562.50244 -50.575409 4294967295
49.508793 561.83423 -50.923794 4294967295
52.939613 561.81476 -50.87265 4294967295
56.074505 562.32941 -50.472946 4294967295
59.118805 562.40112 -50.204525 4294967295
63.409184 561.71423 -50.776886 4294967295
65.466743 561.27325 -50.865513 4294967295
68.825096 561.04297 -50.410244 4294967295
354.99615 563.20776 -50.058414 4294967295
357.49155 563.07324 -50.167671 4294967295
377.27228 562.21881 -50.9688 4294967295
391.56897 562.05353 -50.522713 4294967295
393.49969 562.03113 -50.341339 4294967295
311.39536 566.65814 -50.090729 4294967295
319.35129 566.02411 -50.224472 4294967295
327.01874 565.13434 -50.203976 4294967295
331.06155 565.08118 -50.207909 4294967295
333.25882 565.00806 -50.125771 4294967295
337.29437 564.73315 -50.038437 4294967295
339.63556 564.6333 -50.159843 4294967295
340.9371 564.51654 -50.110535 4294967295
343.75638 564.29895 -50.167915 4294967295
347.02505 564.3504 -50.913464 4294967295
283.15298 569.16705 -50.759911 4294967295
289.48041 568.70605 -50.794155 4294967295
237.30945 572.71863 -50.082687 4294967295
249.61784 572.32507 -50.776318 4294967295
257.51886 571.46747 -50.731201 4294967295
259.63089 571.24969 -50.688072 4294967295
261.46021 571.31329 -50.619232 4294967295
272.01495 570.2569 -50.332439 4294967295
209.40941 575.45258 -50.399471 4294967295
211.40944 575.31653 -50.459942 4294967295
213.79121 575.23578 -50.333652 4294967295
217.33699 575.30249 -50.457401 4294967295
233.52319 574.05383 -50.747768 4294967295
235.24437 573.95441 -50.86552 4294967295
237.64261 573.51935 -50.84613 4294967295
167.29747 578.80591 -50.062767 4294967295
175.37242 578.96466 -50.869514 4294967295
185.05437 578.36145 -50.98053 4294967295
187.5063 577.13428 -50.306038 4294967295
191.25951 577.10773 -50.321304 4294967295
193.40573 577.58533 -50.623318 4294967295
197.36031 577.28699 -50.620495 4294967295
199.4599 576.9585 -50.788582 4294967295
201.44469 576.92096 -50.723701 4294967295
203.42967 576.47784 -50.692368 4294967295
205.33606 576.18573 -50.690117 4294967295
137.52463 581.25189 -50.32608 4294967295
139.51543 581.39709 -50.483486 4294967295
141.48323 581.06519 -50.376984 4294967295
145.49271 581.4776 -50.891911 4294967295
147.38289 579.97589 -50.151226 4294967295
149.4554 580.7113 -50.947823 4294967295
155.78 580.10321 -50.681362 4294967295
161.31929 579.38495 -50.339481 4294967295
165.53137 579.10577 -50.309315 4294967295
169.57216 579.09888 -50.481014 4294967295
171.61212 579.28851 -50.686657 4294967295
66.977173 584.84161 -50.348698 4294967295
69.615669 584.59369 -50.194141 4294967295
71.467949 584.71741 -50.783043 4294967295
73.850899 584.53375 -50.385349 4294967295
79.534904 584.83179 -50.72554 4294967295
108.31984 583.18408 -50.444538 4294967295
115.5687 582.729 -50.990593 4294967295
129.11406 582.38776 -50.975883 4294967295
135.72729 582.039 -50.806362 4294967295
43.404926 586.75146 -50.92907 4294967295
47.495125 585.73944 -50.034393 4294967295
54.346382 585.67767 -50.448353 4294967295
63.109177 585.07178 -50.232857 4294967295
65.365921 585.2132 -50.958748 4294967295
396.23929 535.07043 -49.332302 4294967295
399.8942 534.19958 -49.413734 4294967295
401.2702 534.52466 -49.421276 4294967295
331.33859 542.99414 -49.575565 4294967295
335.47708 542.79022 -49.524666 4294967295
339.79108 542.40717 -49.438583 4294967295
341.64581 542.25519 -49.536201 4294967295
347.44556 541.75159 -49.870888 4294967295
349.05225 541.75525 -49.629967 4294967295
353.45853 541.35992 -49.920334 4294967295
355.4509 541.31348 -49.7714 4294967295
291.28983 545.99036 -49.276737 4294967295
299.01019 545.07733 -49.687389 4294967295
307.44305 544.66211 -49.443512 4294967295
309.28552 544.63873 -49.201298 4294967295
313.15692 544.27667 -49.46209 4294967295
245.06776 548.65363 -49.952789 4294967295
255.24113 548.4295 -49.083061 4294967295
257.60684 548.32562 -49.135456 4294967295
259.79593 547.94153 -49.564896 4294967295
261.2157 548.02069 -49.344952 4294967295
263.71567 547.89789 -49.190685 4294967295
265.14603 547.42926 -49.497475 4294967295
269.0285 547.12329 -49.33633 4294967295
271.78265 546.83728 -49.464794 4294967295
273.09616 546.74622 -49.54026 4294967295
275.07925 546.74689 -49.503952 4294967295
283.76019 546.47632 -49.409538 4294967295
285.21393 546.31476 -49.29631 4294967295
287.93622 546.22687 -49.282642 4294967295
294.4942 546.1084 -49.052177 4294967295
167.71175 553.5365 -49.080048 4294967295
169.47961 552.89801 -49.881588 4294967295
172.79855 552.8277 -49.960949 4294967295
121.26768 557.26367 -49.716923 4294967295
122.67964 557.10089 -49.676792 4294967295
125.47888 557.17371 -49.640717 4294967295
406.01138 557.36603 -49.236546 4294967295
76.013458 560.89575 -49.621395 4294967295
77.618568 560.86237 -49.718502 4294967295
85.607422 560.85632 -49.146004 4294967295
86.951263 560.62427 -49.384396 4294967295
89.389847 560.16864 -49.672485 4294967295
99.065384 559.15002 -49.425217 4294967295
103.12544 558.86035 -49.450981 4294967295
405.18958 559.42322 -49.449219 4294967295
49.574345 563.39093 -49.205997 4294967295
51.513626 562.98041 -49.668663 4294967295
61.579754 562.68372 -49.591599 4294967295
65.567924 562.17651 -49.396645 4294967295
67.17041 562.12128 -49.174309 4294967295
71.56189 561.86493 -49.144402 4294967295
349.38647 563.78033 -49.82972 4294967295
351.4975 563.64526 -49.834789 4294967295
358.94934 563.03241 -49.88195 4294967295
361.52423 562.97113 -49.675575 4294967295
362.86835 562.89026 -49.820625 4294967295
365.33832 562.83264 -49.26963 4294967295
367.55286 562.74298 -49.349731 4294967295
375.69568 562.4754 -49.244835 4294967295
397.56564 561.64484 -49.836803 4294967295
400.38605 561.30139 -49.933739 4294967295
307.45599 566.52777 -49.176994 4294967295
271.668 569.8175 -49.260185 4294967295
273.25607 569.60443 -49.118855 4294967295
275.91962 569.38275 -49.378418 4294967295
277.32272 569.18134 -49.819057 4294967295
279.53262 568.93176 -49.079441 4294967295
281.26895 568.75848 -49.428558 4294967295
283.73474 568.59326 -49.033638 4294967295
233.14961 572.90845 -49.099415 4294967295
249.43767 571.4231 -49.036877 4294967295
253.88428 571.15051 -49.212875 4294967295
255.66045 571.00464 -49.346218 4294967295
257.4523 570.7984 -49.219204 4294967295
261.37137 570.59033 -49.204792 4294967295
199.27708 575.53406 -49.078796 4294967295
203.10371 575.32684 -49.160431 4294967295
205.38757 575.2088 -49.330585 4294967295
207.4315 574.96924 -49.292114 4294967295
211.31989 574.56592 -49.388988 4294967295
225.2529 573.87805 -49.019279 4294967295
231.46927 573.61078 -49.964672 4294967295
157.39668 578.98511 -49.087612 4294967295
159.10532 578.81958 -49.093758 4294967295
165.62518 578.20203 -49.063351 4294967295
171.60867 577.77087 -49.166157 4294967295
173.01941 577.52667 -49.281006 4294967295
187.3568 576.29462 -49.076939 4294967295
189.41356 576.61902 -49.784012 4294967295
191.13464 576.15405 -49.102417 4294967295
193.2475 576.08002 -49.044167 4294967295
195.45158 576.48077 -49.821957 4294967295
116.12368 581.78845 -49.575603 4294967295
127.35947 580.97809 -49.300312 4294967295
135.42104 580.38489 -49.17984 4294967295
139.55052 580.1922 -49.05949 4294967295
142.9211 579.91748 -49.155914 4294967295
145.83545 579.71161 -49.199417 4294967295
149.1519 579.31836 -49.305576 4294967295
151.76355 579.29218 -49.467815 4294967295
153.15656 579.21368 -49.033264 4294967295
81.340927 584.16577 -49.811176 4294967295
83.98941 584.00476 -49.447113 4294967295
85.445435 583.75757 -49.254135 4294967295
87.581398 583.57471 -49.630665 4294967295
89.909454 583.60699 -49.731255 4294967295
93.442451 583.15045 -49.433716 4294967295
95.43515 583.0509 -49.404453 4294967295
99.413521 582.80054 -49.306599 4294967295
102.25912 582.73914 -49.33437 4294967295
103.68777 582.65747 -49.359905 4294967295
105.35484 582.44812 -49.247543 4294967295
106.70956 582.41431 -49.337856 4294967295
111.11607 582.19464 -49.502666 4294967295
61.187286 585.13428 -49.980694 4294967295
397.67407 534.15875 -48.579479 4294967295
399.85367 535.13428 -48.205956 4294967295
401.09335 535.48267 -48.226246 4294967295
375.18985 539.28137 -48.916142 4294967295
377.36142 539.01672 -48.782951 4294967295
339.82953 542.92896 -48.100269 4294967295
344.15173 542.50122 -48.449905 4294967295
347.2764 542.33325 -48.105778 4294967295
353.45905 541.9314 -48.011349 4294967295
297.72849 545.86346 -48.196945 4294967295
303.44302 545.67255 -48.17289 4294967295
309.69604 545.01489 -48.20105 4294967295
313.23483 544.81842 -48.082962 4294967295
315.86081 544.65643 -48.145252 4294967295
253.62975 548.62714 -48.851917 4294967295
257.13431 548.90302 -48.027264 4294967295
265.505 548.08136 -48.905128 4294967295
272.85782 547.82379 -48.054962 4294967295
275.68671 547.62061 -48.030289 4294967295
285.25974 546.75952 -48.308853 4294967295
287.37094 546.77441 -48.005722 4294967295
289.99176 546.56818 -48.260349 4294967295
295.07809 546.39319 -48.051876 4294967295
251.27193 549.38721 -48.294525 4294967295
159.06949 554.78546 -48.835918 4294967295
125.22815 557.72992 -48.757462 4294967295
89.684914 560.86371 -48.155655 4294967295
92.884941 560.57874 -48.07225 4294967295
95.160339 559.86719 -48.984364 4294967295
102.19523 559.73138 -48.154549 4294967295
119.94153 558.4577 -48.046242 4294967295
121.4987 558.31439 -48.090405 4294967295
123.43188 558.35046 -48.004261 4294967295
400.76138 560.82251 -48.609661 4294967295
403.34558 559.69958 -48.475113 4294967295
53.631954 563.62421 -48.261242 4294967295
63.725376 562.92328 -48.358917 4294967295
65.768677 562.67584 -48.20208 4294967295
67.37281 562.50446 -48.288414 4294967295
69.413216 562.35522 -48.163784 4294967295
83.182564 561.63904 -48.55946 4294967295
85.826424 561.38751 -48.430931 4294967295
87.28054 561.09406 -48.34193 4294967295
343.85721 563.86041 -48.03421 4294967295
345.00418 563.76111 -48.125153 4294967295
371.22351 562.71173 -48.996189 4294967295
373.41238 562.63898 -48.95842 4294967295
379.27267 562.44025 -48.9114 4294967295
387.78723 562.36615 -48.560059 4294967295
397.71341 561.36591 -48.013126 4294967295
399.72113 561.0462 -48.455334 4294967295
47.296989 564.12482 -48.25264 4294967295
313.50528 566.09479 -48.870857 4294967295
315.22104 565.9278 -48.22752 4294967295
317.15771 565.78784 -48.588314 4294967295
321.64862 565.62152 -48.893387 4294967295
323.62125 565.50635 -48.694324 4294967295
325.1752 565.24152 -48.231102 4294967295
327.20892 564.98914 -48.139183 4294967295
328.97879 564.90399 -48.111893 4294967295
331.21344 564.755 -48.03376 4294967295
335.18478 564.50238 -48.258167 4294967295
337.4436 564.52673 -48.040722 4294967295
341.15137 564.07751 -48.011696 4294967295
277.29813 569.06464 -48.550819 4294967295
235.09735 572.31903 -48.708832 4294967295
250.68863 571.42322 -48.838428 4294967295
257.13647 570.49011 -48.015366 4294967295
261.70798 570.18188 -48.051579 4294967295
201.35759 574.99963 -48.056805 4294967295
203.22208 574.82294 -48.124706 4294967295
205.99513 574.79608 -48.454098 4294967295
207.48175 574.58551 -48.344585 4294967295
209.30237 574.40387 -48.212029 4294967295
211.32956 574.23376 -48.178532 4294967295
213.53096 574.10626 -48.069283 4294967295
215.52245 574.3797 -48.97073 4294967295
227.65701 573.67224 -48.921856 4294967295
229.3526 573.13422 -48.049538 4294967295
151.53191 578.82843 -48.098705 4294967295
157.52281 578.51093 -48.105923 4294967295
161.48709 578.12518 -48.208641 4294967295
162.8942 578.28845 -48.882988 4294967295
167.69664 577.99548 -48.904152 4294967295
175.77669 576.97742 -48.111736 4294967295
186.09439 576.06702 -48.372345 4294967295
105.55717 581.96118 -48.051235 4294967295
110.16989 581.59692 -48.403858 4294967295
113.05015 581.26379 -48.080574 4294967295
133.1256 580.57251 -48.986263 4294967295
143.36108 579.5213 -48.302193 4294967295
145.23732 579.40643 -48.807507 4294967295
63.568363 584.8681 -48.981293 4294967295
65.29673 584.75464 -48.991131 4294967295
67.099327 584.5769 -48.709347 4294967295
71.396576 584.06512 -48.881058 4294967295
72.815804 584.1748 -48.725853 4294967295
75.755127 584.16034 -48.729904 4294967295
78.902603 583.9292 -48.550926 4294967295
85.889732 583.1991 -48.139084 4294967295
87.918755 583.2796 -48.196011 4294967295
91.663689 582.94141 -48.161236 4294967295
42.161755 586.1507 -48.745796 4294967295
43.430443 585.98364 -48.737434 4294967295
57.508064 585.15887 -48.342239 4294967295
60.7514 585.01855 -48.807323 4294967295
400.3031 535.5802 -47.205868 4294967295
341.35071 542.89075 -47.841469 4294967295
349.26666 542.14331 -47.99929 4294967295
351.21347 542.12695 -47.822071 4294967295
355.19131 541.7785 -47.920376 4294967295
357.51074 541.48657 -47.799946 4294967295
359.70639 541.28619 -47.229229 4294967295
307.03372 545.46582 -47.484104 4294967295
311.23959 545.13116 -47.888195 4294967295
331.54456 543.64655 -47.901127 4294967295
335.57748 543.41754 -47.772461 4294967295
337.43787 543.12701 -47.992882 4294967295
261.18448 548.90717 -47.212597 4294967295
213.66609 551.66309 -47.586201 4294967295
215.74147 551.43115 -47.700306 4294967295
217.58929 551.23657 -47.853039 4294967295
231.29704 551.30688 -47.155453 4294967295
247.75856 549.91681 -47.563774 4294967295
257.41702 549.13965 -47.051342 4294967295
259.5665 549.23462 -47.023491 4294967295
169.82332 554.96771 -47.407024 4294967295
139.4818 557.08435 -47.563812 4294967295
151.73288 556.31317 -47.282433 4294967295
155.39207 556.0462 -47.182659 4294967295
157.46356 555.7757 -47.577507 4294967295
161.40193 555.48969 -47.170204 4294967295
166.22682 555.02997 -47.224792 4294967295
404.07349 557.12311 -47.798843 4294967295
74.896576 562.19653 -47.419636 4294967295
349.43353 563.59393 -47.8074 4294967295
351.74536 563.36383 -47.827202 4294967295
353.47198 563.28223 -47.99897 4294967295
354.89484 563.35437 -47.35305 4294967295
357.40805 563.29474 -47.451897 4294967295
359.50479 563.30017 -47.229595 4294967295
367.93005 563.06012 -47.035816 4294967295
374.74142 562.81055 -47.018719 4294967295
391.922 562.35541 -47.8004 4294967295
393.7269 562.04089 -47.849369 4294967295
396.23767 561.61127 -47.975662 4294967295
45.072094 564.26343 -47.872704 4294967295
333.68073 564.75055 -47.972885 4294967295
339.26309 564.24176 -47.902328 4294967295
274.51059 569.16382 -47.669769 4294967295
231.42424 572.79932 -47.965202 4294967295
237.55162 571.92023 -47.343918 4294967295
253.97162 570.8562 -47.849758 4294967295
193.52058 575.60004 -47.932007 4294967295
197.33281 575.24371 -47.914074 4294967295
225.31415 573.28778 -47.657032 4294967295
148.88182 578.91125 -47.979431 4294967295
155.51303 578.68134 -47.937145 4294967295
165.90359 577.67749 -47.857597 4294967295
106.92823 581.7478 -47.702335 4294967295
125.44324 580.62646 -47.917221 4294967295
129.43642 580.27008 -47.837635 4294967295
131.34833 580.09894 -47.795135 4294967295
135.55914 579.66803 -47.598755 4294967295
137.81137 579.68445 -47.76482 4294967295
141.50493 579.51324 -47.992184 4294967295
58.759232 584.935 -47.761238 4294967295
83.470222 583.43591 -47.989838 4294967295
95.529648 582.61786 -47.713028 4294967295
97.64267 582.52466 -47.958065 4294967295
99.440582 582.36774 -47.906837 4294967295
102.61034 582.00226 -47.779896 4294967295
48.686275 585.51715 -47.601959 4294967295
401.64642 539.14032 -46.186501 4294967295
271.68753 548.37787 -46.263874 4294967295
273.28168 548.28046 -46.390442 4294967295
275.49579 548.06183 -46.023891 4294967295
287.86948 547.13403 -46.187916 4294967295
293.56842 546.84387 -46.100899 4294967295
297.54901 546.45575 -46.311413 4294967295
221.46251 551.56329 -46.108658 4294967295
254.94531 549.55664 -46.668476 4294967295
147.50548 556.95209 -46.108517 4294967295
159.09766 555.88019 -46.905865 4294967295
169.84308 555.31055 -46.369331 4294967295
171.32198 555.32977 -46.348438 4294967295
175.54407 555.06262 -46.153545 4294967295
95.360817 560.86066 -46.809864 4294967295
