# .PCD v0.7 - Point Cloud Data file format
VERSION 0.7
FIELDS x y z rgba
SIZE 4 4 4 4
TYPE F F F U
COUNT 1 1 1 1
WIDTH 1148
HEIGHT 1
VIEWPOINT 0 0 0 1 0 0 0
POINTS 1148
DATA ascii
470.09775 915.0697 -408.41394 4294967295
475.72836 916.81714 -408.12936 4294967295
477.51019 917.43402 -408.8252 4294967295
479.03174 924.13141 -408.95074 4294967295
478.71844 935.68036 -408.95438 4294967295
475.16455 938.58569 -408.90112 4294967295
478.30679 936.55963 -408.64001 4294967295
469.18802 913.5946 -407.05466 4294967295
470.01328 914.97766 -407.05911 4294967295
471.45651 915.52057 -407.32291 4294967295
477.16031 917.31122 -407.20865 4294967295
478.30133 918.28925 -407.37198 4294967295
479.02136 924.03772 -407.0213 4294967295
479.08719 934.4873 -407.43945 4294967295
475.87134 938.32666 -407.49799 4294967295
473.61374 916.30627 -406.66995 4294967295
478.88739 919.87292 -406.80054 4294967295
479.1427 921.62842 -406.9649 4294967295
478.82147 935.78656 -406.95731 4294967295
477.43668 937.76263 -406.89578 4294967295
478.15573 918.50891 -405.0943 4294967295
479.2446 931.64374 -405.06174 4294967295
479.39883 934.17352 -405.04492 4294967295
469.48624 914.16736 -404.73618 4294967295
471.21863 915.57428 -404.60095 4294967295
473.42624 916.30499 -404.61096 4294967295
475.13217 916.74719 -404.98474 4294967295
478.4472 937.06122 -404.06631 4294967295
468.66293 911.96252 -403.51785 4294967295
479.16446 922.54523 -403.97482 4294967295
478.633 936.76355 -403.5694 4294967295
469.12411 913.50867 -402.83853 4294967295
470.17352 915.224 -402.9671 4294967295
471.47711 915.69836 -402.96085 4294967295
473.11411 916.34058 -402.76474 4294967295
475.19263 916.97119 -402.27817 4294967295
477.19272 917.62958 -402.89334 4294967295
478.76974 919.08026 -402.61905 4294967295
479.21771 931.46771 -402.8782 4294967295
479.43353 933.88153 -402.82217 4294967295
474.87656 938.76996 -402.6633 4294967295
471.39734 915.78717 -401.1315 4294967295
473.33899 916.40778 -401.02097 4294967295
477.63669 917.92487 -401.23199 4294967295
479.3071 921.71838 -401.0896 4294967295
479.01553 935.97583 -401.24997 4294967295
469.18973 913.75891 -400.89346 4294967295
479.30188 933.14032 -400.24765 4294967295
475.77261 938.84741 -400.96066 4294967295
478.63583 936.99042 -400.16098 4294967295
473.21121 916.49573 -399.29822 4294967295
477.16931 917.81683 -399.12555 4294967295
478.67865 919.29102 -399.25824 4294967295
479.2395 934.80048 -399.20364 4294967295
468.74698 911.6908 -398.74146 4294967295
469.37784 914.2641 -398.7121 4294967295
471.25626 915.74829 -398.8338 4294967295
475.19968 917.06207 -398.97418 4294967295
475.70734 938.81232 -398.18549 4294967295
477.99475 937.8822 -398.86765 4294967295
469.09119 913.73157 -397.0264 4294967295
474.97122 917.06201 -397.07706 4294967295
479.11191 919.81677 -397.05566 4294967295
479.32495 934.20398 -397.22098 4294967295
472.58121 939.07465 -397.70242 4294967295
468.7757 910.61871 -396.5661 4294967295
470.82086 915.7464 -396.6604 4294967295
473.53229 916.73145 -396.59283 4294967295
477.82434 918.12842 -396.60583 4294967295
476.70352 938.5719 -396.17938 4294967295
477.90082 938.02612 -396.59256 4294967295
478.67429 936.9704 -396.45703 4294967295
479.02759 936.04053 -396.87662 4294967295
457.65231 940.93195 -396.88687 4294967295
457.08011 942.09564 -396.81473 4294967295
469.43384 914.77649 -395.37228 4294967295
478.74277 937.2207 -395.13077 4294967295
479.19141 936.0116 -395.30856 4294967295
457.62668 941.03625 -395.2756 4294967295
474.80603 939.12109 -395.04102 4294967295
456.82364 943.57135 -395.30664 4294967295
468.7821 912.07367 -394.7244 4294967295
471.5213 916.16315 -394.54788 4294967295
473.16922 916.74438 -394.74896 4294967295
474.91522 917.18115 -394.07224 4294967295
477.00674 917.69379 -394.95959 4294967295
479.37961 933.99329 -394.76779 4294967295
476.80038 938.61993 -394.81345 4294967295
460.77841 939.30756 -394.04941 4294967295
469.72256 939.16266 -394.3613 4294967295
472.40659 939.18628 -394.51184 4294967295
468.75052 911.55646 -393.10367 4294967295
475.03177 917.23114 -393.5947 4294967295
479.41565 934.00586 -393.06198 4294967295
477.54422 938.28406 -393.07727 4294967295
479.18042 936.05914 -393.06247 4294967295
471.01752 939.19873 -393.42899 4294967295
469.51852 914.95197 -392.96304 4294967295
478.3103 918.6554 -392.9906 4294967295
479.30484 931.46234 -392.86801 4294967295
478.78012 937.10004 -392.41299 4294967295
457.64746 941.25861 -392.30698 4294967295
459.22766 940.02539 -392.32956 4294967295
469.64288 939.21118 -392.97961 4294967295
475.4137 939.11566 -392.44974 4294967295
456.79242 943.80499 -392.94931 4294967295
457.11026 942.51556 -392.9769 4294967295
468.82886 911.85596 -391.21368 4294967295
479.33081 935.04822 -391.25 4294967295
465.07828 939.13843 -391.67444 4294967295
456.76202 943.80481 -391.24265 4294967295
457.09833 942.46906 -391.38165 4294967295
468.99118 913.82269 -390.65466 4294967295
469.57794 915.03577 -390.73718 4294967295
471.13773 916.14746 -390.9928 4294967295
473.64572 917.04388 -390.53586 4294967295
475.26608 917.41266 -390.63327 4294967295
479.30035 931.37939 -390.59744 4294967295
476.46509 938.88275 -390.90167 4294967295
478.70276 937.06628 -390.65118 4294967295
457.93555 940.96997 -390.52487 4294967295
460.41193 939.49463 -390.95898 4294967295
472.59332 939.45471 -390.15927 4294967295
474.64474 939.2782 -390.93735 4294967295
456.7381 946.21411 -390.54553 4294967295
470.86383 916.12817 -389.06326 4294967295
479.11429 926.73035 -389.07077 4294967295
477.8765 938.23059 -389.08337 4294967295
474.55188 939.51105 -389.14743 4294967295
473.7139 917.11664 -388.60208 4294967295
479.11688 929.02277 -388.76968 4294967295
479.36078 931.99146 -388.90833 4294967295
479.39099 934.18884 -388.64844 4294967295
476.58676 938.93555 -388.79224 4294967295
478.70193 937.18036 -388.80615 4294967295
479.16431 936.10059 -388.65891 4294967295
457.73877 941.27435 -388.48401 4294967295
459.42841 940.05072 -388.47617 4294967295
462.27838 939.15479 -388.37357 4294967295
465.12918 939.2547 -388.63474 4294967295
467.47043 939.24817 -388.48831 4294967295
469.66101 939.43201 -388.62521 4294967295
472.08981 939.51013 -388.90698 4294967295
457.10895 942.44183 -388.66718 4294967295
456.72354 945.2699 -388.39777 4294967295
468.80695 911.44836 -387.19238 4294967295
469.07986 913.49988 -387.35419 4294967295
475.24658 917.54395 -387.13165 4294967295
477.98135 918.42877 -387.04953 4294967295
479.36807 921.60516 -387.03104 4294967295
479.45892 933.78992 -387.03964 4294967295
469.38593 939.47406 -387.08319 4294967295
471.82098 939.57111 -387.35587 4294967295
474.42169 939.55109 -387.0864 4294967295
469.9845 915.41382 -386.54205 4294967295
471.50681 916.40527 -386.76648 4294967295
479.12286 929.10596 -386.53845 4294967295
479.3313 931.48499 -386.86984 4294967295
478.38861 937.78601 -386.72864 4294967295
458.45993 940.7168 -386.77121 4294967295
460.44275 939.7326 -386.35181 4294967295
462.44601 939.2182 -386.40909 4294967295
476.5759 939.1134 -386.71109 4294967295
456.77393 944.24182 -386.72125 4294967295
457.1467 942.54456 -386.88876 4294967295
475.45419 917.6748 -385.09027 4294967295
479.03571 920.05505 -385.16061 4294967295
479.08264 926.88959 -385.08902 4294967295
479.25674 935.92737 -385.2511 4294967295
459.11267 940.31696 -385.28763 4294967295
460.38303 939.82098 -385.52011 4294967295
470.21909 939.62939 -385.1413 4294967295
474.97827 939.80847 -385.2204 4294967295
457.23526 942.43036 -385.05411 4294967295
457.22012 948.18756 -385.01291 4294967295
469.69107 915.02045 -384.7074 4294967295
471.24799 916.56659 -384.90247 4294967295
473.52573 917.21844 -384.88361 4294967295
479.32584 931.45605 -384.77826 4294967295
479.51443 934.02618 -384.91583 4294967295
477.86066 938.51666 -384.37158 4294967295
457.85977 941.25513 -384.95493 4294967295
462.29367 939.31299 -384.7912 4294967295
456.85242 946.03864 -384.79086 4294967295
469.10135 913.65692 -383.3299 4294967295
479.09387 928.94 -383.09683 4294967295
479.27826 931.30194 -383.05783 4294967295
478.98969 937.20544 -383.0076 4294967295
467.1814 939.56305 -383.20233 4294967295
471.93604 939.79785 -383.46194 4294967295
474.87381 939.95734 -383.58395 4294967295
457.37515 942.08466 -383.62921 4294967295
456.9368 945.62866 -383.20319 4294967295
457.10513 947.53156 -383.54849 4294967295
468.82578 911.17358 -382.56433 4294967295
469.70016 915.19232 -382.90558 4294967295
471.00027 916.55304 -382.94003 4294967295
473.67523 917.29254 -382.99069 4294967295
475.43213 917.63745 -382.8212 4294967295
479.27274 921.58679 -382.8934 4294967295
479.44867 933.92169 -382.82306 4294967295
479.25562 936.04694 -382.88739 4294967295
460.99762 939.85834 -382.27823 4294967295
462.58884 939.42334 -382.59558 4294967295
457.23773 942.74701 -382.87473 4294967295
469.04523 913.78143 -381.05191 4294967295
479.04416 928.7489 -381.0332 4294967295
479.18637 936.18359 -381.24991 4294967295
469.52844 915.03052 -380.52197 4294967295
470.42163 916.31848 -380.87326 4294967295
479.20413 931.14783 -380.72369 4294967295
479.50967 933.96228 -380.64935 4294967295
478.54645 937.65735 -380.41846 4294967295
457.86508 941.59015 -380.93283 4294967295
459.20923 940.54364 -380.70709 4294967295
460.30527 940.07098 -380.87811 4294967295
456.77048 945.78693 -380.82626 4294967295
468.95178 913.76135 -379.13669 4294967295
479.32761 934.4978 -379.37238 4294967295
459.68356 940.2619 -379.30981 4294967295
456.76596 945.59106 -379.08978 4294967295
470.32706 916.30005 -378.88394 4294967295
477.88882 938.34991 -378.77237 4294967295
462.83932 939.70306 -378.23187 4294967295
465.39511 939.80225 -378.2981 4294967295
467.35245 939.85834 -378.47147 4294967295
469.74603 940.1051 -378.37848 4294967295
472.24893 940.14795 -378.31326 4294967295
457.30542 942.82239 -378.16476 4294967295
479.07303 935.86224 -377.14078 4294967295
477.24637 938.79419 -377.04068 4294967295
458.18921 941.09674 -377.24908 4294967295
460.68872 939.86188 -377.49332 4294967295
470.72141 916.81519 -376.81363 4294967295
473.88272 917.74316 -376.6423 4294967295
479.21378 934.06342 -376.70645 4294967295
469.3833 915.13513 -375.31378 4294967295
471.73883 917.33319 -374.2316 4294967295
469.6124 940.13513 -374.74615 4294967295
474.64178 939.89618 -374.2272 4294967295
469.23868 915.16455 -373.44275 4294967295
477.62445 919.18109 -373.28998 4294967295
466.46378 940.15613 -373.5799 4294967295
471.67178 917.16254 -372.74982 4294967295
473.12735 917.88031 -372.67886 4294967295
470.04272 916.53711 -371.11575 4294967295
478.82599 931.409 -371.67465 4294967295
464.41602 940.19989 -371.8475 4294967295
469.30356 915.24445 -370.55923 4294967295
473.33664 917.97534 -370.82608 4294967295
475.3439 918.591 -370.95139 4294967295
477.11478 938.67572 -370.72324 4294967295
462.7403 940.25763 -370.81497 4294967295
467.48422 940.245 -370.62994 4294967295
468.74976 913.91846 -369.19043 4294967295
478.65024 930.86774 -369.04352 4294967295
470.16833 916.86737 -368.71176 4294967295
474.87744 918.44147 -368.59778 4294967295
478.94052 921.6795 -368.85489 4294967295
478.59085 936.07391 -368.19345 4294967295
459.4993 940.94434 -368.91306 4294967295
460.121 940.70032 -368.86337 4294967295
462.53723 940.16644 -368.84183 4294967295
470.05942 916.74335 -367.03348 4294967295
478.62405 931.5188 -367.03647 4294967295
461.01657 940.44977 -367.8681 4294967295
462.86093 940.23767 -367.27692 4294967295
466.77774 940.24878 -367.5914 4294967295
468.73563 914.13995 -366.60406 4294967295
471.76538 917.44562 -366.65488 4294967295
473.26831 918.09546 -366.78137 4294967295
478.50403 928.87085 -366.84738 4294967295
478.24722 920.5882 -365.22934 4294967295
478.58038 926.45911 -365.26956 4294967295
460.35968 940.70435 -365.25873 4294967295
462.57492 940.32056 -365.09021 4294967295
465.09662 940.30786 -365.54773 4294967295
467.40704 940.4071 -365.77856 4294967295
457.60669 942.5567 -365.23956 4294967295
469.18115 915.34784 -364.96814 4294967295
470.00629 916.94781 -364.58813 4294967295
478.89084 923.80194 -364.44098 4294967295
459.13321 941.44525 -364.93152 4294967295
471.75317 917.61011 -363.052 4294967295
475.66116 918.91016 -363.00119 4294967295
461.76343 940.42908 -363.7327 4294967295
456.88492 944.90631 -363.3291 4294967295
457.49271 942.92572 -363.08926 4294967295
469.13116 915.71143 -362.5679 4294967295
478.86786 923.85809 -362.92047 4294967295
478.70364 934.74866 -362.80725 4294967295
460.3959 940.79706 -362.6124 4294967295
457.03366 943.97321 -362.5314 4294967295
475.12106 918.85614 -361.84518 4294967295
478.54456 933.30444 -361.00659 4294967295
467.09509 940.49396 -361.12241 4294967295
457.04688 947.78784 -361.32361 4294967295
468.78305 913.96112 -360.98282 4294967295
470.01633 916.98193 -360.65726 4294967295
471.4437 917.86481 -360.99231 4294967295
477.09998 919.60455 -360.73779 4294967295
465.84222 940.53748 -360.13629 4294967295
469.353 940.5979 -360.73569 4294967295
457.30695 943.23462 -360.67688 4294967295
456.90646 945.17877 -360.98892 4294967295
476.96481 919.67175 -359.08475 4294967295
460.11221 940.8222 -359.17221 4294967295
457.78067 942.39551 -359.03354 4294967295
456.88544 945.15454 -359.09473 4294967295
468.74734 913.9718 -358.72321 4294967295
470.00522 917.01398 -358.93427 4294967295
471.72531 917.80322 -358.9184 4294967295
473.52933 918.56201 -358.67148 4294967295
478.50809 933.89465 -358.8786 4294967295
462.89566 940.49371 -358.74554 4294967295
466.42307 878.80463 -357.89798 4294967295
468.74756 913.86829 -357.22165 4294967295
470.01855 917.224 -357.0043 4294967295
478.0737 937.66803 -357.07562 4294967295
457.17929 943.5838 -357.3696 4294967295
469.21732 915.92712 -356.44064 4294967295
472.02588 917.95337 -356.82202 4294967295
473.52826 918.61145 -356.87787 4294967295
475.28232 919.16241 -356.98312 4294967295
478.453 933.83862 -356.96762 4294967295
458.62015 941.698 -356.53067 4294967295
459.61407 941.20959 -356.52609 4294967295
461.98331 940.56573 -356.99237 4294967295
477.28046 939.11511 -356.83682 4294967295
457.72217 942.51233 -356.92422 4294967295
456.90195 945.10278 -356.3143 4294967295
464.76736 878.67694 -355.00027 4294967295
478.38193 933.75726 -355.33545 4294967295
478.55237 936.08514 -355.34943 4294967295
459.82672 941.20929 -355.12064 4294967295
466.68311 879.53253 -354.80569 4294967295
467.40158 881.00323 -354.72787 4294967295
468.7135 913.90204 -354.78671 4294967295
469.64743 916.90491 -354.77847 4294967295
471.01495 917.71667 -354.93042 4294967295
475.09525 919.38495 -354.82834 4294967295
478.07471 931.02087 -354.55573 4294967295
477.55237 938.75006 -354.61945 4294967295
458.97791 941.61926 -354.44879 4294967295
457.48462 943.09113 -354.75516 4294967295
463.06647 878.56976 -353.22977 4294967295
464.42935 878.69623 -353.19165 4294967295
466.93283 880.42627 -353.06543 4294967295
468.9382 915.70654 -353.34799 4294967295
473.35925 918.75635 -353.29147 4294967295
478.21899 933.21332 -353.11722 4294967295
466.15936 879.34509 -352.88635 4294967295
467.36658 881.36353 -352.8873 4294967295
468.68375 913.99664 -352.85498 4294967295
469.52341 916.65466 -352.59537 4294967295
471.46133 918.02155 -352.92047 4294967295
477.96729 937.85999 -352.48233 4294967295
478.32391 936.06958 -352.65939 4294967295
459.77402 941.10645 -352.83499 4294967295
457.15469 944.12659 -352.84482 4294967295
458.02133 942.4198 -352.65182 4294967295
456.89902 945.74939 -352.7782 4294967295
468.67947 913.71454 -351.21838 4294967295
477.95547 928.76141 -351.41089 4294967295
457.65628 942.99573 -351.81473 4294967295
463.20212 878.64362 -350.78619 4294967295
467.39349 881.47046 -350.99619 4294967295
468.93594 915.85742 -350.80432 4294967295
471.13544 918.0022 -350.95078 4294967295
473.35675 918.94421 -350.86624 4294967295
475.20438 919.76898 -350.32086 4294967295
477.96942 930.66913 -350.98166 4294967295
478.17355 933.38605 -350.50922 4294967295
457.20108 944.2132 -350.93405 4294967295
466.99774 880.27753 -349.03839 4294967295
470.98608 918.09271 -349.19376 4294967295
473.66931 919.10138 -349.0419 4294967295
478.21573 925.34802 -349.67862 4294967295
477.9292 928.69806 -349.21371 4294967295
463.23505 878.74951 -348.43494 4294967295
467.9014 883.32727 -348.52521 4294967295
468.68738 911.23004 -348.65378 4294967295
468.6236 913.98352 -348.71832 4294967295
469.49542 917.03003 -348.74582 4294967295
478.1795 923.55005 -348.61734 4294967295
477.96188 931.12848 -348.91541 4294967295
478.13757 933.42065 -348.61612 4294967295
478.42737 936.10803 -348.98013 4294967295
457.12585 944.06641 -348.7081 4294967295
463.13232 878.7785 -347.09802 4294967295
464.75812 878.78882 -347.02512 4294967295
468.91818 915.72003 -347.17343 4294967295
470.13385 917.71802 -347.62198 4294967295
478.31284 924.13177 -347.483 4294967295
478.16229 933.77557 -347.15784 4294967295
465.81873 879.16266 -346.94934 4294967295
466.8942 880.09729 -346.90359 4294967295
467.39084 881.41821 -346.80814 4294967295
468.65213 911.64111 -346.60556 4294967295
468.59525 913.78815 -346.67264 4294967295
469.41852 916.88849 -346.85712 4294967295
478.01291 926.84192 -346.81213 4294967295
477.93018 930.9884 -346.98022 4294967295
465.86472 941.28674 -346.27667 4294967295
469.63257 941.47626 -346.85501 4294967295
467.37863 881.42139 -345.08762 4294967295
467.7179 882.82141 -345.02298 4294967295
468.69916 910.80072 -345.22552 4294967295
470.31238 918.04834 -345.01996 4294967295
478.03568 926.56592 -345.00098 4294967295
477.90775 928.66284 -345.15521 4294967295
467.52167 941.43445 -345.01614 4294967295
463.44757 878.89642 -344.23077 4294967295
466.14444 879.37225 -344.5336 4294967295
467.96976 886.34698 -344.45007 4294967295
468.61212 914.13263 -344.42007 4294967295
478.04987 932.85779 -344.60361 4294967295
462.16379 941.09283 -344.7493 4294967295
469.83844 941.58496 -344.36182 4294967295
467.69641 882.90143 -343.08447 4294967295
468.7981 915.77039 -343.02887 4294967295
464.97583 941.34692 -343.1969 4294967295
463.96185 879.01178 -342.52887 4294967295
466.54803 879.7049 -342.97144 4294967295
467.86209 886.33795 -342.81705 4294967295
468.7084 911.38745 -342.77353 4294967295
468.63666 913.79999 -342.72058 4294967295
478.27753 923.58026 -342.92734 4294967295
462.34024 941.20148 -342.6954 4294967295
467.51395 941.5658 -342.8819 4294967295
469.2002 941.64587 -342.61902 4294967295
463.01865 879.02136 -341.4823 4294967295
468.77988 910.8429 -341.16977 4294967295
466.194 879.5177 -340.53067 4294967295
467.45502 881.53925 -340.95944 4294967295
467.66455 883.04877 -340.95483 4294967295
467.82663 886.12567 -340.57629 4294967295
468.58969 913.50885 -340.72018 4294967295
477.92474 928.76794 -340.71765 4294967295
477.97595 931.21057 -340.46542 4294967295
460.65112 941.62659 -340.45761 4294967295
465.20135 941.47198 -340.94907 4294967295
467.59598 941.67474 -340.50925 4294967295
464.70303 879.19196 -339.07101 4294967295
467.827 886.14563 -339.01767 4294967295
467.74197 890.57043 -339.29898 4294967295
468.22736 897.46722 -339.38751 4294967295
468.58606 903.66656 -339.24222 4294967295
468.73941 909.0509 -339.60629 4294967295
466.48389 879.80756 -338.70706 4294967295
467.63535 882.97308 -338.72198 4294967295
468.05038 895.02612 -338.2832 4294967295
468.72766 913.94342 -338.73059 4294967295
471.03253 918.56848 -338.57428 4294967295
475.0397 919.92523 -338.84927 4294967295
477.15176 920.90228 -338.63623 4294967295
478.14435 923.76819 -338.79562 4294967295
478.08856 926.31104 -338.99286 4294967295
477.76752 938.95288 -338.54965 4294967295
458.71866 942.7428 -338.6933 4294967295
463.27884 879.21069 -337.27328 4294967295
464.78183 879.1817 -337.00394 4294967295
466.36044 879.81012 -337.05887 4294967295
467.84894 886.0119 -337.0062 4294967295
468.51978 901.93341 -337.87149 4294967295
468.69666 908.60083 -337.22552 4294967295
473.14337 919.41376 -337.17035 4294967295
478.33365 935.93469 -337.06812 4294967295
460.02341 942.26678 -337.49628 4294967295
467.35309 881.66101 -336.57889 4294967295
467.52939 882.65326 -336.88745 4294967295
467.76971 891.02661 -336.93448 4294967295
468.39075 899.48889 -336.95123 4294967295
468.59134 904.07111 -336.73019 4294967295
468.64401 906.4762 -336.37436 4294967295
468.96014 913.94098 -336.9277 4294967295
469.88297 916.79132 -336.13434 4294967295
472.34897 919.0166 -336.78769 4294967295
475.35599 920.24329 -336.32831 4294967295
478.1467 923.3147 -336.89978 4294967295
467.95578 893.42145 -335.94617 4294967295
468.19943 896.67188 -335.57166 4294967295
468.34265 898.44727 -335.15033 4294967295
468.50012 901.52783 -335.76242 4294967295
468.69098 910.76453 -335.46106 4294967295
478.23032 937.88843 -335.16223 4294967295
464.05194 879.39099 -334.85623 4294967295
466.47357 880.09088 -334.599 4294967295
467.59055 882.97876 -334.86624 4294967295
467.89658 886.1228 -334.65155 4294967295
467.85217 890.90503 -334.55997 4294967295
468.40942 899.70636 -334.4512 4294967295
468.4599 901.23077 -334.02597 4294967295
468.53622 904.20483 -334.42783 4294967295
468.58646 907.90912 -334.44446 4294967295
471.09967 918.68231 -334.59521 4294967295
473.70648 919.73212 -334.26343 4294967295
474.96088 920.26727 -334.96301 4294967295
476.62973 920.87653 -334.82037 4294967295
477.72852 922.37207 -334.87131 4294967295
478.11697 923.72815 -334.39807 4294967295
478.18597 925.92352 -334.70435 4294967295
464.67352 879.45068 -333.39783 4294967295
467.9382 886.2251 -333.00906 4294967295
467.8725 888.32269 -333.05032 4294967295
467.95145 892.83752 -333.15802 4294967295
468.07211 894.96075 -333.00226 4294967295
468.30737 898.16974 -333.66489 4294967295
468.49728 906.38928 -333.01093 4294967295
468.69315 913.05536 -333.28354 4294967295
469.24033 915.57581 -333.76523 4294967295
470.06393 917.26953 -333.91599 4294967295
473.50861 919.71753 -333.02054 4294967295
476.40253 940.80786 -333.47592 4294967295
466.86737 880.87714 -332.61618 4294967295
467.31375 881.82813 -332.79556 4294967295
467.76733 883.76489 -332.74265 4294967295
468.27115 898.15881 -332.53058 4294967295
468.4039 901.18762 -332.73807 4294967295
468.4408 904.44238 -332.42337 4294967295
468.46594 907.80914 -332.38943 4294967295
468.48602 910.06757 -332.43204 4294967295
468.78064 914.82715 -332.10754 4294967295
469.78995 917.13123 -332.20529 4294967295
470.67505 918.30811 -332.68317 4294967295
472.01099 919.20599 -332.54471 4294967295
475.06201 920.42297 -332.85651 4294967295
477.73474 922.45044 -332.67783 4294967295
478.12933 923.77936 -332.97363 4294967295
478.12155 926.22833 -332.73038 4294967295
463.23703 879.30975 -331.746 4294967295
466.57037 880.57147 -331.08508 4294967295
467.17203 881.79083 -331.37274 4294967295
467.96588 886.11267 -331.10031 4294967295
467.90527 891.10022 -331.29572 4294967295
468.27167 898.4881 -331.88046 4294967295
468.34454 902.92712 -331.0611 4294967295
468.38928 906.41119 -331.39139 4294967295
468.52505 913.90393 -331.29843 4294967295
469.13531 916.1825 -331.47009 4294967295
471.72198 919.14984 -331.32077 4294967295
478.30066 925.83771 -331.19287 4294967295
467.88397 888.56628 -330.23694 4294967295
467.99606 893.73077 -330.71127 4294967295
468.19327 898.09058 -330.24228 4294967295
468.28415 900.44824 -330.6972 4294967295
468.30988 904.802 -330.30325 4294967295
468.34171 908.25116 -330.76581 4294967295
468.3779 912.24512 -330.82614 4294967295
468.66998 915.24896 -330.45755 4294967295
469.59967 917.13214 -330.82715 4294967295
470.47885 918.09131 -330.30573 4294967295
473.85431 920.05988 -330.17181 4294967295
475.21957 920.58167 -330.55423 4294967295
478.19656 923.6684 -330.95987 4294967295
467.64151 883.47833 -329.12012 4294967295
468.09589 896.0531 -329.9678 4294967295
468.23349 903.05402 -329.13226 4294967295
468.22424 907.55676 -329.29709 4294967295
468.25433 910.13885 -329.82025 4294967295
468.32819 913.92584 -329.57867 4294967295
469.28836 916.79034 -329.17178 4294967295
474.72919 920.39075 -329.1456 4294967295
478.26416 925.91461 -329.1192 4294967295
464.88467 879.80865 -328.78464 4294967295
467.28033 881.84363 -328.4679 4294967295
467.82697 886.64429 -328.86871 4294967295
467.88248 889.74652 -328.30258 4294967295
467.93924 892.51355 -328.931 4294967295
468.12958 898.35553 -328.28925 4294967295
468.17508 905.22687 -328.2428 4294967295
468.13641 912.00879 -328.18942 4294967295
468.52121 915.35724 -328.82343 4294967295
471.93356 919.38647 -328.73483 4294967295
477.63947 922.5235 -328.65234 4294967295
467.68176 884.9245 -327.40125 4294967295
467.98404 894.34918 -327.76804 4294967295
468.03265 896.24805 -327.12769 4294967295
468.15317 901.4129 -327.59631 4294967295
468.10583 907.2702 -327.64856 4294967295
468.04828 909.47601 -327.39291 4294967295
468.27106 914.26257 -327.44141 4294967295
468.69608 915.99445 -327.21997 4294967295
470.655 918.31946 -327.04688 4294967295
471.94016 919.48596 -327.0976 4294967295
473.41595 920.15051 -327.00076 4294967295
474.86417 920.6524 -327.25558 4294967295
476.595 921.46527 -327.12598 4294967295
478.10709 923.80878 -327.17288 4294967295
478.27118 926.22839 -327.3046 4294967295
463.64188 879.54565 -326.75229 4294967295
466.09445 880.59906 -326.70462 4294967295
467.62064 883.5849 -326.36252 4294967295
467.85498 888.7691 -326.47897 4294967295
467.90552 891.72821 -326.6171 4294967295
468.05832 897.99811 -326.3735 4294967295
468.07697 904.77753 -326.39627 4294967295
467.96033 910.91699 -326.07471 4294967295
469.35815 917.13831 -326.9682 4294967295
478.2196 928.96185 -326.6683 4294967295
467.19376 882.00879 -325.20041 4294967295
467.6962 885.53778 -325.159 4294967295
467.90799 892.48987 -325.3905 4294967295
467.96191 895.0426 -325.62976 4294967295
468.0737 900.02948 -325.74097 4294967295
467.96219 907.91022 -325.64517 4294967295
467.90277 909.55731 -325.2843 4294967295
468.06384 912.70905 -325.58264 4294967295
468.99643 916.61084 -325.8298 4294967295
469.69263 917.48553 -325.50455 4294967295
472.44839 919.52905 -325.4205 4294967295
474.77463 920.76221 -325.55099 4294967295
476.58926 921.58765 -325.06204 4294967295
477.49301 922.53345 -325.3392 4294967295
478.2962 928.20313 -325.5997 4294967295
467.38916 882.88562 -324.69958 4294967295
467.87146 889.75531 -324.89349 4294967295
467.89563 892.58441 -324.6496 4294967295
467.98123 896.54816 -324.77158 4294967295
468.00784 898.62708 -324.03836 4294967295
468.0614 902.22888 -324.98639 4294967295
468.01517 904.46381 -324.30533 4294967295
468.52271 915.17419 -324.8887 4294967295
469.30127 916.81818 -324.49725 4294967295
478.29248 925.3161 -324.7164 4294967295
466.03363 880.7962 -323.11966 4294967295
467.90332 894.30969 -323.07632 4294967295
468.02417 900.7934 -323.24759 4294967295
467.89844 907.61725 -323.79425 4294967295
467.8775 910.75421 -323.68036 4294967295
469.15994 916.34357 -323.07272 4294967295
470.65741 918.14838 -323.17017 4294967295
477.65363 922.80359 -323.09512 4294967295
478.15924 924.05273 -323.31738 4294967295
475.81885 941.8045 -323.58862 4294967295
472.34677 942.71838 -323.77838 4294967295
474.6969 942.50323 -323.56534 4294967295
467.05023 882.08807 -322.63858 4294967295
467.63336 885.24585 -322.42014 4294967295
467.94864 897.14197 -322.45325 4294967295
468.01749 903.05109 -322.39243 4294967295
468.11169 913.15131 -322.90665 4294967295
468.57471 915.02435 -322.35715 4294967295
473.56839 920.1521 -322.75693 4294967295
476.03607 921.38953 -322.39102 4294967295
478.51685 926.63837 -322.66174 4294967295
478.38974 938.43475 -322.04553 4294967295
477.39197 940.64789 -322.87668 4294967295
467.98801 899.33411 -321.6954 4294967295
467.96356 905.35858 -321.91953 4294967295
467.87772 907.52234 -321.89349 4294967295
467.83145 909.35242 -321.95041 4294967295
475.90231 921.29913 -321.22861 4294967295
478.52042 925.96277 -321.02512 4294967295
478.38867 928.33099 -321.51236 4294967295
478.65543 935.66052 -321.02716 4294967295
477.50659 940.61115 -321.03214 4294967295
472.63196 942.82758 -321.25089 4294967295
466.16595 880.98871 -320.78421 4294967295
467.56854 883.5321 -320.85007 4294967295
467.88306 895.17291 -320.80408 4294967295
467.95123 897.99017 -320.27344 4294967295
468.02115 901.48242 -320.77939 4294967295
467.86966 908.65344 -320.18137 4294967295
467.92206 911.17621 -320.44583 4294967295
468.3324 913.91656 -320.45917 4294967295
469.24826 916.27307 -320.45099 4294967295
471.96909 919.43311 -320.90396 4294967295
473.46219 920.33411 -320.69321 4294967295
477.84961 922.77277 -320.41382 4294967295
478.28641 923.94135 -320.49002 4294967295
475.82941 941.91394 -320.77023 4294967295
478.14026 939.43829 -320.62778 4294967295
467.09888 882.41858 -319.06534 4294967295
467.83759 892.07758 -319.97171 4294967295
467.86169 894.92084 -319.20569 4294967295
468.00873 899.93494 -319.47083 4294967295
468.04443 903.95319 -319.38284 4294967295
467.9505 906.57556 -319.89151 4294967295
477.16943 921.7959 -319.02567 4294967295
478.31033 923.94476 -319.12039 4294967295
478.78729 938.01782 -319.27118 4294967295
477.22818 941.14142 -319.02356 4294967295
474.57889 942.51416 -319.46878 4294967295
475.89212 942.01752 -319.04135 4294967295
464.72147 879.99585 -318.87802 4294967295
466.08173 880.9707 -318.96512 4294967295
467.54355 883.54932 -318.59839 4294967295
467.91098 885.7016 -318.77313 4294967295
467.91428 896.89124 -318.92426 4294967295
467.97931 898.50604 -318.17947 4294967295
468.05533 901.7287 -318.77448 4294967295
467.9664 907.81604 -318.49039 4294967295
467.93179 909.38055 -318.55164 4294967295
468.44214 914.04889 -318.21854 4294967295
470.65015 918.51813 -318.9707 4294967295
471.6987 919.85358 -318.96082 4294967295
474.84293 920.88116 -318.8139 4294967295
478.54807 925.48108 -318.44601 4294967295
478.43564 928.15619 -318.34909 4294967295
478.34262 930.55133 -318.901 4294967295
478.71964 935.95917 -318.96335 4294967295
464.59741 880.22937 -317.00354 4294967295
467.28296 882.84119 -317.19165 4294967295
467.85477 894.7373 -317.16159 4294967295
467.94421 897.46301 -317.5062 4294967295
468.0903 901.5636 -317.30719 4294967295
468.06866 906.18213 -317.70541 4294967295
468.02771 910.7934 -317.28461 4294967295
469.3645 916.83282 -317.10651 4294967295
471.86816 919.76746 -317.10373 4294967295
473.49686 920.51465 -317.18951 4294967295
475.09406 921.14355 -317.06403 4294967295
478.29288 930.80341 -317.01474 4294967295
462.98737 879.87567 -316.81223 4294967295
467.99234 885.67871 -316.60718 4294967295
467.79407 891.12085 -316.92578 4294967295
468.15622 904.38287 -316.64337 4294967295
468.10779 908.23108 -316.27939 4294967295
468.25073 912.89764 -316.30182 4294967295
476.99173 921.8902 -316.8605 4294967295
478.33362 923.80737 -316.88449 4294967295
478.43069 928.11151 -316.74905 4294967295
478.53049 934.245 -316.74475 4294967295
478.6763 938.17682 -316.96893 4294967295
477.56949 940.87866 -316.88776 4294967295
478.23398 939.80432 -316.72607 4294967295
476.1163 942.08411 -316.17023 4294967295
467.86752 895.21893 -315.33514 4294967295
468.00192 898.12213 -315.62247 4294967295
468.14462 901.30334 -315.43576 4294967295
468.19553 906.1416 -315.67847 4294967295
468.16168 910.61096 -315.32703 4294967295
468.7142 915.08063 -315.5636 4294967295
470.03622 919.06207 -315.14532 4294967295
471.04398 919.61957 -315.16599 4294967295
477.79688 922.76575 -315.2348 4294967295
478.75256 935.77234 -315.06451 4294967295
478.71054 937.91052 -315.50845 4294967295
464.64163 880.38843 -314.66788 4294967295
465.8562 880.9173 -314.69067 4294967295
467.35306 882.94189 -314.69794 4294967295
467.88965 885.77448 -314.6846 4294967295
467.79245 892.81708 -314.50195 4294967295
467.91855 896.28168 -314.58212 4294967295
468.26843 904.71545 -314.39279 4294967295
468.27332 909.04529 -314.05206 4294967295
468.33112 912.74463 -314.58102 4294967295
469.22488 917.0321 -314.44006 4294967295
473.36484 920.58026 -314.76355 4294967295
476.62518 921.77148 -314.93585 4294967295
478.41168 923.7135 -314.08652 4294967295
478.37158 928.63641 -314.85959 4294967295
478.39862 932.80292 -314.72461 4294967295
478.30582 939.80701 -314.94836 4294967295
476.26605 942.26361 -314.67239 4294967295
467.87836 895.19257 -313.01315 4294967295
467.97867 897.14465 -313.46683 4294967295
468.14954 900.38037 -313.78412 4294967295
468.32639 907.07501 -313.40302 4294967295
468.33994 911.15527 -313.26938 4294967295
468.76282 915.29901 -313.16016 4294967295
478.37332 923.57629 -313.16284 4294967295
478.61276 934.35144 -313.08691 4294967295
463.34409 880.38654 -312.43182 4294967295
464.66617 880.53149 -312.74176 4294967295
466.03403 881.12891 -312.73715 4294967295
467.83676 885.59094 -312.86096 4294967295
467.73651 889.79614 -312.59503 4294967295
468.07153 898.61884 -312.96704 4294967295
468.28336 902.97089 -312.43509 4294967295
468.34644 905.10773 -312.72369 4294967295
468.38043 909.12335 -312.6058 4294967295
468.50323 913.38074 -312.64951 4294967295
469.10321 916.94836 -312.88229 4294967295
469.5163 918.67523 -312.7793 4294967295
471.30527 919.81451 -312.36533 4294967295
473.64612 920.86322 -312.46136 4294967295
478.48221 924.05951 -312.37671 4294967295
478.4158 928.4278 -312.88971 4294967295
478.34467 930.64801 -312.93475 4294967295
478.66214 939.7063 -312.91489 4294967295
476.34262 942.20367 -312.10895 4294967295
467.7749 892.88477 -311.7045 4294967295
467.9892 897.15698 -311.47537 4294967295
468.45728 908.28229 -311.12213 4294967295
468.4483 909.97278 -311.51877 4294967295
468.61169 913.86041 -311.22787 4294967295
468.9957 916.69769 -311.29916 4294967295
478.52451 924.02985 -311.0386 4294967295
478.81891 935.82098 -311.08542 4294967295
479.0296 938.20819 -311.06073 4294967295
462.56656 880.40143 -310.98792 4294967295
464.62354 880.60834 -310.96091 4294967295
467.2821 882.89728 -310.93277 4294967295
467.86017 894.97314 -310.60861 4294967295
468.15573 899.98474 -310.73383 4294967295
468.41183 905.62726 -310.64029 4294967295
468.50601 911.35486 -310.6925 4294967295
469.54437 918.91577 -310.93442 4294967295
473.19003 920.84875 -310.86893 4294967295
478.56403 924.38538 -310.48468 4294967295
478.52115 928.4184 -310.39606 4294967295
478.41568 930.78259 -310.93448 4294967295
478.51761 933.08643 -310.7363 4294967295
478.12738 940.86926 -310.90607 4294967295
468.5332 909.8125 -309.85645 4294967295
468.62164 913.26697 -309.10736 4294967295
468.80173 916.50183 -309.32892 4294967295
470.91614 920.10675 -309.16959 4294967295
478.38892 930.66998 -309.00919 4294967295
463.25464 880.57983 -308.43494 4294967295
464.55075 880.66437 -308.98621 4294967295
467.30203 882.95337 -308.80841 4294967295
468.53009 908.05896 -308.5448 4294967295
468.58566 911.21558 -308.94354 4294967295
469.56607 919.08606 -308.09863 4294967295
473.54565 921.04761 -308.56497 4294967295
475.24554 921.57562 -308.76355 4294967295
477.45328 922.54846 -308.94437 4294967295
478.67163 924.88531 -308.8175 4294967295
478.56299 928.62292 -308.95978 4294967295
478.75378 935.45197 -308.60165 4294967295
479.01224 938.6405 -308.81299 4294967295
477.72101 941.30841 -308.80734 4294967295
476.12811 942.50006 -308.42587 4294967295
463.07925 880.62976 -307.11377 4294967295
468.6124 910.92139 -307.46548 4294967295
468.72852 915.62152 -307.67282 4294967295
469.46744 918.85883 -307.0806 4294967295
473.32193 920.93469 -307.18054 4294967295
475.48425 921.65021 -307.09708 4294967295
478.9122 925.63696 -307.0134 4294967295
478.6196 928.52454 -307.44406 4294967295
478.53995 933.0589 -307.2254 4294967295
478.60947 939.86884 -307.28156 4294967295
464.73383 880.78943 -306.71152 4294967295
467.1203 882.28522 -306.89142 4294967295
468.64758 913.85181 -306.70795 4294967295
468.94275 917.82074 -306.81549 4294967295
471.03506 920.02667 -306.58087 4294967295
477.87488 922.95551 -306.9375 4294967295
478.55673 930.40417 -306.8237 4294967295
478.81644 935.6488 -306.48102 4294967295
479.04971 938.87616 -306.89923 4294967295
475.02628 943.17761 -306.46146 4294967295
476.19485 942.68695 -306.68201 4294967295
464.69769 880.71851 -305.11255 4294967295
466.13559 881.37903 -305.51721 4294967295
468.59763 915.91095 -305.12646 4294967295
472.05957 920.599 -305.62885 4294967295
478.54239 933.01685 -305.43823 4294967295
463.33951 880.73224 -304.64401 4294967295
467.36099 883.26257 -304.70828 4294967295
467.69293 885.0144 -304.4136 4294967295
468.63852 913.28955 -304.88391 4294967295
470.08328 919.66943 -304.82693 4294967295
475.19623 921.67084 -304.90372 4294967295
478.53351 923.92004 -304.88989 4294967295
478.59723 930.82996 -304.96207 4294967295
479.15591 938.91925 -304.55417 4294967295
477.73309 941.68195 -304.84802 4294967295
472.64804 943.63629 -304.26761 4294967295
474.50528 943.4339 -304.90622 4294967295
463.11115 880.80389 -303.19144 4294967295
467.68555 885.00696 -303.02536 4294967295
468.87878 917.47357 -303.67911 4294967295
473.43524 921.07233 -303.32684 4294967295
478.62256 924.07922 -303.21097 4294967295
472.26126 943.67719 -303.28696 4294967295
477.14566 942.24518 -303.1217 4294967295
464.79126 880.93805 -302.94135 4294967295
466.41907 881.47986 -302.97543 4294967295
467.08105 882.35895 -302.56531 4294967295
468.67099 913.09113 -302.82352 4294967295
468.62616 915.79181 -302.96436 4294967295
469.64423 919.20789 -302.64316 4294967295
471.01617 920.13568 -302.78745 4294967295
479.02802 925.75531 -302.82751 4294967295
478.8385 928.30273 -302.58432 4294967295
478.87973 937.44995 -302.9433 4294967295
478.67184 940.08307 -302.55151 4294967295
470.50238 943.68304 -302.25064 4294967295
475.86563 942.88007 -302.9646 4294967295
468.67767 912.98901 -301.39352 4294967295
475.15466 921.60333 -301.04523 4294967295
473.75668 943.70477 -301.418 4294967295
463.51385 880.93976 -300.70328 4294967295
464.82632 881.08331 -300.6344 4294967295
467.61978 884.90259 -300.58121 4294967295
468.57095 915.9967 -300.70612 4294967295
469.35663 918.93347 -300.63638 4294967295
471.11328 920.36328 -300.72202 4294967295
478.90338 925.4953 -300.96628 4294967295
468.00537 943.57007 -300.25766 4294967295
469.31708 918.92908 -299.0076 4294967295
470.76544 920.15735 -299.1293 4294967295
473.54785 921.28705 -299.76544 4294967295
478.75705 930.28259 -299.18149 4294967295
478.74072 935.28601 -299.03156 4294967295
475.67834 943.08099 -299.31189 4294967295
463.24426 881.03687 -298.98511 4294967295
466.41757 881.64142 -298.93613 4294967295
467.48154 884.25867 -298.69089 4294967295
468.60312 913.52625 -298.52017 4294967295
468.54221 915.98328 -298.88898 4294967295
475.3559 921.79639 -298.75278 4294967295
478.59921 924.12555 -298.75775 4294967295
479.0939 926.12097 -298.64447 4294967295
466.73676 882.08417 -297.26715 4294967295
468.62256 912.92963 -297.13843 4294967295
468.60352 917.11212 -297.1543 4294967295
471.91125 920.73999 -297.10336 4294967295
473.33539 943.68542 -297.77606 4294967295
458.10629 945.14465 -297.06973 4294967295
463.69653 881.18585 -296.32623 4294967295
467.41068 883.97095 -296.75488 4294967295
470.15155 920.09308 -296.88486 4294967295
477.26834 922.56409 -296.63931 4294967295
478.97519 928.12183 -296.52625 4294967295
478.81104 930.32159 -296.06262 4294967295
478.81128 935.43878 -296.53979 4294967295
461.28433 943.62115 -296.02902 4294967295
462.58386 943.43317 -296.6412 4294967295
464.88739 943.54773 -296.85962 4294967295
456.76578 948.1684 -296.84317 4294967295
467.57913 885.06464 -295.0582 4294967295
473.41327 921.45062 -295.30392 4294967295
478.87222 935.78741 -295.10333 4294967295
460.18137 944.12152 -295.02673 4294967295
457.68127 946.00311 -295.02939 4294967295
456.73859 949.21173 -295.53784 4294967295
463.9689 881.23956 -294.56812 4294967295
466.46771 881.95575 -294.56049 4294967295
468.62927 916.72174 -294.61163 4294967295
471.08517 920.71881 -294.93396 4294967295
478.57108 924.09576 -294.58832 4294967295
478.98633 928.36127 -294.82507 4294967295
478.71533 940.60455 -294.93118 4294967295
459.13205 944.75513 -294.69678 4294967295
462.28595 943.6767 -294.93973 4294967295
464.82901 943.6413 -294.87094 4294967295
464.4671 881.36401 -293.01974 4294967295
465.78275 881.57129 -293.47052 4294967295
478.84647 934.85413 -293.24136 4294967295
459.039 944.99664 -293.0188 4294967295
457.07257 947.28571 -293.99356 4294967295
463.56784 881.2937 -292.33774 4294967295
466.86917 882.72284 -292.80692 4294967295
467.51938 884.85919 -292.9277 4294967295
468.50159 915.55249 -292.60336 4294967295
469.47034 919.25494 -292.43246 4294967295
470.70041 920.42468 -292.88559 4294967295
473.59375 921.51624 -292.92422 4294967295
474.99774 921.92462 -292.93839 4294967295
477.46854 923.0155 -292.80145 4294967295
479.00308 925.65594 -292.8873 4294967295
479.09329 928.16101 -292.9975 4294967295
478.86499 930.52161 -292.99289 4294967295
478.8042 933.04358 -292.98697 4294967295
479.18347 937.63275 -292.67493 4294967295
478.55328 940.78149 -292.45984 4294967295
460.64005 944.35504 -292.68417 4294967295
462.16199 943.83643 -292.73145 4294967295
465.28369 943.95306 -292.21933 4294967295
457.71683 946.09344 -292.91678 4294967295
456.918 949.01276 -292.91974 4294967295
462.5242 881.35547 -291.80954 4294967295
470.12448 920.14612 -291.0304 4294967295
478.5433 924.46851 -291.2449 4294967295
479.14154 927.86816 -291.12689 4294967295
478.83936 932.20239 -291.63828 4294967295
478.99435 939.67957 -291.13773 4294967295
460.13837 944.60303 -291.29477 4294967295
457.71021 946.3623 -291.5249 4294967295
464.52203 881.54425 -290.19946 4294967295
465.71548 881.79987 -290.66913 4294967295
466.67084 882.56903 -290.99854 4294967295
467.49014 884.91931 -290.80176 4294967295
468.63385 916.60712 -290.7001 4294967295
472.01242 921.03192 -290.79282 4294967295
474.08771 921.66522 -290.16254 4294967295
475.47342 922.12543 -290.39993 4294967295
477.21536 922.76538 -290.88388 4294967295
479.06049 925.95007 -290.4245 4294967295
478.93216 930.43024 -290.63965 4294967295
479.08923 936.39575 -290.09677 4294967295
463.3457 944.01074 -290.35461 4294967295
465.70377 944.03717 -290.97443 4294967295
457.07489 947.79999 -290.51703 4294967295
459.20386 945.1156 -290.70605 4294967295
457.20651 951.98071 -290.69061 4294967295
463.58569 881.41266 -289.16678 4294967295
469.26474 918.99542 -289.04312 4294967295
474.94504 922.01648 -289.18613 4294967295
476.2576 922.33783 -289.84717 4294967295
477.71268 923.20667 -289.03384 4294967295
479.26288 928.09741 -289.06241 4294967295
479.17792 937.29242 -289.09479 4294967295
479.0596 939.81781 -289.0192 4294967295
461.63077 944.22723 -289.0437 4294967295
477.83749 942.388 -289.76056 4294967295
458.8309 945.41797 -289.24811 4294967295
464.664 881.4845 -288.68152 4294967295
467.61722 885.63745 -288.81671 4294967295
468.59555 915.72272 -288.94958 4294967295
470.03192 920.23602 -288.41476 4294967295
472.41071 921.22552 -288.01035 4294967295
473.65601 921.70233 -288.47049 4294967295
478.46469 924.46332 -288.72086 4294967295
479.06122 925.88757 -288.81573 4294967295
478.9425 931.62732 -288.76886 4294967295
465.12659 944.14594 -288.56006 4294967295
457.87665 946.15051 -288.54279 4294967295
456.97516 948.4317 -288.94971 4294967295
468.65347 916.50604 -287.21591 4294967295
477.21338 923.01501 -287.13412 4294967295
465.93488 882.12207 -286.90753 4294967295
467.22818 884.37408 -286.8465 4294967295
467.88376 887.92834 -286.92383 4294967295
469.30069 919.26099 -286.78842 4294967295
470.19153 920.54504 -286.71295 4294967295
473.26114 921.70148 -286.89001 4294967295
475.1286 922.15979 -286.91217 4294967295
479.00665 925.82507 -286.8916 4294967295
479.14594 927.98163 -286.76627 4294967295
478.9527 931.66174 -286.68076 4294967295
478.54581 941.41357 -286.979 4294967295
460.02869 944.86517 -286.7977 4294967295
462.3894 944.24762 -286.79199 4294967295
457.25568 947.28241 -286.88998 4294967295
458.79712 945.46619 -286.28979 4294967295
464.62875 881.66815 -285.19562 4294967295
466.01987 882.57886 -285.01367 4294967295
467.57257 885.73523 -285.01529 4294967295
467.8609 888.18658 -285.13464 4294967295
469.17859 919.24353 -285.06796 4294967295
471.48618 921.19208 -285.12973 4294967295
475.21719 922.41296 -285.03049 4294967295
460.23746 944.84027 -285.16638 4294967295
462.13727 944.25079 -285.55731 4294967295
456.95721 948.95984 -285.6991 4294967295
467.06961 884.29584 -284.93323 4294967295
468.6434 916.94116 -284.6886 4294967295
470.12366 920.87366 -284.90082 4294967295
478.37469 924.55304 -284.58698 4294967295
479.32953 927.73438 -284.89719 4294967295
467.51843 885.84705 -283.03351 4294967295
468.62161 915.00446 -283.22546 4294967295
469.8421 920.66919 -283.28976 4294967295
471.23004 921.49585 -283.40796 4294967295
474.18329 922.15509 -283.22769 4294967295
477.25845 923.33582 -283.6264 4294967295
479.10437 937.92065 -283.33224 4294967295
464.58978 881.52722 -282.70511 4294967295
467.0712 884.44653 -282.71027 4294967295
468.67178 917.88562 -282.54474 4294967295
469.09918 919.4212 -282.74957 4294967295
478.42502 924.58368 -282.94565 4294967295
479.3049 927.65503 -282.53876 4294967295
467.48892 885.91937 -281.08624 4294967295
468.60339 918.05981 -281.33844 4294967295
474.92468 922.58716 -281.52917 4294967295
477.41153 923.49866 -281.16275 4294967295
467.72778 889.31592 -280.70395 4294967295
468.76367 912.91284 -280.77231 4294967295
468.6926 915.08594 -280.98581 4294967295
469.83432 920.79053 -280.60947 4294967295
471.30099 921.42096 -280.59589 4294967295
478.45175 924.52588 -280.7789 4294967295
479.26636 927.73358 -280.73129 4294967295
478.92896 930.27814 -280.75473 4294967295
479.12082 937.76978 -280.88983 4294967295
467.65741 886.18622 -279.08182 4294967295
468.80304 914.62592 -279.15875 4294967295
473.39041 922.19824 -279.11758 4294967295
475.21005 922.64899 -279.0192 4294967295
478.95569 940.14783 -279.21844 4294967295
467.16141 884.54858 -278.7854 4294967295
467.6113 890.66949 -278.7139 4294967295
468.84924 912.7691 -278.85516 4294967295
468.82632 918.0412 -278.87497 4294967295
469.10019 919.49017 -278.83032 4294967295
470.19287 921.2597 -278.8866 4294967295
471.62006 921.52069 -278.88324 4294967295
477.39615 923.50085 -278.73984 4294967295
478.92996 925.62665 -278.96994 4294967295
479.11505 927.16626 -278.97668 4294967295
478.73602 935.04779 -278.89407 4294967295
478.99902 938.07037 -278.83411 4294967295
478.59152 941.56958 -278.78952 4294967295
467.53189 885.75562 -277.15656 4294967295
468.86115 917.33966 -277.39935 4294967295
473.13409 922.24896 -277.02722 4294967295
475.1673 922.79767 -277.04178 4294967295
478.58481 941.54431 -277.09393 4294967295
467.70789 887.95148 -276.28043 4294967295
468.32254 906.63416 -276.46362 4294967295
468.62943 909.04095 -276.99759 4294967295
469.25906 919.68567 -276.73312 4294967295
471.36346 921.60358 -276.66675 4294967295
478.42911 924.44116 -276.95361 4294967295
479.36072 926.88379 -276.54535 4294967295
478.85233 930.26825 -276.73154 4294967295
478.91922 940.22894 -276.73325 4294967295
478.03671 942.72052 -276.55826 4294967295
469.10077 919.47754 -275.16339 4294967295
475.18704 923.01343 -275.03629 4294967295
479.28583 927.49438 -275.07062 4294967295
467.02786 884.32245 -274.89816 4294967295
467.44778 885.9715 -274.9559 4294967295
467.77432 888.41125 -274.90909 4294967295
467.92654 902.74921 -274.86957 4294967295
468.06552 905.46582 -274.57959 4294967295
468.28729 908.43958 -274.57806 4294967295
468.66071 911.07294 -274.99628 4294967295
469.82486 920.85883 -274.32877 4294967295
473.24429 922.4801 -274.40189 4294967295
478.61917 924.88995 -274.54376 4294967295
478.80099 937.73016 -274.92145 4294967295
478.73575 941.7984 -274.96814 4294967295
476.03104 944.22516 -274.16046 4294967295
466.93811 884.57788 -273.05386 4294967295
467.81778 901.93878 -273.28696 4294967295
468.01315 907.1806 -273.14319 4294967295
468.3045 910.40796 -273.15247 4294967295
468.58112 913.24133 -273.27475 4294967295
472.26529 922.1579 -273.93661 4294967295
477.17645 923.78217 -273.14523 4294967295
479.18893 927.04089 -273.14972 4294967295
467.71448 887.89581 -272.65652 4294967295
467.86209 905.57654 -272.27765 4294967295
468.06949 908.95117 -272.39325 4294967295
471.53116 921.89716 -272.94809 4294967295
473.35016 922.5863 -272.50494 4294967295
475.15543 923.17706 -272.58636 4294967295
475.92239 944.5257 -272.43073 4294967295
478.41254 942.44775 -272.86926 4294967295
463.31104 882.08441 -271.02328 4294967295
466.87451 884.46613 -271.06982 4294967295
467.5582 886.76965 -271.20523 4294967295
467.75165 901.4057 -271.35907 4294967295
467.89346 907.42889 -271.72937 4294967295
474.98227 923.22168 -271.12323 4294967295
479.04443 940.76355 -271.1669 4294967295
466.05225 883.30493 -270.48596 4294967295
467.74622 903.92072 -270.89969 4294967295
467.91992 908.70593 -270.96515 4294967295
