# .PCD v0.7 - Point Cloud Data file format
VERSION 0.7
FIELDS x y z rgba
SIZE 4 4 4 4
TYPE F F F U
COUNT 1 1 1 1
WIDTH 1147
HEIGHT 1
VIEWPOINT 0 0 0 1 0 0 0
POINTS 1147
DATA ascii
648.01678 4003.8484 -729.83167 4294967295
651.75476 4003.2122 -729.43591 4294967295
653.18127 4002.4971 -729.76904 4294967295
261.50558 4007.3079 -729.50702 4294967295
263.49811 4006.1477 -729.18445 4294967295
265.56854 4005.7117 -729.11371 4294967295
267.44473 4006.1899 -729.41235 4294967295
268.13135 4005.0322 -729.05841 4294967295
271.35995 4005.6377 -729.60858 4294967295
597.34363 4006.772 -729.97235 4294967295
607.07324 4005.5771 -729.67975 4294967295
611.39197 4005.1743 -729.62152 4294967295
239.3904 4008.781 -729.1673 4294967295
241.40857 4008.8706 -729.43353 4294967295
243.45145 4008.5503 -729.42938 4294967295
247.81665 4008.5259 -729.47101 4294967295
251.1274 4008.4163 -729.42847 4294967295
253.1017 4008.4561 -729.29291 4294967295
259.21118 4008.3057 -729.76123 4294967295
561.08582 4010.5112 -729.75995 4294967295
563.39014 4010.5549 -729.57892 4294967295
565.83411 4010.6494 -729.42407 4294967295
567.71857 4010.5383 -729.39349 4294967295
571.26135 4010.4773 -729.21741 4294967295
583.5083 4008.2417 -729.71716 4294967295
587.60364 4008.5405 -729.06226 4294967295
589.36456 4008.4138 -729.00732 4294967295
221.82115 4011.1804 -729.10852 4294967295
533.10199 4013.9592 -729.56165 4294967295
534.85278 4013.9719 -729.61957 4294967295
539.30151 4013.9443 -729.39825 4294967295
541.50922 4013.8701 -729.09082 4294967295
543.45508 4013.1299 -729.49689 4294967295
551.48602 4012.5618 -729.25494 4294967295
555.69116 4011.9175 -729.37146 4294967295
557.09686 4011.9668 -729.2724 4294967295
559.62097 4012.0693 -729.09479 4294967295
561.48553 4011.9304 -729.05121 4294967295
173.09726 4014.6541 -729.3775 4294967295
513.46625 4016.123 -729.8797 4294967295
515.67004 4015.981 -729.70886 4294967295
517.44073 4015.6897 -729.61859 4294967295
521.57111 4015.7585 -729.53149 4294967295
523.76208 4014.5688 -729.88293 4294967295
525.73035 4015.1396 -729.74377 4294967295
527.09106 4014.385 -729.85327 4294967295
529.67297 4015.0938 -729.56885 4294967295
531.48346 4015.4929 -729.41638 4294967295
537.04883 4015.2256 -729.12756 4294967295
507.56717 4017.8665 -729.9278 4294967295
509.25937 4017.637 -729.94934 4294967295
511.29169 4017.8491 -729.68909 4294967295
206.04654 4034.4641 -729.13568 4294967295
211.9679 4034.0549 -729.86707 4294967295
213.71622 4034.2373 -729.81561 4294967295
229.40948 4034.6689 -729.98309 4294967295
223.43405 4035.6013 -729.20923 4294967295
226.62952 4036.3542 -729.33112 4294967295
227.6698 4035.5164 -729.51691 4294967295
229.27977 4036.2041 -729.62115 4294967295
231.14545 4035.949 -729.78088 4294967295
233.64835 4035.5193 -729.99738 4294967295
235.51857 4036.8586 -729.73523 4294967295
225.56667 4039.936 -729.22101 4294967295
227.68513 4040.3867 -729.67133 4294967295
229.03955 4040.1692 -729.85052 4294967295
223.46751 4042.4707 -729.21326 4294967295
221.49524 4044.9734 -729.14893 4294967295
223.48114 4044.8306 -729.57452 4294967295
629.58173 3980.9187 -728.92261 4294967295
645.86249 3979.2007 -728.05542 4294967295
647.96899 3979.2278 -728.37622 4294967295
655.19641 3979.8701 -728.02295 4294967295
575.50079 3983.9971 -728.51422 4294967295
579.4411 3983.522 -728.28027 4294967295
583.41766 3983.3767 -728.55811 4294967295
585.36481 3982.8206 -728.01764 4294967295
587.49353 3982.9224 -728.29822 4294967295
589.60858 3982.7583 -728.19147 4294967295
591.26978 3982.7505 -728.29767 4294967295
603.13995 3982.7852 -728.9176 4294967295
605.3006 3982.8853 -728.67822 4294967295
609.62286 3983.0708 -728.44757 4294967295
613.17914 3982.9038 -728.5542 4294967295
655.45416 3981.3499 -728.98303 4294967295
483.14383 3985.741 -728.52954 4294967295
485.32977 3986.0715 -728.49591 4294967295
487.52939 3985.6926 -728.50781 4294967295
489.56744 3985.8044 -728.54364 4294967295
513.22974 3984.0925 -728.2569 4294967295
515.25476 3985.0952 -728.41235 4294967295
519.47864 3984.1865 -728.2818 4294967295
521.64758 3984.2583 -728.45154 4294967295
535.4458 3984.6611 -728.33557 4294967295
537.42554 3985.6614 -728.76984 4294967295
547.46436 3985.074 -728.64636 4294967295
549.39185 3984.4524 -728.10718 4294967295
551.61487 3985.1167 -728.66089 4294967295
555.2796 3984.9768 -728.35406 4294967295
557.47137 3984.9417 -728.28815 4294967295
559.59094 3985.0149 -728.46649 4294967295
561.33063 3984.8491 -728.42157 4294967295
563.1933 3984.5908 -728.18567 4294967295
565.45258 3984.5015 -728.24646 4294967295
567.44696 3984.5361 -728.5531 4294967295
569.04919 3984.5823 -728.67334 4294967295
571.52985 3984.2886 -728.48804 4294967295
573.5827 3984.0842 -728.44708 4294967295
423.13089 3989.417 -728.97864 4294967295
427.49774 3989.9705 -728.98816 4294967295
431.46634 3989.9841 -728.98309 4294967295
477.55344 3988.8923 -728.99176 4294967295
487.63464 3988.604 -728.97803 4294967295
395.34412 3991.7302 -728.98767 4294967295
397.63303 3991.8394 -728.98193 4294967295
657.53467 4000.5757 -728.64001 4294967295
269.95291 4002.1748 -728.54999 4294967295
619.21625 4004.8804 -728.19495 4294967295
647.85382 4004.3306 -728.01843 4294967295
650.06409 4004.0952 -728.06934 4294967295
239.10426 4007.4854 -728.35651 4294967295
241.42926 4007.4868 -728.53766 4294967295
245.43546 4006.9082 -728.38 4294967295
249.72714 4007.543 -728.54034 4294967295
250.20294 4007.3811 -728.38568 4294967295
255.32291 4006.655 -728.5611 4294967295
261.86569 4005.9951 -728.96417 4294967295
597.62524 4007.5957 -728.5426 4294967295
601.61426 4007.2566 -728.13605 4294967295
607.24182 4006.2207 -728.08551 4294967295
609.07526 4005.9104 -728.00812 4294967295
223.41817 4010.4885 -728.41827 4294967295
229.8098 4009.2712 -728.63867 4294967295
233.35188 4009.0581 -728.81018 4294967295
235.0687 4008.7537 -728.72345 4294967295
237.17542 4008.762 -728.95563 4294967295
573.23492 4010.459 -728.96332 4294967295
575.24982 4010.5522 -728.99554 4294967295
577.2782 4010.4722 -728.80066 4294967295
589.01965 4009.8047 -728.20874 4294967295
591.3288 4008.23 -728.96149 4294967295
593.32977 4008.281 -728.69946 4294967295
595.19104 4008.0698 -728.56506 4294967295
547.57928 4013.9153 -728.98651 4294967295
552.979 4013.4626 -728.90924 4294967295
559.57904 4013.731 -728.82416 4294967295
561.51263 4013.8999 -728.77228 4294967295
563.47571 4012.8545 -728.84644 4294967295
565.27075 4013.8801 -728.65173 4294967295
567.49835 4011.7573 -728.86578 4294967295
579.50861 4011.927 -728.2149 4294967295
557.31757 4014.082 -728.8576 4294967295
209.69858 4034.6853 -728.45776 4294967295
193.74767 4035.7932 -728.65369 4294967295
197.18892 4035.5244 -728.57739 4294967295
213.39352 4035.0168 -728.24463 4294967295
215.12389 4035.2158 -728.24921 4294967295
217.34319 4035.1914 -728.76184 4294967295
221.57028 4036.0161 -728.81244 4294967295
222.21036 4037.0593 -728.67261 4294967295
225.16766 4036.8547 -728.9162 4294967295
221.86613 4040.4675 -728.52197 4294967295
223.65782 4039.8599 -728.80975 4294967295
219.5005 4042.7693 -728.30957 4294967295
221.40884 4042.8176 -728.79852 4294967295
218.02298 4044.3833 -728.19849 4294967295
218.00774 4047.2422 -728.65863 4294967295
643.50891 3979.2678 -727.85876 4294967295
650.04755 3979.1887 -727.98102 4294967295
651.85327 3979.1421 -727.69543 4294967295
653.80963 3979.2979 -727.15778 4294967295
657.26672 3980.4226 -727.47253 4294967295
658.79254 3980.6709 -727.10468 4294967295
551.50452 3983.8506 -727.79443 4294967295
553.66016 3983.7935 -727.41052 4294967295
557.35272 3983.5955 -727.44354 4294967295
559.32428 3983.6086 -727.41644 4294967295
561.50006 3983.2759 -727.29688 4294967295
565.45807 3983.1719 -727.24066 4294967295
567.54352 3983.1763 -727.28296 4294967295
569.37329 3983.012 -727.24023 4294967295
571.42651 3982.8599 -727.20667 4294967295
573.45874 3982.7703 -727.2254 4294967295
575.31439 3982.6375 -727.23157 4294967295
577.36481 3983.4214 -727.93518 4294967295
601.50983 3981.8391 -727.66656 4294967295
603.52429 3981.7876 -727.15479 4294967295
657.62152 3982.197 -727.92419 4294967295
660.08508 3998.9565 -727.83051 4294967295
659.47931 4001.2793 -727.11945 4294967295
235.33484 4003.6458 -727.41632 4294967295
237.41875 4003.9678 -727.56555 4294967295
241.12004 4003.8489 -727.61584 4294967295
641.37903 4004.4734 -727.32861 4294967295
643.92554 4004.4436 -727.50122 4294967295
645.8949 4004.4221 -727.57031 4294967295
651.86078 4003.7249 -727.93225 4294967295
653.9278 4003.3635 -727.70239 4294967295
655.61011 4003.033 -727.24176 4294967295
657.67365 4002.1694 -727.47021 4294967295
227.7291 4007.8225 -727.38171 4294967295
231.49458 4006.9243 -727.62854 4294967295
233.47928 4007.6355 -727.96356 4294967295
235.53937 4005.9858 -727.60443 4294967295
237.53035 4005.908 -727.72021 4294967295
239.48317 4005.9075 -727.84802 4294967295
244.20122 4005.9365 -727.93903 4294967295
612.97089 4005.2798 -727.70947 4294967295
614.96198 4005.1228 -727.6189 4294967295
593.51172 4009.9724 -727.81335 4294967295
595.29053 4009.9683 -727.6026 4294967295
597.54541 4009.1699 -727.46631 4294967295
599.54828 4008.6536 -727.40985 4294967295
591.28351 4011.4292 -727.58044 4294967295
595.33514 4011.5112 -727.22931 4294967295
597.18909 4011.668 -727.05457 4294967295
593.42749 4014.1711 -727.86194 4294967295
595.24921 4014.2671 -727.74683 4294967295
206.15581 4034.9016 -727.48352 4294967295
199.37158 4035.3257 -727.12341 4294967295
215.74812 4036.615 -727.46405 4294967295
217.68126 4037.9177 -727.52991 4294967295
218.84612 4037.9434 -727.80957 4294967295
219.46115 4039.9609 -727.76294 4294967295
216.17259 4041.4868 -727.21533 4294967295
217.41907 4042.7998 -727.78723 4294967295
569.41876 3977.4731 -726.12665 4294967295
557.4447 3979.6218 -726.66376 4294967295
561.4295 3979.8672 -726.46674 4294967295
563.39825 3979.9392 -726.36041 4294967295
565.45575 3979.9526 -726.38446 4294967295
567.40094 3979.8303 -726.29437 4294967295
569.71869 3979.8149 -726.19629 4294967295
571.34167 3979.7239 -726.13245 4294967295
573.44598 3979.7546 -726.08655 4294967295
589.26245 3980.8596 -726.45435 4294967295
659.19031 3979.6545 -726.1441 4294967295
555.31323 3982.23 -726.88855 4294967295
557.63147 3981.9448 -726.89661 4294967295
559.4765 3982.1836 -726.93994 4294967295
561.51587 3982.1543 -726.8833 4294967295
563.60797 3982.0706 -726.80005 4294967295
567.27722 3981.7976 -726.67078 4294967295
569.53455 3981.738 -726.62872 4294967295
571.51953 3981.6399 -726.58893 4294967295
575.95178 3981.2441 -726.50604 4294967295
605.25409 3981.7026 -726.49939 4294967295
607.60846 3982.3406 -726.66028 4294967295
611.63495 3982.5454 -726.62311 4294967295
627.3728 3981.6914 -726.68652 4294967295
631.46173 3981.0181 -726.88361 4294967295
661.72729 3998.6003 -726.31714 4294967295
621.3114 4004.8237 -726.07629 4294967295
625.08948 4004.6611 -726.42468 4294967295
627.43542 4004.6907 -726.88708 4294967295
629.50031 4004.6162 -726.79889 4294967295
631.35968 4004.634 -726.94611 4294967295
635.48737 4004.5676 -726.89124 4294967295
651.84772 4004.167 -726.05438 4294967295
659.09607 4002.176 -726.73083 4294967295
607.39142 4007.0457 -726.75067 4294967295
611.29089 4006.009 -726.56226 4294967295
613.28442 4005.9602 -726.08252 4294967295
603.42493 4008.9053 -726.63507 4294967295
599.50183 4011.7083 -726.73975 4294967295
601.2157 4011.613 -726.44238 4294967295
189.52325 4036.3215 -726.59082 4294967295
195.31512 4035.6936 -726.66852 4294967295
201.9821 4035.4905 -726.05139 4294967295
207.39272 4035.5227 -726.29095 4294967295
211.47856 4035.7686 -726.96631 4294967295
213.24568 4036.5945 -726.8363 4294967295
215.26347 4037.625 -726.93964 4294967295
213.68806 4038.7573 -726.15765 4294967295
215.41911 4039.6133 -726.68713 4294967295
211.51891 4042.7117 -726.22949 4294967295
212.71664 4041.0632 -726.21997 4294967295
644.9798 3979.5676 -725.25049 4294967295
647.65057 3979.2832 -725.23004 4294967295
649.70728 3979.093 -725.84448 4294967295
651.88202 3979.0422 -725.76569 4294967295
654.16315 3979.0222 -725.99463 4294967295
655.87939 3978.9746 -725.82513 4294967295
657.58423 3978.9883 -725.59216 4294967295
661.60779 3980.3611 -725.32385 4294967295
607.64771 3981.3645 -725.33148 4294967295
661.6864 4001.708 -725.50946 4294967295
662.06012 4000.5901 -725.94867 4294967295
623.13995 4004.7073 -725.92609 4294967295
639.33478 4004.4541 -725.06421 4294967295
643.47302 4004.3098 -725.03711 4294967295
645.44647 4004.2605 -725.02417 4294967295
649.74512 4004.2566 -725.71686 4294967295
654.00928 4003.949 -725.89905 4294967295
657.90594 4003.2488 -725.59039 4294967295
659.64069 4002.9355 -725.12445 4294967295
615.13165 4005.6638 -725.99097 4294967295
618.94629 4005.1719 -725.86401 4294967295
606.99341 4009.6736 -725.336 4294967295
609.341 4008.541 -725.12976 4294967295
605.16699 4011.8154 -725.67151 4294967295
607.02808 4011.7549 -725.24945 4294967295
609.17462 4014.4175 -725.28882 4294967295
611.49744 4016.8718 -725.2041 4294967295
609.35651 4017.0581 -725.79504 4294967295
193.11021 4035.9189 -725.0094 4294967295
203.84273 4035.4946 -725.7959 4294967295
205.48553 4035.615 -725.65222 4294967295
207.16177 4036.625 -725.02509 4294967295
208.90335 4037.9124 -725.0968 4294967295
209.49266 4036.2949 -725.93951 4294967295
209.46072 4039.2373 -725.16687 4294967295
210.73938 4039.0798 -725.60913 4294967295
209.452 4041.8828 -725.38141 4294967295
655.90997 3978.6685 -724.14667 4294967295
663.20288 3980.0781 -724.36029 4294967295
631.26538 3981.4722 -724.66296 4294967295
633.52325 3981.1047 -724.72803 4294967295
663.8493 4000.7739 -724.66058 4294967295
664.16449 3999.9309 -724.54456 4294967295
629.00085 4004.5442 -724.37012 4294967295
631.27753 4004.5383 -724.64948 4294967295
647.71008 4004.1924 -724.8161 4294967295
613.2713 4006.8838 -724.77655 4294967295
615.28705 4006.563 -724.36108 4294967295
617.03687 4005.8875 -724.68292 4294967295
621.29517 4005.3257 -724.03668 4294967295
609.43658 4009.5305 -724.80762 4294967295
610.85181 4009.7163 -724.38745 4294967295
611.07208 4008.3118 -724.64886 4294967295
609.31226 4012.1187 -724.72656 4294967295
611.00452 4011.7834 -724.18079 4294967295
611.34839 4014.6755 -724.70471 4294967295
612.99786 4016.8137 -724.76563 4294967295
613.52594 4014.7249 -724.1778 4294967295
615.32605 4016.917 -724.04822 4294967295
187.51212 4036.6411 -724.4729 4294967295
189.69107 4036.356 -724.6759 4294967295
195.14766 4035.6919 -724.76093 4294967295
199.91998 4035.9951 -724.10266 4294967295
203.86154 4036.0527 -724.47729 4294967295
207.70424 4038.4407 -724.56946 4294967295
207.25955 4042.3127 -724.56793 4294967295
651.70679 3979.0327 -723.44641 4294967295
653.8197 3978.8342 -723.73553 4294967295
658.41296 3978.2534 -723.53998 4294967295
663.70953 3980.1208 -723.83752 4294967295
664.02136 3980.4331 -723.39081 4294967295
665.76196 4000.1018 -723.23639 4294967295
627.2749 4004.6138 -723.88739 4294967295
643.28168 4004.2605 -723.12708 4294967295
655.85211 4004.0818 -723.73785 4294967295
657.99353 4003.7385 -723.99347 4294967295
660.11188 4003.2976 -723.98785 4294967295
663.45557 4002.1929 -723.82269 4294967295
613.63708 4008.2954 -723.77942 4294967295
615.36133 4008.2361 -723.15045 4294967295
613.16089 4011.7144 -723.54382 4294967295
615.48871 4014.4387 -723.46002 4294967295
191.91817 4036.1516 -723.92261 4294967295
197.24559 4035.9702 -723.66461 4294967295
201.28421 4036.2236 -723.59924 4294967295
203.75011 4036.7295 -723.80713 4294967295
205.47133 4037.9136 -723.8291 4294967295
203.21231 4038.0044 -723.08447 4294967295
205.5527 4041.5303 -723.64551 4294967295
657.89636 3977.9612 -722.07806 4294967295
637.51422 3980.9023 -722.79291 4294967295
649.6106 3979.4131 -722.97119 4294967295
660.88489 3978.1619 -722.24451 4294967295
630.90045 3981.9063 -722.49829 4294967295
632.98401 3981.6443 -722.44867 4294967295
635.4585 3981.2307 -722.65558 4294967295
666.14856 3997.2427 -722.6228 4294967295
666.96344 4000.5654 -722.23871 4294967295
629.04041 4004.6689 -722.01617 4294967295
630.86578 4004.5085 -722.15851 4294967295
633.37079 4004.4355 -722.47974 4294967295
635.44373 4004.4258 -722.63599 4294967295
639.60327 4004.3704 -722.83392 4294967295
645.51599 4004.1919 -722.97052 4294967295
662.35187 4002.949 -722.4212 4294967295
617.81348 4007.0151 -722.89093 4294967295
619.47089 4006.4861 -722.64545 4294967295
621.30627 4005.9387 -722.55829 4294967295
623.14838 4005.5559 -722.56549 4294967295
624.94116 4005.3274 -722.12958 4294967295
617.00739 4009.5266 -722.03296 4294967295
614.96057 4011.7642 -722.97589 4294967295
617.50122 4012.1252 -722.22638 4294967295
189.7233 4036.3857 -722.33112 4294967295
194.04468 4035.9346 -722.80597 4294967295
201.57541 4037.0532 -722.84619 4294967295
201.63693 4038.6128 -722.38043 4294967295
203.62369 4039.8909 -722.94958 4294967295
656.01416 3978.311 -721.74554 4294967295
666.172 3979.9634 -721.60931 4294967295
667.58228 4000.5254 -721.72498 4294967295
647.24982 4004.1204 -721.09552 4294967295
655.34613 4004.123 -721.35699 4294967295
658.21503 4004.0535 -721.64417 4294967295
662.71307 4002.8567 -721.00146 4294967295
664.82208 4002.2161 -721.3147 4294967295
619.49567 4008.603 -721.46436 4294967295
619.10364 4011.7241 -721.54736 4294967295
651.48285 3979.3604 -720.90839 4294967295
662.70801 3978.5898 -720.64984 4294967295
664.1568 3978.8521 -720.58093 4294967295
632.79327 3981.9004 -720.24854 4294967295
635.14874 3981.7258 -720.31226 4294967295
637.27563 3981.283 -720.8786 4294967295
639.2774 3981.0322 -720.73877 4294967295
668.54541 3998.3247 -720.73535 4294967295
634.84821 4004.3794 -720.17969 4294967295
637.16602 4004.3311 -720.31683 4294967295
641.33887 4004.2642 -720.73492 4294967295
621.27765 4007.823 -720.91827 4294967295
623.45233 4006.698 -720.60547 4294967295
625.42816 4005.7502 -720.80768 4294967295
627.41022 4005.4121 -720.46204 4294967295
628.95239 4005.1572 -720.05682 4294967295
621.15839 4009.5027 -720.43036 4294967295
621.37738 4011.9861 -720.69348 4294967295
188.01462 4036.8374 -720.41547 4294967295
189.80975 4036.8149 -720.12054 4294967295
193.68243 4036.55 -720.64233 4294967295
660.04517 3977.9309 -719.79913 4294967295
668.21393 3980.0605 -719.39081 4294967295
670.23853 3997.9243 -719.2204 4294967295
669.85077 3999.9333 -719.33441 4294967295
630.77856 4004.9202 -719.71381 4294967295
633.09412 4004.4934 -719.92645 4294967295
625.43915 4006.8174 -719.41101 4294967295
623.14447 4009.094 -719.53009 4294967295
623.23267 4011.7363 -719.86554 4294967295
643.42133 3980.8076 -718.74426 4294967295
664.57007 3979.1775 -718.07721 4294967295
634.90619 3981.9629 -718.34454 4294967295
639.08167 3981.4346 -718.46021 4294967295
671.14282 3998.9482 -718.61517 4294967295
666.77588 4001.6355 -718.35144 4294967295
636.86542 4004.3896 -718.20496 4294967295
643.44696 4004.1709 -718.66241 4294967295
625.38324 4007.8962 -718.90045 4294967295
627.55304 4006.5181 -718.49365 4294967295
629.51251 4005.5884 -718.61243 4294967295
625.10223 4009.5142 -718.63745 4294967295
625.30652 4012.0232 -718.97668 4294967295
659.47223 3978.4707 -717.06866 4294967295
637.19666 3981.7629 -717.89435 4294967295
670.12811 4000.6069 -717.43524 4294967295
671.97479 3999.7471 -717.47925 4294967295
672.24982 3999.0483 -717.60504 4294967295
629.48254 4006.6572 -717.16949 4294967295
632.85284 4005.0176 -717.89148 4294967295
626.80475 4008.9463 -717.79572 4294967295
627.41504 4012.2441 -717.96484 4294967295
666.7959 3979.4893 -716.63116 4294967295
639.07349 3981.6887 -716.32684 4294967295
641.04065 3981.4888 -716.3714 4294967295
643.37213 3981.0879 -716.78662 4294967295
670.48773 4000.79 -716.16565 4294967295
672.99371 3999.3389 -716.78326 4294967295
639.02087 4004.4604 -716.11792 4294967295
640.94373 4004.2791 -716.09473 4294967295
635.04382 4005.1533 -716.31055 4294967295
629.10834 4009.0039 -716.65186 4294967295
628.99335 4011.854 -716.97443 4294967295
672.19891 3979.5396 -715.44446 4294967295
673.26019 3995.8542 -715.71912 4294967295
668.36157 4001.4202 -715.875 4294967295
672.12128 4000.5498 -715.53674 4294967295
673.94116 3999.1423 -715.8399 4294967295
637.09387 4004.8696 -715.93225 4294967295
631.22632 4007.7129 -715.5423 4294967295
632.19495 4006.0835 -715.95734 4294967295
631.06744 4008.8977 -715.4989 4294967295
631.18658 4011.8152 -715.65631 4294967295
645.21027 3980.9558 -714.87366 4294967295
669.6875 3979.1272 -714.71002 4294967295
640.78436 3981.5037 -714.35114 4294967295
643.75391 3981.2532 -714.59308 4294967295
671.27258 4000.957 -714.57715 4294967295
672.85486 4000.6824 -714.27838 4294967295
633.42316 4006.5278 -714.87402 4294967295
637.31909 4005.2039 -714.82056 4294967295
632.98193 4008.8479 -714.04083 4294967295
668.04205 3979.145 -713.7218 4294967295
674.69379 3981.3997 -713.10309 4294967295
675.72876 3999.6042 -713.72626 4294967295
635.41772 4007.1279 -713.48456 4294967295
647.47168 3980.6389 -712.51965 4294967295
674.22241 3979.2649 -712.70392 4294967295
639.3623 3981.4563 -712.68555 4294967295
643.10718 3981.4724 -712.33344 4294967295
645.24219 3981.1345 -712.6001 4294967295
672.33771 3978.3276 -711.38947 4294967295
647.73309 3980.7515 -710.13904 4294967295
670.14954 3978.488 -710.94635 4294967295
675.5257 3979.4014 -710.87329 4294967295
644.95789 3981.2053 -710.20667 4294967295
670.37225 3978.1792 -709.35168 4294967295
672.31482 3978.1501 -709.71808 4294967295
647.07007 3980.8623 -708.10583 4294967295
677.57684 3999.2764 -708.54651 4294967295
674.48602 3978.2036 -707.44409 4294967295
679.323 3982.7891 -707.0177 4294967295
651.43152 3979.9575 -706.67932 4294967295
676.02344 3978.4961 -706.74371 4294967295
671.96545 3978.2131 -705.28491 4294967295
676.34369 3978.3723 -705.4469 4294967295
679.81628 3981.3079 -705.18475 4294967295
681.97321 3998.7349 -705.26685 4294967295
647.22253 3980.0122 -704.61578 4294967295
648.91553 3979.9749 -704.6181 4294967295
651.41571 3979.5828 -704.47552 4294967295
653.55237 3979.4802 -704.81036 4294967295
669.61743 3978.7949 -704.64423 4294967295
680.28076 3982.1819 -704.74969 4294967295
672.08014 3978.6772 -703.13788 4294967295
674.42212 3978.3611 -703.40387 4294967295
678.81311 3979.0793 -703.849 4294967295
681.8631 3986.3362 -703.00452 4294967295
683.20764 3998.4233 -703.01813 4294967295
678.42035 4001.0439 -703.53326 4294967295
680.36346 4000.6602 -703.24951 4294967295
648.72565 3979.4788 -702.65619 4294967295
651.34619 3979.3689 -702.04932 4294967295
652.521 3979.4158 -702.26379 4294967295
655.36401 3979.4995 -702.85681 4294967295
679.90698 3979.656 -702.89185 4294967295
681.44836 3982.5747 -702.83057 4294967295
649.70276 3979.0737 -701.15509 4294967295
655.11255 3979.8665 -701.04095 4294967295
677.16431 3978.9065 -701.59613 4294967295
682.71442 3983.5701 -701.11218 4294967295
680.41858 4000.9238 -701.38165 4294967295
650.72784 3978.9478 -700.18738 4294967295
652.23688 3979.3442 -700.33771 4294967295
679.75183 3979.5063 -700.68408 4294967295
681.11493 3980.4719 -700.7384 4294967295
647.78857 3977.5759 -699.71143 4294967295
676.49371 3979.02 -699.16724 4294967295
678.83582 3979.3223 -699.41907 4294967295
683.64581 3983.7227 -699.09924 4294967295
680.57788 4001.0471 -699.37585 4294967295
648.63898 3976.165 -698.16144 4294967295
649.22919 3977.6494 -698.74658 4294967295
650.87506 3978.6953 -698.66785 4294967295
652.99127 3979.696 -698.46466 4294967295
655.67426 3980.8264 -698.78693 4294967295
673.30908 3979.604 -698.88574 4294967295
683.90564 3986.3411 -698.97241 4294967295
684.96161 3998.9019 -698.85498 4294967295
683.90619 3999.9351 -698.97363 4294967295
648.98962 3966.8464 -697.0921 4294967295
650.36377 3977.7007 -697.06274 4294967295
676.45197 3979.3552 -697.17413 4294967295
678.65063 3979.2717 -697.38104 4294967295
684.49982 3983.8125 -697.22467 4294967295
684.85638 3986.1062 -697.29504 4294967295
686.04108 3994.384 -697.01697 4294967295
686.18225 3996.9172 -697.32025 4294967295
680.42743 4001.3789 -697.32867 4294967295
682.95636 4000.6443 -697.73114 4294967295
649.44073 3973.9121 -696.61951 4294967295
651.42175 3978.6575 -696.80994 4294967295
652.93744 3979.8323 -696.83936 4294967295
682.59985 3980.583 -696.90851 4294967295
655.2442 3981.2058 -696.51459 4294967295
683.88477 3982.0891 -696.89539 4294967295
685.0343 3988.8196 -696.95605 4294967295
685.32983 3990.9919 -696.98999 4294967295
677.55829 4001.4609 -696.89307 4294967295
685.6156 3999.1582 -696.9306 4294967295
649.06268 3954.7937 -695.10693 4294967295
678.10516 3979.3462 -695.36469 4294967295
680.58759 3979.4426 -695.30713 4294967295
685.8465 3986.073 -695.20465 4294967295
686.40063 3998.9854 -695.15283 4294967295
687.07349 3996.6936 -695.18457 4294967295
683.12927 4000.8108 -695.56049 4294967295
650.60199 3964.9272 -694.91998 4294967295
651.00604 3968.8752 -694.78455 4294967295
651.11902 3973.7332 -694.81061 4294967295
651.46967 3976.9556 -694.8927 4294967295
652.91003 3979.5757 -694.97644 4294967295
675.68256 3979.6992 -694.97284 4294967295
684.02173 3980.9785 -694.74432 4294967295
684.83624 3982.3916 -694.71552 4294967295
685.43958 3983.8464 -694.95007 4294967295
652.25946 3966.8247 -693.06567 4294967295
678.25519 3979.3643 -693.1026 4294967295
680.62195 3979.2844 -693.39075 4294967295
686.21039 3983.7915 -693.13068 4294967295
686.86542 3988.6384 -693.04785 4294967295
687.64917 3993.6152 -693.07788 4294967295
687.75348 3997.7017 -693.27606 4294967295
688.11719 3996.0957 -693.3974 4294967295
679.85693 4001.4944 -693.12311 4294967295
682.36829 4001.3733 -693.45203 4294967295
684.49554 4000.7373 -693.4754 4294967295
675.53741 3979.8203 -692.84064 4294967295
658.55817 3982.0203 -692.40533 4294967295
684.92712 3981.1892 -692.6803 4294967295
685.84576 4000.2451 -692.99243 4294967295
680.18628 3979.2241 -691.25677 4294967295
682.45276 3979.4075 -691.27094 4294967295
688.65009 3996.251 -691.08728 4294967295
682.57288 4001.5444 -691.10516 4294967295
685.10077 4000.8003 -691.57123 4294967295
688.09131 3999.157 -691.07312 4294967295
687.57233 3985.9558 -690.99615 4294967295
688.36206 3993.5046 -690.97766 4294967295
679.63611 4001.5381 -690.90021 4294967295
688.87189 3993.6682 -689.30414 4294967295
689.15863 3996.5791 -689.16876 4294967295
682.31573 4001.6267 -689.06091 4294967295
684.80371 4001.2981 -689.18286 4294967295
686.27692 4000.7974 -689.34698 4294967295
655.5517 3975.7422 -688.71313 4294967295
656.47498 3979.0591 -688.78986 4294967295
659.33514 3981.3345 -688.75964 4294967295
660.59662 3981.7876 -688.51624 4294967295
662.49481 3982.0171 -688.41132 4294967295
677.35431 4001.6147 -688.85101 4294967295
687.7876 4000.0137 -688.71362 4294967295
657.69495 3979.3948 -687.14795 4294967295
682.40057 3979.3691 -687.21368 4294967295
689.42719 3998.04 -687.31079 4294967295
686.56049 4000.896 -687.05884 4294967295
657.0022 3976.0173 -686.50018 4294967295
657.24146 3978.0698 -686.78693 4294967295
659.18243 3980.7742 -686.83551 4294967295
662.66602 3981.95 -686.38257 4294967295
689.02374 3999.0461 -686.76245 4294967295
666.71112 4002.1719 -686.35645 4294967295
684.32336 3979.7419 -685.2403 4294967295
690.06427 3996.8174 -685.07568 4294967295
686.49243 4001.0452 -685.16077 4294967295
689.39398 3999.0759 -685.05414 4294967295
658.24438 3973.0415 -684.7558 4294967295
658.19519 3975.6533 -684.58649 4294967295
658.69788 3978.2117 -684.46558 4294967295
659.2796 3979.731 -684.92627 4294967295
662.80505 3981.647 -684.48071 4294967295
664.64502 3982.0562 -684.33624 4294967295
666.85797 3981.8914 -684.57141 4294967295
689.81433 3993.6902 -684.95441 4294967295
675.13409 4001.7273 -684.92847 4294967295
663.67395 4004.5437 -684.81018 4294967295
665.46301 4003.0464 -684.81787 4294967295
668.36206 4002.0007 -684.37646 4294967295
684.53693 3979.7908 -683.09979 4294967295
687.77997 4000.7424 -683.08038 4294967295
659.47729 3973.0933 -682.49792 4294967295
659.49475 3976.9429 -682.74048 4294967295
661.37543 3980.7473 -682.97992 4294967295
686.14758 3980.4175 -682.6687 4294967295
663.11713 3981.572 -682.68811 4294967295
666.44818 3982.1013 -682.41461 4294967295
688.02765 3981.7559 -682.98993 4294967295
670.36719 4001.7864 -682.38208 4294967295
689.71423 3999.3809 -682.96973 4294967295
668.34283 4002.1907 -682.34937 4294967295
690.83423 3997.8962 -681.08954 4294967295
660.45148 3970.8943 -680.86157 4294967295
660.33405 3973.0298 -680.94208 4294967295
660.56805 3976.8569 -680.75604 4294967295
661.56213 3979.4219 -680.63214 4294967295
662.64777 3980.9604 -680.87189 4294967295
682.2287 3979.916 -680.98523 4294967295
684.95599 3979.8625 -680.77887 4294967295
664.68225 3981.689 -680.58344 4294967295
666.25183 3981.9673 -680.52783 4294967295
687.90216 3981.1814 -680.86713 4294967295
690.74597 3993.8726 -680.90912 4294967295
690.51727 3998.8093 -680.80554 4294967295
688.00702 4000.8872 -680.99738 4294967295
663.31366 3980.6323 -679.09589 4294967295
684.80988 3979.9097 -679.03967 4294967295
686.35815 3980.334 -679.30664 4294967295
691.10938 3993.7119 -679.14771 4294967295
688.32434 4000.9941 -679.1568 4294967295
666.42651 4004.2603 -679.7851 4294967295
661.66168 3975.7727 -678.22644 4294967295
661.82581 3978.1228 -678.91736 4294967295
662.40228 3979.343 -678.8634 4294967295
665.23877 3981.6125 -678.93268 4294967295
666.53326 3981.8906 -678.6452 4294967295
668.56519 3982.2 -678.30499 4294967295
689.43561 3982.4734 -678.88483 4294967295
690.89215 3999.0173 -678.82831 4294967295
684.38873 3980.1594 -677.39581 4294967295
686.72345 3980.3882 -677.02246 4294967295
691.61658 3993.8948 -677.01001 4294967295
692.11859 3996.7566 -677.06366 4294967295
688.4873 4001.1826 -677.30182 4294967295
662.51166 3975.7285 -676.55048 4294967295
662.75824 3978.0884 -676.7207 4294967295
663.30432 3979.2817 -676.90723 4294967295
664.04163 3980.4163 -676.96942 4294967295
682.09039 3980.4678 -676.95184 4294967295
687.86212 3980.739 -676.94757 4294967295
666.63831 3981.7869 -676.71442 4294967295
668.24078 3982.0505 -676.45972 4294967295
689.66272 3982.0811 -676.8009 4294967295
691.77069 3997.9749 -676.92383 4294967295
665.29529 3980.7959 -675.00214 4294967295
681.24823 3980.7542 -675.40179 4294967295
688.15009 3980.7017 -675.08398 4294967295
690.79333 3983.5481 -675.0163 4294967295
692.51373 3996.6013 -675.21747 4294967295
688.52673 4001.4519 -675.1723 4294967295
663.32599 3975.5056 -674.7851 4294967295
663.81061 3978.074 -674.62769 4294967295
684.8609 3980.3013 -674.84003 4294967295
686.67316 3980.3621 -674.81952 4294967295
670.3017 3982.2405 -674.57098 4294967295
673.06433 3981.7864 -674.62787 4294967295
689.95093 3981.9299 -674.81195 4294967295
691.93066 3993.4004 -674.87494 4294967295
691.48108 3999.5588 -674.85803 4294967295
686.54968 3980.2129 -673.19189 4294967295
692.23212 3993.3157 -673.07965 4294967295
692.8147 3996.0574 -673.14954 4294967295
664.24304 3975.698 -672.53052 4294967295
665.0802 3979.3779 -672.92535 4294967295
666.39105 3980.998 -672.93842 4294967295
681.68445 3980.9309 -672.61255 4294967295
684.16132 3980.4404 -672.96112 4294967295
688.41376 3980.717 -672.9129 4294967295
668.55267 3981.8894 -672.65552 4294967295
669.97119 3982.2295 -672.50586 4294967295
690.55884 3982.4431 -672.94672 4294967295
691.1283 3983.6028 -672.92273 4294967295
692.53693 3997.967 -672.90228 4294967295
689.99866 4001.0676 -672.99207 4294967295
668.651 4006.9456 -672.36316 4294967295
666.97125 3981.0391 -671.0174 4294967295
692.62183 3993.616 -671.07593 4294967295
693.15601 3996.0439 -671.22559 4294967295
664.99799 3975.6802 -670.65045 4294967295
665.63623 3978.686 -670.70178 4294967295
684.21368 3980.5759 -670.92957 4294967295
668.76587 3981.7427 -670.86298 4294967295
670.44183 3982.075 -670.32092 4294967295
672.61536 3982.2488 -670.61664 4294967295
689.79822 3981.3081 -670.89771 4294967295
690.8045 3982.394 -670.78857 4294967295
692.94696 3997.9807 -670.6955 4294967295
691.72839 4000.2397 -670.95953 4294967295
669.30975 4007.6108 -670.4718 4294967295
667.56714 3980.7114 -669.0014 4294967295
687.00995 3980.5415 -669.27197 4294967295
688.68134 3980.7351 -669.12427 4294967295
692.93787 3993.8574 -669.20007 4294967295
688.80206 4002.0115 -669.19525 4294967295
665.57849 3975.8201 -668.96008 4294967295
666.14838 3978.0762 -668.68872 4294967295
684.12769 3980.7446 -668.97754 4294967295
669.3078 3981.7166 -668.83893 4294967295
672.6156 3982.3838 -668.53528 4294967295
674.89093 3982.0449 -668.90912 4294967295
677.45935 3981.7947 -668.48999 4294967295
690.30573 3981.5408 -668.74377 4294967295
691.06567 3982.4683 -668.81165 4294967295
693.49542 3996.0764 -668.96741 4294967295
692.30499 4000.1104 -668.81177 4294967295
670.61407 4004.6389 -668.85785 4294967295
669.81696 4007.5859 -668.57037 4294967295
670.37207 4010.2734 -668.96863 4294967295
670.98474 4012.7117 -668.73669 4294967295
667.25647 3979.3125 -667.1485 4294967295
689.73602 3981.1646 -667.0434 4294967295
693.16467 3994.4871 -667.53491 4294967295
693.2113 3997.0833 -667.36414 4294967295
690.71307 4001.501 -667.14929 4294967295
666.81561 3977.9395 -666.7677 4294967295
686.65265 3980.4954 -666.64917 4294967295
670.84381 3981.9683 -666.70825 4294967295
672.1684 3982.2339 -666.59985 4294967295
674.81116 3982.248 -666.60626 4294967295
677.39069 3981.927 -666.68933 4294967295
691.89014 3983.6057 -666.88239 4294967295
692.09479 3986.2144 -666.33673 4294967295
692.77374 3992.1072 -666.88885 4294967295
693.29083 3999.1255 -666.90607 4294967295
670.60028 4006.8616 -666.72363 4294967295
670.89764 4010.0376 -666.80096 4294967295
667.00305 3975.6216 -665.02496 4294967295
689.75189 3981.1997 -665.03143 4294967295
693.18866 3994.5115 -665.81714 4294967295
692.98712 3998.2983 -665.48718 4294967295
693.20642 3996.583 -665.10724 4294967295
690.84357 4001.636 -665.06714 4294967295
691.83691 4000.156 -665.24634 4294967295
667.49805 3977.9946 -664.68768 4294967295
667.97119 3979.4009 -664.89142 4294967295
668.98865 3980.8896 -664.88336 4294967295
686.55847 3980.6274 -664.93262 4294967295
670.74426 3981.8772 -664.68927 4294967295
672.1861 3982.2515 -664.85425 4294967295
677.37952 3982.0808 -664.65582 4294967295
691.48199 3982.4387 -664.80035 4294967295
691.88739 3984.2288 -664.93671 4294967295
692.9361 3992.8672 -664.53833 4294967295
685.80359 4002.2292 -664.7713 4294967295
688.45465 4002.3284 -664.86774 4294967295
669.39746 3980.9507 -663.16168 4294967295
686.29193 3980.8213 -663.04333 4294967295
688.50854 3980.958 -663.13416 4294967295
691.61041 3983.7563 -663.30713 4294967295
691.88074 3985.7227 -663.28882 4294967295
692.81799 3993.5308 -663.04749 4294967295
693.06818 3995.0833 -663.97687 4294967295
692.49963 3997.863 -663.2644 4294967295
690.15955 4001.3777 -663.89618 4294967295
667.61804 3975.656 -662.96582 4294967295
668.07214 3977.9727 -662.66132 4294967295
668.62256 3979.792 -662.95941 4294967295
671.01703 3981.9351 -662.67291 4294967295
672.51434 3982.3718 -662.60175 4294967295
674.61871 3982.5408 -662.84973 4294967295
679.27985 3981.9998 -662.94635 4294967295
683.97205 3981.2944 -662.77539 4294967295
689.81812 3981.7229 -662.97266 4294967295
690.90454 3982.7446 -662.46051 4294967295
692.74976 3995.6433 -662.43146 4294967295
688.30426 4001.8276 -662.84192 4294967295
690.65259 4000.3252 -662.05835 4294967295
681.17657 4002.0444 -662.98291 4294967295
683.55804 4002.2029 -662.95355 4294967295
668.97742 3979.8689 -661.09296 4294967295
674.12817 3982.7185 -661.04761 4294967295
687.99878 3981.3738 -661.30798 4294967295
689.78278 3982.1873 -661.15704 4294967295
690.60895 3982.8757 -661.25854 4294967295
691.0473 3984.1174 -661.05011 4294967295
691.77222 3998.7874 -661.59668 4294967295
668.23291 3975.5986 -660.94611 4294967295
668.61072 3978.2485 -660.68713 4294967295
686.43921 3980.9724 -660.81909 4294967295
669.83905 3981.021 -660.78131 4294967295
671.22974 3982.0115 -660.79651 4294967295
676.83575 3982.4854 -660.91614 4294967295
683.47577 3981.5249 -660.82355 4294967295
690.10126 3982.8838 -660.23138 4294967295
691.54285 3986.7683 -660.7019 4294967295
692.00543 3997.3801 -660.88599 4294967295
688.4234 4001.5803 -660.8208 4294967295
691.15662 3999.2341 -660.42065 4294967295
681.30353 4002.0994 -660.6524 4294967295
683.60132 4002.2642 -660.9361 4294967295
685.72614 4002.3394 -660.83282 4294967295
681.38153 3981.9778 -659.00983 4294967295
685.9527 3981.502 -659.578 4294967295
687.48804 4001.8394 -659.35425 4294967295
689.53424 4000.4421 -659.02905 4294967295
685.47974 4002.3821 -659.06012 4294967295
668.83691 3975.6951 -658.90295 4294967295
669.34186 3979.2673 -658.82684 4294967295
670.15881 3981.083 -658.99127 4294967295
672.25848 3982.4011 -658.86072 4294967295
674.16949 3982.7368 -658.74597 4294967295
676.71375 3982.6775 -658.85797 4294967295
683.46472 3981.6526 -658.74567 4294967295
688.43347 3982.2698 -658.70044 4294967295
690.03119 3983.5549 -658.93567 4294967295
690.89447 3998.5957 -658.75537 4294967295
676.4198 4002.3694 -658.67676 4294967295
681.22101 4002.1636 -658.75122 4294967295
669.30347 3975.7891 -657.07538 4294967295
669.88672 3980.0601 -657.14624 4294967295
679.22955 3982.4185 -657.08081 4294967295
685.55792 3981.8081 -657.44604 4294967295
690.61853 3985.4358 -657.97626 4294967295
687.61792 4001.4412 -657.31567 4294967295
669.66266 3978.762 -656.60779 4294967295
672.45569 3982.592 -656.81378 4294967295
674.36829 3982.8362 -656.64697 4294967295
676.85345 3982.8223 -656.68738 4294967295
687.5108 3982.124 -656.55432 4294967295
688.5733 3982.5552 -656.7373 4294967295
689.42688 3983.6487 -656.66949 4294967295
675.19879 4003.1099 -656.91895 4294967295
678.53296 4002.1409 -656.7901 4294967295
685.65729 4002.4355 -656.88318 4294967295
688.36835 3982.95 -655.10956 4294967295
687.22894 4001.4697 -655.11713 4294967295
683.22046 4002.3608 -655.01385 4294967295
669.85095 3972.9387 -654.69342 4294967295
669.78674 3975.4802 -654.85632 4294967295
669.77155 3978.1162 -654.5083 4294967295
670.28802 3980.0171 -654.99792 4294967295
671.16107 3981.4846 -654.87793 4294967295
672.74969 3982.4766 -654.89233 4294967295
676.42102 3983.0066 -654.95709 4294967295
685.93903 3982.0427 -654.93036 4294967295
673.8811 4004.4387 -654.81219 4294967295
676.09967 4002.8262 -654.70508 4294967295
678.34094 4002.2109 -654.63879 4294967295
681.2804 4002.3213 -654.86359 4294967295
685.66943 4002.1326 -654.38379 4294967295
670.64288 3980.0383 -653.04742 4294967295
671.43927 3981.4683 -653.07178 4294967295
681.74445 3982.2871 -653.07739 4294967295
687.85657 3982.8723 -653.28961 4294967295
670.15381 3975.1113 -652.89911 4294967295
670.10675 3978.2053 -652.69214 4294967295
673.16174 3982.5503 -652.69916 4294967295
676.65741 3983.1184 -652.68817 4294967295
683.66437 3981.9314 -652.90997 4294967295
686.25262 3982.1709 -652.64911 4294967295
686.99628 4001.5435 -652.16083 4294967295
674.70337 4003.6848 -652.92981 4294967295
678.22955 4002.4695 -652.70581 4294967295
681.36621 4002.3779 -652.76538 4294967295
685.03601 4002.2693 -652.21393 4294967295
673.59186 4007 -652.81049 4294967295
670.52032 3978.0183 -651.02893 4294967295
671.69958 3981.4653 -651.00348 4294967295
673.12292 3982.5303 -651.24579 4294967295
687.67975 3983.0232 -651.38324 4294967295
683.07483 4002.4341 -651.04651 4294967295
670.45801 3975.0911 -650.88196 4294967295
670.99817 3980.0908 -650.8783 4294967295
674.35492 3982.9404 -650.71423 4294967295
681.38092 3982.5447 -650.57019 4294967295
685.6236 3982.2068 -650.6969 4294967295
675.69684 4003.3652 -650.82104 4294967295
677.46875 4002.7761 -650.87469 4294967295
680.79926 4002.45 -650.7533 4294967295
685.98578 4002.2009 -650.58813 4294967295
673.85321 4006.2961 -650.79883 4294967295
679.25903 3982.9368 -649.00378 4294967295
683.47888 3982.1482 -649.03601 4294967295
687.02216 3982.7056 -649.27136 4294967295
688.53229 3983.811 -649.7464 4294967295
687.12939 4001.6848 -649.9978 4294967295
688.00317 4000.7849 -649.78711 4294967295
675.4613 4003.6326 -649.1358 4294967295
684.71387 4002.4463 -649.40375 4294967295
685.95929 4002.283 -649.04205 4294967295
686.63147 4002.0229 -649.966 4294967295
670.71375 3975.2083 -648.77594 4294967295
671.17474 3980.0154 -648.8573 4294967295
671.74811 3981.2424 -648.89771 4294967295
673.19843 3982.5686 -648.72314 4294967295
676.38068 3983.2593 -648.71014 4294967295
685.31995 3982.3049 -648.61932 4294967295
686.65039 4001.9116 -648.01587 4294967295
677.11267 4003.0667 -648.68793 4294967295
680.4165 4002.5464 -648.96472 4294967295
683.41998 4002.4854 -648.77869 4294967295
670.90137 3977.9077 -647.01038 4294967295
672.03967 3981.5393 -647.10278 4294967295
679.01331 3983.0967 -647.02069 4294967295
686.46356 3982.6365 -647.06268 4294967295
688.08789 3983.3149 -647.77997 4294967295
689.53558 3984.813 -647.63147 4294967295
685.26343 4002.417 -647.57678 4294967295
671.30548 3979.9363 -646.85669 4294967295
673.22852 3982.5781 -646.80109 4294967295
676.1687 3983.4949 -646.93408 4294967295
681.4032 3982.7317 -646.86475 4294967295
683.92651 3982.4802 -646.58484 4294967295
676.88483 4003.3118 -646.9696 4294967295
680.67828 4002.6492 -646.6933 4294967295
683.40411 4002.6187 -646.92157 4294967295
688.60272 3983.3215 -645.00909 4294967295
685.13055 4002.3918 -645.13599 4294967295
671.04126 3977.8491 -644.74292 4294967295
671.55786 3980.4575 -644.97571 4294967295
672.86639 3982.3936 -644.97137 4294967295
674.32373 3983.1277 -644.93756 4294967295
676.19342 3983.397 -644.90649 4294967295
678.93481 3983.2231 -644.80524 4294967295
685.70087 3982.5425 -644.64447 4294967295
690.72162 3985.1763 -644.30737 4294967295
688.00098 4001.0232 -644.99866 4294967295
680.65649 4002.6873 -644.8974 4294967295
683.3299 4002.6887 -644.7489 4294967295
671.38007 3980.2473 -643.14661 4294967295
687.73273 3982.4668 -643.07782 4294967295
690.46136 3983.77 -643.11749 4294967295
671.06787 3977.8904 -642.737 4294967295
672.99567 3982.5247 -642.84094 4294967295
674.24847 3983.1455 -642.93774 4294967295
676.12238 3983.5042 -642.83698 4294967295
678.91705 3983.3298 -642.86865 4294967295
681.34906 3983.0093 -642.82898 4294967295
686.02771 3982.0645 -642.84503 4294967295
689.82599 3982.7874 -642.10461 4294967295
691.5976 3984.6775 -642.26746 4294967295
678.09857 4003.0107 -642.75024 4294967295
683.31403 4002.79 -642.8725 4294967295
671.39227 3980.0049 -641.03772 4294967295
675.99921 3983.7368 -641.14203 4294967295
691.25714 3983.5483 -641.76746 4294967295
692.66565 3987.2495 -641.45551 4294967295
690.0188 4000.7886 -641.70209 4294967295
691.49994 3999.6406 -641.10443 4294967295
683.18622 4002.8523 -641.07574 4294967295
685.51642 4002.6245 -641.42755 4294967295
688.19916 4002.1777 -641.11755 4294967295
671.97772 3981.1689 -640.78986 4294967295
673.60004 3982.9819 -640.79712 4294967295
678.61145 3983.4841 -640.98767 4294967295
681.1496 3983.1279 -640.95032 4294967295
688.39685 3982.1406 -640.47876 4294967295
690.45532 3982.3052 -640.25049 4294967295
691.57141 3982.9712 -640.48102 4294967295
692.41504 3984.3665 -640.64343 4294967295
676.49121 4003.8206 -640.7453 4294967295
677.547 4003.324 -640.82953 4294967295
680.51428 4002.7659 -640.76001 4294967295
672.02838 3981.3088 -639.14935 4294967295
674.22437 3983.3518 -639.17279 4294967295
678.51025 3983.6223 -639.22321 4294967295
681.4884 3983.1064 -639.00897 4294967295
691.22717 4001.0225 -639.89874 4294967295
692.31213 4000.1069 -639.2782 4294967295
685.24335 4003.0027 -639.09564 4294967295
673.06635 3982.7405 -638.86499 4294967295
676.13 3983.9111 -638.854 4294967295
683.17053 3982.8057 -638.87891 4294967295
685.8714 3982.313 -638.44958 4294967295
690.38104 3981.9141 -638.86835 4294967295
691.9671 3982.3379 -638.78571 4294967295
692.97064 3983.5845 -638.78595 4294967295
693.62305 3985.2673 -638.8772 4294967295
693.97162 3987.6169 -638.69525 4294967295
691.85577 4001.2588 -638.5744 4294967295
692.65393 4000.6074 -638.09283 4294967295
676.55322 4003.9612 -638.95917 4294967295
678.29431 4003.3181 -638.97876 4294967295
683.38916 4002.9377 -638.87036 4294967295
687.63226 4003.1379 -638.91223 4294967295
689.99884 4002.2217 -638.77466 4294967295
672.80719 3982.6206 -637.05737 4294967295
688.36719 3981.8757 -637.21753 4294967295
694.54712 3988.4221 -637.02271 4294967295
693.36981 3999.0454 -637.67719 4294967295
671.43805 3980.1401 -636.93524 4294967295
674.43732 3983.5798 -636.93439 4294967295
678.61664 3983.7747 -636.88239 4294967295
681.45618 3983.2415 -636.75879 4294967295
685.66614 3982.4578 -636.80255 4294967295
690.75574 3982.0842 -636.96173 4294967295
693.25989 3983.0581 -636.91864 4294967295
675.90491 3984.0581 -636.96692 4294967295
694.37524 3985.2769 -636.80164 4294967295
694.38025 3996.8772 -636.43555 4294967295
692.44171 4001.3406 -636.71484 4294967295
676.86182 4003.9873 -636.59906 4294967295
678.28345 4003.4187 -636.69202 4294967295
687.70996 4003.2495 -636.8764 4294967295
690.1571 4002.8462 -636.26843 4294967295
681.32343 3983.376 -635.06537 4294967295
694.02881 3983.9414 -635.11548 4294967295
694.98035 3988.0239 -635.01453 4294967295
691.98071 4002.6233 -635.04608 4294967295
671.22095 3977.9128 -634.71423 4294967295
672.08514 3981.5251 -634.98199 4294967295
673.27777 3983.1111 -634.87793 4294967295
674.39191 3983.6995 -634.98901 4294967295
678.27997 3983.9705 -634.85663 4294967295
685.45453 3982.6499 -634.71924 4294967295
688.20026 3982.1274 -634.80542 4294967295
691.84894 3982.5264 -634.9447 4294967295
694.8067 3985.5642 -634.74603 4294967295
694.5575 3998.8677 -634.48517 4294967295
693.50427 4001.7378 -634.19226 4294967295
687.76031 4003.3545 -634.79755 4294967295
690.51416 4003.4973 -634.82141 4294967295
671.65881 3980.2593 -633.20636 4294967295
674.39752 3983.7786 -633.09619 4294967295
695.27753 3989.9314 -633.43896 4294967295
672.59833 3982.3835 -632.90283 4294967295
685.41412 3982.8213 -632.82526 4294967295
690.49231 3982.2427 -632.94543 4294967295
692.33136 3982.6504 -632.72565 4294967295
675.9859 3984.3018 -632.97748 4294967295
694.05798 3984.0325 -632.95276 4294967295
695.38434 3987.8518 -632.9859 4294967295
694.73688 4001.0408 -632.18195 4294967295
692.53998 4003.1006 -632.9588 4294967295
693.83844 4002.5547 -632.99219 4294967295
674.79474 4006.355 -632.82776 4294967295
672.21124 3981.6877 -631.13489 4294967295
692.36389 3982.9563 -631.01276 4294967295
671.65875 3980.0806 -630.85156 4294967295
673.08142 3983.0396 -630.89355 4294967295
674.45618 3983.8494 -630.97418 4294967295
681.27173 3983.6824 -630.9328 4294967295
688.13226 3982.6667 -630.73956 4294967295
693.66803 3983.6387 -630.64966 4294967295
675.78387 3984.1514 -630.62323 4294967295
678.25092 3984.2168 -630.71082 4294967295
694.96863 3985.5959 -630.89435 4294967295
695.26111 3987.0261 -630.72028 4294967295
695.7854 3998.6082 -630.96124 4294967295
677.02887 4004.3367 -630.85223 4294967295
690.29376 4003.7146 -630.79926 4294967295
692.69604 4003.1882 -630.87451 4294967295
693.85541 4002.666 -630.72406 4294967295
671.3924 3977.7087 -628.9621 4294967295
671.70862 3980.106 -628.78638 4294967295
672.26782 3981.7957 -628.80359 4294967295
673.06726 3983.0002 -628.6792 4294967295
674.53821 3983.9504 -628.77472 4294967295
681.34174 3983.8035 -628.90417 4294967295
691.47479 3982.925 -628.89014 4294967295
676.13104 3984.2839 -628.87201 4294967295
678.573 3984.304 -628.78265 4294967295
694.58496 3985.0239 -628.8103 4294967295
696.23853 3995.665 -628.83728 4294967295
695.78174 4001.3516 -628.94867 4294967295
677.16815 4004.2717 -628.73749 4294967295
675.08923 4006.2559 -628.88507 4294967295
671.45709 3977.6743 -627.02368 4294967295
671.74097 3980.0762 -627.10846 4294967295
685.35675 3983.3335 -627.01355 4294967295
676.78741 4004.4507 -627.05328 4294967295
693.92993 4002.8762 -627.00189 4294967295
672.27802 3981.7666 -626.91681 4294967295
673.10455 3983.0752 -626.89722 4294967295
691.40009 3983.0322 -626.88098 4294967295
692.52118 3983.3145 -626.77832 4294967295
674.77698 3984.0659 -626.9552 4294967295
676.21356 3984.3669 -626.63782 4294967295
678.31134 3984.481 -626.94073 4294967295
694.5451 3984.959 -626.83929 4294967295
695.28632 3986.9043 -626.94275 4294967295
696.23053 3995.4956 -626.97314 4294967295
678.50079 4003.7839 -626.79224 4294967295
675.09082 4006.1023 -626.85278 4294967295
673.29272 3983.2913 -625.00104 4294967295
688.05103 3983.042 -625.0658 4294967295
690.40332 3982.8909 -625.10907 4294967295
692.13373 3983.2507 -625.13562 4294967295
676.03162 3984.3967 -625.22589 4294967295
680.5141 4003.4631 -625.17737 4294967295
671.5318 3977.3772 -624.60138 4294967295
671.80713 3980.3242 -624.84045 4294967295
672.26062 3981.7673 -624.97986 4294967295
