# .PCD v0.7 - Point Cloud Data file format
VERSION 0.7
FIELDS x y z rgba
SIZE 4 4 4 4
TYPE F F F U
COUNT 1 1 1 1
WIDTH 1330
HEIGHT 1
VIEWPOINT 0 0 0 1 0 0 0
POINTS 1330
DATA ascii
25.447626 -438.16058 -542.85272 684
29.594894 -438.96591 -542.76587 684
40.085594 -439.97662 -542.63031 684
43.292957 -439.57779 -542.76935 684
45.630619 -439.508 -542.80365 684
47.577518 -439.72055 -542.70557 684
49.309849 -439.8584 -542.58643 684
51.665802 -439.67169 -542.77112 684
53.376694 -440.71991 -542.02551 684
55.555038 -440.78851 -542.03839 684
57.331348 -439.47885 -542.88324 684
59.37645 -440.18488 -542.41882 684
61.374233 -439.34866 -542.84601 684
63.405033 -439.51712 -542.78241 684
67.218658 -440.01337 -542.71466 684
69.215729 -440.00806 -542.80054 684
73.1418 -440.3158 -542.80597 684
75.275963 -440.5152 -542.75775 684
79.277023 -440.48993 -542.74481 684
81.539986 -440.43079 -542.71881 684
83.518608 -440.35825 -542.71667 684
85.227814 -438.4523 -542.98444 684
87.410934 -439.4007 -542.80182 684
91.492355 -439.36597 -542.73596 684
93.27108 -438.24728 -542.9317 684
95.283684 -440.52954 -542.72717 684
97.207245 -439.30713 -542.67114 684
115.29275 -440.29568 -542.39648 684
117.44872 -440.90997 -542.46686 684
125.75582 -439.11871 -542.0708 684
127.22173 -438.02954 -542.29285 684
128.39987 -440.06982 -542.0517 684
130.53537 -439.8418 -542.3175 684
132.35742 -439.78067 -542.61273 684
134.08067 -438.4133 -542.90393 684
135.9483 -440.00589 -542.91223 684
137.93491 -439.14798 -542.95178 684
140.12326 -438.64746 -542.89771 684
141.56973 -440.87592 -542.46484 684
142.32953 -438.34995 -542.70306 684
143.72401 -440.42181 -542.27808 684
144.52882 -438.01587 -542.48987 684
146.22108 -440.08636 -542.10614 684
148.85014 -438.68271 -542.04498 684
-20.408432 -435.21884 -542.44189 684
-18.527704 -435.32977 -542.71466 684
-16.386747 -435.50183 -542.88037 684
-14.602098 -435.75485 -542.86078 684
-12.637653 -435.81619 -542.87317 684
-10.466199 -435.79843 -542.93353 684
-0.47900665 -436.7691 -542.53479 684
1.3990567 -436.38544 -542.89532 684
5.4414392 -436.99875 -542.71436 684
7.7123289 -437.22757 -542.87146 684
9.1970673 -437.9585 -542.62482 684
17.516983 -437.89783 -542.974 684
23.339453 -437.97736 -542.88 684
83.399551 -435.63745 -542.9104 684
89.313026 -435.36017 -542.74976 684
93.37236 -435.21387 -542.65009 684
113.42355 -437.96765 -542.41302 684
122.96437 -437.39191 -542.1557 684
125.6861 -436.78888 -542.30902 684
127.71388 -435.99152 -542.47858 684
128.67009 -437.83145 -542.4328 684
129.83905 -436.43799 -542.63208 684
131.96028 -437.23273 -542.79407 684
133.76146 -435.3645 -542.83795 684
136.08607 -436.90927 -542.9649 684
138.48334 -436.06244 -542.92059 684
140.96645 -436.00192 -542.83997 684
143.22917 -435.98846 -542.67017 684
145.17519 -435.88284 -542.49347 684
146.77315 -437.2287 -542.29364 684
148.7742 -436.30237 -542.17725 684
-40.664749 -432.53928 -542.67822 684
-38.597794 -432.61285 -542.755 684
-36.556709 -434.11035 -542.24042 684
-34.615299 -433.08463 -542.78882 684
-32.751106 -432.94742 -542.75995 684
-30.506029 -432.94778 -542.75671 684
-28.708321 -433.00827 -542.84583 684
-24.922016 -433.68423 -542.6778 684
-22.575144 -434.51895 -542.55615 684
95.383858 -433.06308 -542.60138 684
122.67879 -433.87411 -542.2522 684
124.22281 -433.51617 -542.28613 684
126.12517 -433.45319 -542.32495 684
127.409 -433.91074 -542.45935 684
128.2926 -432.48996 -542.3905 684
129.11346 -434.29431 -542.57013 684
130.26985 -432.43759 -542.46832 684
131.29874 -434.70734 -542.71033 684
132.75772 -432.62814 -542.54395 684
136.21635 -432.47443 -542.47089 684
139.65195 -433.29688 -542.63306 684
142.12903 -433.71765 -542.61566 684
144.38089 -433.96146 -542.48956 684
145.39449 -432.22595 -542.25183 684
147.08513 -434.18112 -542.29993 684
149.65039 -433.55768 -542.15234 684
-50.415459 -430.44244 -542.22382 684
-46.533009 -430.39688 -542.41351 684
-44.809452 -431.13562 -542.45746 684
-42.613804 -431.34222 -542.63354 684
-36.917645 -431.5643 -542.83276 684
-34.664104 -430.8699 -542.99103 684
91.525238 -431.02921 -542.76947 684
93.29261 -431.17563 -542.73871 684
99.43927 -431.02444 -542.65424 684
109.55846 -430.52463 -542.62518 684
131.37073 -430.76086 -542.19574 684
133.50012 -430.17139 -542.00574 684
139.07715 -430.43518 -542.04785 684
141.29539 -431.33078 -542.25494 684
143.43105 -431.87115 -542.29517 684
159.44418 -429.8494 -542.2359 684
165.49707 -429.76016 -542.06775 684
-56.823093 -428.21347 -542.05054 684
-54.615864 -428.41537 -542.20917 684
-48.727467 -428.10822 -542.48425 684
-42.601513 -428.0058 -542.75623 684
-38.805153 -427.76913 -542.82709 684
-36.630177 -427.89847 -542.86139 684
-34.680424 -427.24817 -542.84784 684
-32.57275 -427.85919 -542.97333 684
-30.655415 -427.32227 -542.97168 684
-28.481098 -427.15909 -542.98901 684
93.416626 -428.83078 -542.97162 684
95.430954 -428.73001 -542.96747 684
97.564949 -428.48026 -542.98907 684
99.294052 -428.58493 -542.9649 684
101.82395 -428.34192 -542.99567 684
103.37046 -428.38611 -542.98138 684
105.5117 -427.22382 -542.95923 684
107.53061 -428.46603 -542.88702 684
109.44104 -428.41248 -542.85004 684
111.48087 -428.40875 -542.80151 684
-32.391914 -423.13385 -542.84387 684
-30.400106 -425.13965 -542.85248 684
-24.618677 -425.20209 -542.99109 684
87.466805 -424.04074 -542.97998 684
89.647453 -424.05042 -542.94531 684
91.41346 -424.05652 -542.92084 684
93.410576 -424.02087 -542.92462 684
95.480774 -423.86639 -542.84436 684
97.417061 -424.10172 -542.83838 684
99.598495 -424.005 -542.81458 684
101.4146 -424.03436 -542.76636 684
103.51229 -423.064 -542.21246 684
105.25796 -424.17358 -542.64856 684
107.64989 -425.91422 -542.88568 684
109.46462 -424.24976 -542.52087 684
111.53538 -425.89828 -542.81128 684
-34.531548 -420.85065 -542.9986 684
51.571854 -420.23639 -542.94836 684
55.352528 -420.59753 -542.84192 684
59.212238 -420.81149 -542.54413 684
61.501419 -420.74402 -542.62573 684
65.345207 -420.85364 -542.46509 684
67.378845 -420.90186 -542.46271 684
69.269058 -420.86801 -542.41907 684
71.426117 -421.03134 -542.47333 684
73.47982 -421.12863 -542.48792 684
75.368973 -421.06863 -542.40796 684
77.464439 -421.59503 -542.63519 684
79.3508 -421.71423 -542.49792 684
81.580338 -421.73267 -542.33765 684
83.514511 -422.54779 -542.59271 684
85.412376 -422.66037 -542.52917 684
87.588829 -422.6991 -542.45276 684
89.404892 -422.81027 -542.4549 684
91.559067 -422.7272 -542.38934 684
93.503311 -422.87152 -542.41064 684
95.497215 -422.83102 -542.35828 684
97.473549 -422.81985 -542.31757 684
99.425331 -422.93457 -542.315 684
15.248129 -417.05502 -542.87701 684
17.659134 -417.19397 -542.80194 684
21.327427 -417.40515 -542.5307 684
23.150867 -417.10263 -542.01178 684
35.429859 -418.67996 -542.64813 684
37.202347 -418.8862 -542.71411 684
39.902657 -418.98792 -542.66345 684
43.467655 -419.0535 -542.54913 684
47.568378 -419.13809 -542.39868 684
49.417652 -419.03931 -542.19922 684
51.29258 -419.07941 -542.04852 684
53.675087 -419.57721 -542.27185 684
-62.612534 -416.24582 -542.07477 684
-58.503399 -416.28375 -542.39655 684
-56.53244 -414.19818 -542.27478 684
-54.593151 -416.09937 -542.41254 684
-52.570164 -416.20218 -542.62042 684
-50.385872 -414.11484 -542.29474 684
-48.576851 -414.95782 -542.47717 684
-46.256748 -414.70331 -542.52698 684
-42.7146 -415.80356 -542.9317 684
-40.462223 -414.18115 -542.61719 684
-38.561249 -414.3739 -542.65741 684
-36.645645 -414.48544 -542.83447 684
-32.70676 -414.81995 -542.71643 684
-30.633039 -414.72391 -542.68695 684
-28.621462 -414.83371 -542.7403 684
-22.685654 -414.88464 -542.70679 684
-18.817081 -414.90573 -542.66376 684
-16.452488 -415.13797 -542.80219 684
-12.546679 -415.01178 -542.58777 684
-10.525499 -414.93002 -542.40833 684
-6.56429 -415.46655 -542.59985 684
-4.723578 -416.2001 -542.9881 684
7.4357491 -416.84384 -542.97949 684
9.4796839 -416.82809 -542.89746 684
13.418519 -416.98227 -542.91589 684
19.437399 -416.936 -542.38416 684
-52.609852 -413.99557 -542.203 684
-44.444633 -413.96902 -542.58795 684
-42.434162 -412.90048 -542.11346 684
136.22318 -444.0979 -541.44568 684
140.3699 -444.58286 -541.14941 684
147.57829 -444.04037 -541.0246 684
151.47469 -445.01666 -541.20386 684
153.44318 -444.83917 -541.38623 684
155.32672 -444.90021 -541.40796 684
157.66411 -444.16748 -541.61249 684
159.26752 -445.1355 -541.37366 684
161.52119 -445.29074 -541.39374 684
163.4334 -445.70392 -541.30505 684
165.31219 -445.70837 -541.30688 684
167.44064 -445.63281 -541.2605 684
169.42139 -445.45715 -541.22778 684
173.39978 -445.31213 -541.1864 684
175.88148 -444.16367 -541.28094 684
177.27534 -444.89584 -541.19012 684
181.45935 -444.28433 -541.19745 684
183.28693 -444.08087 -541.20166 684
51.912807 -441.19986 -541.28119 684
61.435249 -441.16876 -541.73816 684
63.502125 -441.18405 -541.79474 684
65.442169 -441.27454 -541.84027 684
69.165756 -442.276 -541.33026 684
71.706787 -442.59552 -541.11169 684
75.482674 -442.4498 -541.67322 684
79.445663 -442.64294 -541.55127 684
83.235458 -442.63959 -541.51569 684
85.502838 -442.66177 -541.54865 684
89.451042 -442.84161 -541.49487 684
91.575874 -442.98096 -541.38513 684
93.480446 -442.95221 -541.41602 684
95.645096 -443.1535 -541.30322 684
99.431725 -443.28986 -541.35101 684
101.67095 -443.34924 -541.42578 684
105.45617 -443.51666 -541.51233 684
107.31564 -443.62308 -541.81433 684
109.32985 -443.86191 -541.65747 684
113.32436 -443.8696 -541.48322 684
117.29418 -443.85083 -541.29077 684
119.40025 -443.33286 -541.46613 684
121.39473 -443.92834 -541.2016 684
123.27207 -442.55966 -541.20935 684
124.99921 -442.2345 -541.24091 684
126.3241 -441.2915 -541.59558 684
128.35039 -442.61572 -541.0921 684
129.62193 -441.76404 -541.70068 684
130.83592 -443.15347 -541.15753 684
138.77396 -443.43277 -541.92615 684
143.10939 -443.42188 -541.46307 684
144.77385 -441.64609 -541.95007 684
146.02112 -442.59055 -541.62134 684
148.78172 -441.64963 -541.71265 684
149.77353 -443.78314 -541.24652 684
151.9601 -442.33301 -541.66022 684
155.45963 -442.16388 -541.89044 684
157.18321 -441.90268 -541.89551 684
159.42371 -442.04416 -541.83038 684
161.32338 -441.9877 -541.74683 684
163.65535 -441.97839 -541.62524 684
165.48212 -441.918 -541.50684 684
167.2843 -441.65784 -541.39752 684
171.48997 -441.67215 -541.28967 684
185.02698 -443.98535 -541.11243 684
5.2564631 -438.08105 -541.22638 684
7.3800893 -438.2963 -541.39703 684
10.978974 -438.73502 -541.57379 684
13.08567 -438.99496 -541.61102 684
15.926465 -439.09805 -541.33698 684
19.547565 -439.25076 -541.21893 684
21.720852 -439.45313 -541.15613 684
23.481443 -439.35385 -541.23822 684
25.450142 -439.53192 -541.07312 684
27.395174 -439.73935 -541.03021 684
31.484186 -440.10818 -541.0816 684
33.681599 -440.39865 -541.01953 684
35.418335 -440.3732 -541.84106 684
37.416119 -440.68497 -541.39148 684
39.458763 -440.71985 -541.4707 684
43.226864 -440.7132 -541.19647 684
45.603512 -440.82352 -541.14197 684
57.434944 -440.96384 -541.87457 684
121.18887 -440.759 -541.88965 684
124.08066 -440.57703 -541.77203 684
151.03481 -439.85144 -541.87061 684
154.22404 -439.814 -541.82068 684
-20.926746 -436.17505 -541.26349 684
-18.684467 -436.49612 -541.49274 684
-16.469666 -436.74463 -541.39655 684
-14.598214 -436.97775 -541.47205 684
-12.302191 -437.19897 -541.23444 684
-10.55333 -437.1308 -541.33948 684
-8.8920536 -437.19278 -541.20917 684
-4.4074512 -437.58463 -541.26794 684
-3.117353 -437.52368 -541.57959 684
1.4719591 -437.88736 -541.11761 684
3.4785058 -437.56491 -541.81323 684
167.69473 -435.01285 -541.40564 684
169.26608 -435.04419 -541.38281 684
171.27 -437.12418 -541.16394 684
173.58334 -436.07367 -541.25293 684
-48.4328 -432.24985 -541.47614 684
-44.668324 -433.11343 -541.74573 684
-42.709949 -433.79291 -541.84265 684
-40.606438 -434.28461 -541.73773 684
-38.354115 -434.38766 -541.89227 684
-36.530151 -434.50232 -541.89795 684
-34.342243 -434.53375 -541.99744 684
-28.37145 -434.83295 -541.99725 684
-26.421558 -434.95981 -541.96716 684
-24.550398 -434.98297 -541.99744 684
152.65685 -432.92868 -541.99768 684
165.27171 -432.18784 -541.83667 684
167.55458 -432.28403 -541.79822 684
169.49275 -432.18259 -541.81683 684
173.19005 -432.17636 -541.75793 684
175.63959 -433.39157 -541.56714 684
177.46257 -433.35175 -541.55109 684
181.40836 -433.35913 -541.48804 684
183.64844 -434.52551 -541.31818 684
-62.714607 -430.28806 -541.31482 684
-59.028553 -430.38452 -541.55322 684
-54.45105 -430.58762 -541.85168 684
126.00578 -429.15286 -541.65607 684
128.86978 -429.92169 -541.88116 684
135.34802 -429.07056 -541.59906 684
140.91692 -429.05243 -541.65265 684
142.76077 -429.83682 -541.86182 684
144.77663 -430.32245 -541.93695 684
147.40741 -430.94601 -541.99194 684
150.4212 -430.43451 -541.90759 684
153.15756 -429.26913 -541.7417 684
155.87558 -430.18396 -541.82886 684
161.52864 -429.92096 -541.96051 684
167.41644 -429.90451 -541.83411 684
169.72617 -429.9538 -541.79584 684
173.42183 -430.04962 -541.7171 684
175.51302 -430.02158 -541.65009 684
177.50455 -430.06436 -541.56531 684
179.44965 -430.10861 -541.53143 684
181.46857 -430.00415 -541.46063 684
183.59137 -430.91803 -541.48309 684
185.32065 -431.87854 -541.57544 684
187.55588 -430.97321 -541.44226 684
189.62793 -430.94916 -541.26416 684
193.41019 -429.96643 -541.01617 684
195.42357 -430.71295 -541.07251 684
-66.810577 -428.41013 -541.3186 684
-64.657501 -428.38663 -541.67828 684
-62.641335 -428.28638 -541.73438 684
-60.640442 -428.33328 -541.80719 684
130.03497 -427.66034 -541.1344 684
131.52208 -428.78137 -541.61389 684
137.34993 -428.73233 -541.43329 684
139.28146 -428.11462 -541.25403 684
142.40526 -428.1438 -541.25537 684
143.90059 -428.64645 -541.41345 684
145.92395 -428.65793 -541.38043 684
148.60739 -428.62314 -541.39929 684
151.11571 -428.30698 -541.44739 684
153.62077 -426.71243 -541.33832 684
155.20209 -426.83969 -541.34491 684
157.54987 -426.80008 -541.20831 684
159.44221 -428.16492 -541.67157 684
161.44885 -428.08572 -541.59564 684
165.62895 -428.18332 -541.50287 684
167.25542 -428.19965 -541.4458 684
171.43184 -428.33878 -541.36487 684
173.33273 -428.54059 -541.30267 684
175.29817 -428.67453 -541.24982 684
177.67856 -428.83182 -541.18964 684
181.54089 -428.84433 -541.02179 684
-60.669109 -425.71552 -541.7832 684
107.4507 -423.16095 -541.89441 684
83.33123 -421.25644 -541.83154 684
85.418518 -421.48489 -541.83246 684
87.450378 -421.48627 -541.69067 684
89.448402 -421.4285 -541.49286 684
93.492172 -421.51566 -541.39246 684
95.636703 -421.55698 -541.3161 684
99.416397 -421.70773 -541.27069 684
104.09213 -421.90906 -541.03741 684
25.631491 -417.08319 -541.79053 684
33.125858 -417.54153 -541.73309 684
37.284191 -417.37543 -541.12457 684
39.818039 -417.58948 -541.21057 684
41.412628 -417.60358 -541.05878 684
45.372051 -417.82727 -541.10889 684
55.443729 -419.23468 -541.72253 684
57.419113 -419.29953 -541.75452 684
59.440037 -419.17184 -541.29047 684
63.565502 -419.60883 -541.56805 684
65.340141 -419.61258 -541.47168 684
67.299858 -419.60464 -541.35284 684
69.607941 -419.64172 -541.21924 684
75.188751 -419.85898 -541.12659 684
-72.551987 -416.38068 -541.02081 684
-70.524353 -415.20282 -541.21887 684
-68.527412 -416.20538 -541.48792 684
-10.672023 -414.01288 -541.18268 684
-6.5866265 -414.37946 -541.29944 684
-2.738868 -414.59985 -541.26691 684
1.2987878 -414.9075 -541.35516 684
5.4425182 -415.14587 -541.30371 684
7.2754917 -415.34079 -541.25171 684
9.0979319 -415.45532 -541.27515 684
11.544652 -415.52679 -541.13977 684
15.512846 -415.77701 -541.185 684
17.496655 -415.93646 -541.22809 684
21.48225 -416.24417 -541.15906 684
-72.267723 -413.65894 -541.00775 684
-66.511307 -413.13 -541.30298 684
-62.578335 -412.76202 -541.30237 684
-60.599483 -412.41614 -541.13757 684
-58.5993 -412.38129 -541.25342 684
-54.278423 -412.41394 -541.349 684
-52.400658 -412.96304 -541.77631 684
-50.609409 -412.42657 -541.49048 684
-48.667385 -412.91058 -541.88861 684
-46.357861 -412.93896 -541.95898 684
-40.537403 -413.05087 -541.94293 684
-36.553123 -413.05649 -541.80072 684
-34.709606 -413.19147 -541.64337 684
-32.215519 -413.12018 -541.58923 684
-28.427757 -413.43829 -541.62372 684
-26.496662 -413.49506 -541.5722 684
-24.711218 -413.6058 -541.62335 684
-20.140915 -413.60269 -541.20355 684
-16.163979 -413.82864 -541.28796 684
-14.706903 -413.93582 -541.38354 684
-12.553298 -413.87289 -541.05768 684
153.3494 -447.0018 -540.26764 684
159.5536 -447.11359 -540.51794 684
163.37737 -447.45544 -540.56439 684
165.30554 -447.54977 -540.59241 684
167.40872 -447.8183 -540.534 684
171.46313 -447.4425 -540.5517 684
173.47748 -447.52396 -540.4917 684
175.26622 -447.48297 -540.51715 684
177.65118 -447.55341 -540.50824 684
181.19064 -447.49747 -540.48688 684
183.2382 -447.70792 -540.43011 684
185.49086 -448.07565 -540.32434 684
187.44815 -447.5925 -540.57532 684
189.14793 -447.06082 -540.68121 684
191.39664 -447.845 -540.64191 684
193.3688 -447.72507 -540.68085 684
197.33182 -447.88293 -540.61731 684
199.522 -447.87775 -540.48987 684
201.65762 -447.06558 -540.5528 684
203.37206 -448.25638 -540.41711 684
205.47307 -448.44986 -540.24475 684
209.28073 -448.34976 -540.22791 684
211.4245 -448.20642 -540.00568 684
213.35556 -448.18713 -540.06744 684
217.27773 -447.78705 -540.32123 684
219.15956 -448.56042 -540.24146 684
221.49773 -448.71216 -540.1886 684
223.34041 -448.5834 -540.08411 684
122.98437 -444.14633 -540.28473 684
129.52705 -444.23483 -540.04102 684
133.49742 -444.30118 -540.80548 684
138.30705 -445.23349 -540.62823 684
141.51752 -445.35455 -540.33844 684
144.28928 -445.21057 -540.23407 684
145.45435 -444.30072 -540.9455 684
149.1315 -445.71231 -540.27466 684
151.52864 -446.64444 -540.43622 684
155.46449 -446.8732 -540.40912 684
175.29459 -446.31467 -540.99115 684
179.29633 -446.42169 -540.94519 684
181.45546 -446.37103 -540.9079 684
183.05045 -446.39572 -540.85077 684
185.37488 -446.42575 -540.85706 684
195.20435 -446.85065 -540.68158 684
207.31032 -446.26468 -540.63483 684
209.28856 -446.06976 -540.37805 684
211.22354 -446.29373 -540.30988 684
213.422 -446.1308 -540.24854 684
215.07558 -446.08514 -540.38989 684
217.65356 -446.27719 -540.33142 684
41.427608 -441.03894 -540.0636 684
43.282791 -441.0882 -540.20752 684
47.494682 -441.53598 -540.2608 684
53.276077 -441.81882 -540.16327 684
55.287659 -442.06836 -540.07935 684
57.339043 -442.02817 -540.30487 684
61.519226 -442.44849 -540.00256 684
63.415092 -442.53848 -540.0014 684
65.274429 -442.62262 -540.08392 684
67.409592 -442.11035 -540.98914 684
69.303253 -442.67917 -540.1709 684
71.429611 -442.86554 -540.08698 684
73.386398 -442.88638 -540.25012 684
75.408897 -442.99213 -540.13525 684
77.410721 -443.07758 -540.18011 684
79.305855 -443.146 -540.23364 684
83.523262 -443.39517 -540.02075 684
124.92426 -443.7681 -540.26251 684
126.39581 -442.90198 -540.86688 684
183.47467 -441.33829 -540.91974 684
185.24306 -441.17065 -540.84875 684
187.62375 -442.60962 -540.87683 684
209.44705 -442.44601 -540.20386 684
211.37033 -442.28748 -540.10828 684
213.28958 -443.60019 -540.10394 684
214.99487 -443.40195 -540.08667 684
5.377378 -438.52997 -540.11029 684
9.5013056 -438.97635 -540.21045 684
11.158721 -439.2009 -540.34625 684
13.391912 -439.39783 -540.17468 684
29.600569 -439.97946 -540.86694 684
33.69545 -440.73642 -540.06683 684
37.390327 -440.94211 -540.01068 684
181.56879 -439.28604 -540.92468 684
211.54129 -439.0011 -540.15436 684
-38.694221 -435.11856 -540.2887 684
-36.9319 -435.27417 -540.17426 684
-34.893459 -435.34235 -540.24664 684
-32.857155 -435.49475 -540.28906 684
-30.185911 -435.75031 -540.09558 684
-26.728666 -435.98328 -540.15607 684
-24.591198 -436.1514 -540.15674 684
-22.293913 -436.08356 -540.95233 684
-20.247002 -436.8114 -540.03888 684
-18.689953 -436.97061 -540.4068 684
-16.742802 -437.37622 -540.43573 684
-9.2690506 -437.53369 -540.17444 684
-6.8131385 -437.60001 -540.36987 684
207.50282 -436.80731 -540.5318 684
213.55962 -436.46143 -540.44061 684
-62.556732 -432.479 -540.21057 684
-58.754124 -433.19144 -540.03522 684
-56.738041 -433.29752 -540.17749 684
-52.995583 -433.09821 -540.24902 684
-50.841988 -432.78101 -540.75598 684
207.41325 -434.1825 -540.7113 684
209.58705 -434.38248 -540.63684 684
211.61511 -433.13812 -540.53174 684
213.44563 -434.1192 -540.68262 684
215.64909 -432.11151 -540.23596 684
217.5986 -433.1319 -540.39709 684
-72.871796 -430.23709 -540.13684 684
-70.785362 -431.27054 -540.10461 684
-68.588493 -430.25464 -540.59363 684
-66.588005 -431.55502 -540.51184 684
-62.563156 -431.56891 -540.79712 684
195.35423 -429.3439 -540.8288 684
197.49669 -430.30365 -540.96869 684
201.9142 -430.62216 -540.89624 684
205.78554 -431.30368 -540.62 684
207.42188 -431.0979 -540.37537 684
-78.540504 -428.17334 -540.28448 684
-76.79184 -427.31476 -540.58765 684
-72.663239 -428.37726 -540.69342 684
127.89204 -426.66519 -540.46472 684
130.37576 -426.27097 -540.34399 684
131.57234 -427.0816 -540.85669 684
133.64174 -427.40836 -540.90918 684
135.96893 -426.81256 -540.54272 684
140.88666 -427.04599 -540.75958 684
143.67738 -426.57736 -540.31543 684
146.9037 -427.09384 -540.61029 684
149.65761 -426.46524 -540.2879 684
161.37247 -426.86261 -540.93274 684
163.26059 -426.99942 -540.94916 684
169.52086 -427.27161 -540.8717 684
173.31711 -427.53787 -540.82855 684
175.57834 -427.59052 -540.67139 684
179.59491 -427.81711 -540.57904 684
183.30583 -428.89246 -540.97552 684
185.2948 -428.78366 -540.84424 684
191.43536 -428.79605 -540.57172 684
193.2811 -428.61438 -540.57806 684
203.72066 -428.53741 -540.13422 684
-80.121346 -425.23831 -540.0528 684
-74.481445 -424.67136 -540.66943 684
-82.734581 -420.52499 -540.03802 684
-80.833794 -421.79083 -540.15051 684
-78.374924 -421.58673 -540.34943 684
-70.203857 -421.2084 -540.81982 684
79.111343 -420.03802 -540.92194 684
105.53098 -421.50629 -540.01068 684
-94.649895 -417.63708 -540.15723 684
-91.780373 -417.71796 -540.10455 684
-89.022781 -417.20493 -540.10876 684
-87.675766 -417.625 -540.05768 684
-84.267693 -417.27618 -540.17719 684
-82.977791 -418.41156 -540.16748 684
-80.445793 -418.83633 -540.31055 684
-77.290192 -419.00729 -540.4953 684
-74.828079 -418.98441 -540.5835 684
-72.51722 -419.15567 -540.74695 684
-70.561127 -418.89206 -540.9444 684
47.509834 -417.88806 -540.90155 684
49.257793 -418.00458 -540.92523 684
51.278393 -418.02014 -540.63403 684
71.394035 -419.5527 -540.92426 684
-95.724716 -415.81793 -540.26361 684
-94.300957 -415.4682 -540.43018 684
-93.201645 -415.33551 -540.33771 684
-91.833359 -415.19046 -540.31891 684
-90.53756 -415.35922 -540.24396 684
-89.250572 -415.10391 -540.2323 684
-87.84938 -415.96982 -540.18134 684
-86.556114 -415.99054 -540.15723 684
-85.862442 -414.52484 -540.05261 684
-84.553436 -415.77148 -540.18579 684
-82.530525 -416.36975 -540.2381 684
-80.241753 -416.17215 -540.41083 684
-78.381531 -415.689 -540.64026 684
-74.701332 -415.19476 -540.8988 684
-9.0004444 -414.03577 -540.95209 684
-96.379036 -413.70157 -540.06042 684
-94.756393 -413.79419 -540.29675 684
-89.653862 -413.04224 -540.03052 684
-87.720299 -413.83771 -540.02289 684
-81.330658 -413.94064 -540.0946 684
-74.526848 -412.13092 -540.44037 684
-72.528442 -412.14658 -540.65155 684
-70.656227 -411.60376 -540.54779 684
-68.465851 -411.16245 -540.30933 684
-62.561104 -411.21857 -540.22351 684
-52.330395 -411.67621 -540.64355 684
-48.179852 -411.81354 -540.89313 684
-44.68652 -411.89014 -540.8996 684
-40.98317 -411.81519 -540.21722 684
-20.560532 -413.10107 -540.09515 684
-18.914059 -413.20871 -540.12646 684
-16.50919 -413.31461 -540.04425 684
-4.5456958 -413.85019 -540.1015 684
189.70122 -450.22968 -539.2757 684
193.34261 -450.42929 -539.42023 684
195.30035 -450.05908 -539.89716 684
197.38675 -450.32831 -539.63635 684
199.54921 -450.16653 -539.70593 684
221.31493 -450.09995 -539.51917 684
223.36531 -450.47427 -539.49677 684
149.46967 -447.42139 -539.22437 684
151.6873 -447.62073 -539.11182 684
159.63861 -448.17606 -539.29926 684
165.10992 -448.7337 -539.31982 684
167.39079 -448.83707 -539.24323 684
169.58763 -448.76614 -539.21368 684
171.36557 -448.59296 -539.59692 684
173.25137 -448.7283 -539.5014 684
177.48776 -448.86456 -539.53839 684
179.35275 -448.87256 -539.58923 684
183.74126 -449.0354 -539.64429 684
185.40868 -449.40131 -539.41187 684
187.34157 -449.6153 -539.59088 684
193.26199 -449.89883 -539.93958 684
197.59854 -449.9606 -539.95581 684
201.48303 -449.9635 -539.51117 684
203.48557 -449.89114 -539.47876 684
209.26881 -449.49442 -539.56799 684
213.45802 -449.57483 -539.53583 684
215.1655 -449.88467 -539.51508 684
217.44749 -449.96246 -539.45935 684
225.51015 -448.71057 -539.81836 684
227.16141 -449.09021 -539.58582 684
229.42924 -448.54239 -539.37335 684
231.58954 -448.58212 -539.05774 684
95.497063 -444.01834 -539.91321 684
97.590546 -444.15979 -539.81665 684
101.46491 -444.33893 -539.87976 684
105.6312 -444.60724 -539.81549 684
107.31653 -444.73682 -539.79736 684
109.54563 -444.9325 -539.80585 684
111.57968 -445.03857 -539.72888 684
115.39172 -445.07147 -539.69629 684
117.36328 -445.10074 -539.68317 684
119.55052 -445.32501 -539.2782 684
121.42554 -445.50073 -539.21735 684
123.82999 -444.84943 -539.10785 684
127.42346 -444.30475 -539.64893 684
131.49278 -445.11371 -539.41486 684
135.20195 -445.42191 -539.9718 684
136.70418 -445.67236 -539.94604 684
139.87515 -445.94003 -539.65497 684
142.83601 -445.52533 -539.98474 684
146.28873 -445.76706 -539.71191 684
87.459427 -443.55618 -539.98346 684
89.535133 -443.66449 -539.90515 684
93.605347 -443.91345 -539.88251 684
-0.67899126 -438.37567 -539.9115 684
6.9220314 -438.70758 -539.89813 684
15.753407 -439.5762 -539.96851 684
19.424505 -439.80103 -539.79346 684
23.392244 -440.02502 -539.91034 684
25.306406 -440.24692 -539.47949 684
31.270386 -440.56488 -539.74963 684
-36.697418 -435.34058 -539.21722 684
-11.653171 -437.5491 -539.9729 684
229.60141 -436.08514 -539.66815 684
231.48735 -436.1868 -539.46454 684
233.44621 -436.25421 -539.30267 684
235.68169 -436.35638 -539.15857 684
237.50441 -436.40833 -539.06732 684
-66.681656 -432.53632 -539.28058 684
-64.476204 -432.77979 -539.29572 684
-58.364716 -433.52228 -539.35876 684
-54.453304 -433.60757 -539.49493 684
-46.685886 -434.15109 -539.75732 684
-44.640324 -434.4559 -539.75708 684
-42.816944 -434.79178 -539.89441 684
-40.675079 -434.94675 -539.35657 684
227.57159 -433.67444 -539.96265 684
229.6631 -433.75052 -539.74573 684
231.45502 -432.90262 -539.21442 684
233.59673 -433.85452 -539.19305 684
-80.478554 -429.42749 -539.65308 684
-78.392342 -430.10504 -539.44446 684
-76.538399 -430.22226 -539.62079 684
-74.575775 -430.65399 -539.58435 684
-72.447548 -431.33807 -539.487 684
207.32912 -429.42554 -539.70599 684
211.18109 -430.23578 -539.51727 684
213.43521 -430.73523 -539.52283 684
-82.478569 -427.66269 -539.17078 684
171.60281 -426.07501 -539.23822 684
175.56848 -426.34076 -539.16486 684
177.43251 -426.5773 -539.2702 684
179.71471 -426.68271 -539.11633 684
181.33084 -427.35858 -539.90973 684
183.70688 -426.97037 -539.09454 684
185.36671 -427.48618 -539.7337 684
187.83333 -427.64728 -539.89832 684
190.03532 -427.48083 -539.21747 684
192.99655 -427.54123 -539.47107 684
195.59219 -427.56116 -539.66907 684
201.41602 -427.84363 -539.96405 684
205.44183 -428.92862 -539.89587 684
-86.991119 -423.0708 -539.20905 684
-85.669151 -423.91238 -539.28418 684
-84.181725 -425.3071 -539.26709 684
-82.553535 -423.01505 -539.87085 684
123.15945 -424.67319 -539.55939 684
125.64137 -424.93729 -539.422 684
132.16856 -425.65924 -539.80859 684
134.6311 -424.95889 -539.09753 684
136.37508 -425.33374 -539.53943 684
138.34448 -425.89871 -539.95642 684
140.8912 -425.42343 -539.7019 684
142.14336 -424.91074 -539.09857 684
146.56665 -425.3154 -539.04468 684
151.35855 -424.71021 -539.23334 684
153.06653 -424.83359 -539.26611 684
157.6288 -425.16208 -539.33057 684
161.31049 -425.41333 -539.10046 684
163.35696 -425.58511 -539.16052 684
165.5155 -425.72119 -539.19702 684
167.38916 -425.87302 -539.31232 684
169.24695 -425.9335 -539.22266 684
-96.950119 -421.75278 -539.1496 684
-95.028145 -420.51785 -539.55817 684
-93.464897 -422.20581 -539.08441 684
-91.678024 -420.55826 -539.50098 684
-89.861671 -421.27127 -539.34473 684
-88.216805 -421.46524 -539.39917 684
-86.659187 -420.53033 -539.68225 684
-84.822647 -422.16635 -539.64502 684
87.13871 -420.26764 -539.91022 684
89.507988 -420.36032 -539.71838 684
91.59687 -420.48355 -539.80457 684
93.352135 -420.62228 -539.85077 684
97.33963 -420.83066 -539.7915 684
99.421524 -420.97241 -539.83588 684
101.30151 -421.11551 -539.90155 684
111.35452 -421.92371 -539.67889 684
115.28421 -422.16846 -539.12549 684
-99.904892 -417.79831 -539.45471 684
-98.38903 -419.74683 -539.46185 684
-96.421806 -418.60373 -539.86847 684
-93.281494 -419.18466 -539.86078 684
-90.23391 -418.745 -539.88623 684
-88.403275 -419.34445 -539.79498 684
-86.748207 -418.65265 -539.94574 684
-84.886711 -419.13992 -539.98651 684
43.199982 -417.18799 -539.93408 684
45.320915 -417.2832 -539.80737 684
47.503723 -417.44498 -539.8844 684
53.69083 -417.93661 -539.91693 684
59.135227 -418.29974 -539.77325 684
61.325367 -418.41776 -539.71075 684
63.637608 -418.58014 -539.84406 684
65.199554 -418.69946 -539.84772 684
69.340439 -419.0058 -539.96448 684
71.995407 -419.09637 -539.8006 684
73.422478 -419.20718 -539.8338 684
77.625496 -419.4559 -539.90454 684
83.267448 -419.91199 -539.81146 684
-101.43085 -416.16052 -539.18408 684
-99.665245 -414.85764 -539.57745 684
-97.793343 -416.19623 -539.93494 684
-83.849907 -414.02847 -539.96509 684
-0.56191313 -414.15689 -539.96307 684
3.4683807 -414.41592 -539.91229 684
13.655999 -415.19119 -539.92554 684
15.594263 -415.28601 -539.82916 684
21.580383 -415.55243 -539.9126 684
25.590759 -415.95581 -539.81934 684
35.263184 -416.66098 -539.72607 684
39.748726 -416.93826 -539.85156 684
-101.18995 -413.61551 -539.16241 684
-99.634392 -412.42596 -539.26959 684
-98.111374 -412.189 -539.38 684
-96.625099 -411.65341 -539.45978 684
-95.189522 -412.03943 -539.8573 684
-93.673065 -412.30704 -539.99634 684
-92.957329 -411.04996 -539.39862 684
-91.724205 -412.59909 -539.97656 684
-90.205612 -411.43954 -539.47827 684
-88.499283 -411.69394 -539.43359 684
-86.004089 -411.90472 -539.23254 684
-83.075195 -411.70663 -539.29651 684
-52.536285 -411.14154 -539.82574 684
-50.611103 -411.15591 -539.80408 684
-46.382889 -411.18295 -539.88855 684
-42.500683 -411.59119 -539.99304 684
-36.325455 -411.86609 -539.72369 684
-32.450226 -412.25659 -539.76324 684
-28.412708 -412.53751 -539.99585 684
-24.883087 -412.75931 -539.93842 684
-22.590906 -412.92319 -539.98706 684
-12.417802 -413.48257 -539.97614 684
-8.2431679 -413.6958 -539.90527 684
-95.287476 -410.66202 -539.14508 684
-94.183517 -410.98013 -539.42981 684
-76.806969 -410.64005 -539.64075 684
-72.447792 -410.6337 -539.69592 684
-64.226219 -410.34338 -539.2016 684
-56.976601 -410.79071 -539.42731 684
-54.143047 -410.89621 -539.5954 684
189.36691 -450.62479 -538.19867 684
191.55124 -450.60843 -538.94006 684
209.34851 -450.64703 -538.7135 684
211.51538 -450.85007 -538.68701 684
213.53519 -450.95593 -538.6889 684
215.3541 -451.09183 -538.63599 684
219.40356 -451.18683 -538.72382 684
221.61797 -451.39047 -538.65216 684
223.43709 -451.5101 -538.59161 684
227.32565 -451.60501 -538.66937 684
229.45656 -451.48898 -538.42596 684
231.30856 -451.07916 -538.59082 684
233.45335 -450.47116 -538.62134 684
235.33963 -451.0354 -538.41785 684
237.31235 -450.99078 -538.22095 684
241.30046 -450.15985 -538.33221 684
243.46535 -450.31433 -538.2168 684
245.30154 -450.293 -538.16602 684
247.30234 -450.5148 -538.13147 684
249.36275 -450.72501 -538.05328 684
149.31749 -447.82211 -538.09229 684
153.94046 -447.82462 -538.96021 684
155.3351 -448.28586 -538.09082 684
157.21606 -448.56265 -538.53076 684
159.51413 -448.53723 -538.31213 684
161.34932 -448.67761 -538.43994 684
163.56271 -448.84781 -538.28748 684
171.5692 -449.46396 -538.01672 684
175.31573 -449.38025 -538.79028 684
179.38791 -449.94788 -538.00751 684
233.36778 -448.11606 -538.90527 684
237.29379 -448.36035 -538.83704 684
239.31018 -448.37216 -538.76086 684
241.47856 -448.18314 -538.53479 684
245.56244 -448.16537 -538.37164 684
247.36702 -448.02805 -538.37225 684
249.30624 -447.96176 -538.22217 684
251.35303 -448.12753 -538.06177 684
89.347092 -444.13486 -538.375 684
91.321098 -444.26407 -538.18347 684
93.42321 -444.39673 -538.30255 684
95.238861 -444.50653 -538.24445 684
99.342751 -444.74939 -538.16364 684
101.46047 -444.59164 -538.61121 684
103.24922 -444.67578 -538.70563 684
105.53328 -444.79984 -538.7594 684
109.33805 -445.06842 -538.76813 684
111.53492 -445.27777 -538.22754 684
115.53671 -445.53006 -538.2525 684
119.5536 -445.6947 -538.3504 684
125.60327 -444.90472 -538.71411 684
129.57191 -445.3685 -538.43201 684
130.98592 -445.72372 -538.06519 684
133.78874 -445.73242 -538.84393 684
135.94174 -446.1665 -538.3736 684
138.00259 -446.24548 -538.80023 684
141.54893 -446.3114 -538.76715 684
143.91582 -446.40488 -538.36267 684
147.88229 -446.98425 -538.58459 684
241.82936 -445.3385 -538.32257 684
243.24513 -445.35345 -538.255 684
245.63332 -445.50427 -538.17529 684
39.369873 -441.14682 -538.16119 684
45.331768 -441.61307 -538.15753 684
49.298241 -441.95706 -538.15717 684
57.614674 -442.63425 -538.7171 684
69.476997 -442.96759 -538.53937 684
71.407524 -443.04907 -538.74237 684
73.46669 -443.19772 -538.08356 684
75.516159 -443.24411 -538.63104 684
77.326698 -443.28644 -538.91925 684
79.214546 -443.54865 -538.08423 684
81.358253 -443.6893 -538.75806 684
85.576073 -443.94424 -538.17554 684
87.478027 -443.81696 -538.61829 684
243.59109 -441.12677 -538.27563 684
245.35684 -443.15778 -538.1037 684
247.31522 -441.0574 -538.1062 684
-0.90988928 -438.64554 -538.22058 684
7.1092672 -438.86987 -538.17291 684
11.629456 -439.43301 -538.1073 684
239.33344 -439.95947 -538.56433 684
241.50037 -438.95352 -538.59979 684
243.55096 -438.51633 -538.57257 684
245.48528 -438.7197 -538.4563 684
247.55347 -438.47104 -538.39508 684
249.30243 -438.58334 -538.28882 684
251.44725 -438.51147 -538.16504 684
-38.711823 -435.21829 -538.87982 684
-34.650017 -435.57242 -538.58044 684
-32.972092 -435.68912 -538.90857 684
-30.680763 -435.9115 -538.83417 684
-28.342478 -436.09979 -538.84308 684
-24.746775 -436.34146 -538.87457 684
-22.884714 -436.58316 -538.42169 684
-20.457975 -436.96753 -538.52618 684
-15.826029 -437.72366 -538.66364 684
-14.773734 -437.78088 -538.35645 684
-11.948847 -437.86182 -538.16638 684
-10.673435 -437.90179 -538.6814 684
-4.8031859 -437.97281 -538.09253 684
239.71025 -436.42764 -538.95374 684
241.36238 -436.15485 -538.88062 684
245.65631 -436.33524 -538.72675 684
247.42712 -436.1123 -538.65118 684
249.5966 -436.23923 -538.51056 684
251.50322 -436.0741 -538.39056 684
253.63358 -435.99313 -538.255 684
-70.016121 -432.60861 -538.13165 684
-68.359962 -432.57346 -538.73987 684
-62.519936 -433.30432 -538.26575 684
-52.592518 -434.19278 -538.08167 684
-46.6936 -434.72937 -538.10059 684
-44.972008 -434.68503 -538.58472 684
-42.744862 -434.86557 -538.96814 684
233.51532 -432.24112 -538.81085 684
237.53624 -432.6449 -538.4137 684
239.46091 -434.07373 -538.82483 684
243.66515 -434.26163 -538.55536 684
-82.60556 -429.56253 -538.20093 684
225.43268 -430.96301 -538.76068 684
227.33621 -430.9873 -538.61536 684
229.42679 -431.03442 -538.50629 684
231.48692 -431.12009 -538.34729 684
-86.078499 -426.51187 -538.56073 684
-84.830925 -428.37396 -538.17621 684
183.49915 -426.49481 -538.12683 684
187.66745 -426.87567 -538.23206 684
189.97307 -427.02341 -538.14954 684
192.95241 -427.1221 -538.26306 684
197.22296 -427.26334 -538.93481 684
205.52803 -428.06448 -538.04602 684
-100.90482 -423.72678 -538.0863 684
-97.468468 -424.65317 -538.12738 684
-95.482948 -423.48349 -538.66388 684
-94.028122 -425.01019 -538.09412 684
-91.459023 -424.12756 -538.46765 684
-89.327301 -424.33435 -538.56732 684
-87.825226 -425.50314 -538.4635 684
-86.234833 -424.95737 -538.9704 684
121.64181 -423.12686 -538.12347 684
124.64821 -423.64746 -538.02509 684
126.3591 -423.90588 -538.14197 684
128.00232 -424.36481 -538.37317 684
130.26314 -424.91568 -538.96716 684
132.52751 -424.18777 -538.05219 684
136.64903 -424.2861 -538.16913 684
138.5041 -424.2485 -538.19067 684
139.67749 -424.5777 -538.85406 684
140.86322 -424.39917 -538.64154 684
143.70052 -424.68863 -538.54523 684
149.37 -424.66006 -538.26111 684
169.32281 -425.44916 -538.01849 684
175.42953 -425.82376 -538.06024 684
-102.34698 -421.7352 -538.35303 684
-100.37293 -420.90512 -538.9303 684
-98.92218 -422.91187 -538.65411 684
93.368057 -420.16333 -538.04388 684
107.53362 -421.06314 -538.00403 684
111.41016 -421.41681 -538.01898 684
-104.96723 -417.86996 -538.06274 684
-103.48112 -418.46463 -538.46887 684
-101.82925 -418.95941 -538.91101 684
49.175465 -417.08408 -538.13025 684
57.102882 -417.60452 -538.29779 684
61.247578 -417.85397 -538.02686 684
79.159912 -419.24161 -538.17139 684
83.417862 -419.3476 -538.00702 684
85.377701 -419.49203 -538.14636 684
87.597832 -419.64734 -538.13251 684
-104.42513 -415.60208 -538.29529 684
-102.8148 -414.69528 -538.77997 684
11.375532 -414.60782 -538.04132 684
-104.10503 -413.40659 -538.29102 684
-102.56123 -412.42911 -538.6369 684
-101.03792 -411.5141 -538.79187 684
-44.54348 -411.15723 -538.85162 684
-42.411289 -411.22046 -538.25781 684
-40.239662 -411.35791 -538.13281 684
-28.593107 -411.9704 -538.09381 684
-26.498226 -412.12198 -538.14709 684
-22.736494 -412.40866 -538.1134 684
-6.7557693 -413.36084 -538.03284 684
1.0598003 -413.91693 -538.13696 684
-102.21721 -410.71863 -538.27673 684
-100.95918 -409.81943 -538.10437 684
-99.653473 -410.5502 -538.64697 684
-98.45359 -409.67474 -538.20673 684
-96.454201 -409.62674 -538.20264 684
-93.725594 -409.63376 -538.34058 684
-91.605087 -410.33136 -538.79816 684
-89.651863 -410.19742 -538.5144 684
-87.91893 -410.40808 -538.51581 684
-82.663277 -409.75702 -538.71301 684
-70.718872 -409.92386 -538.90472 684
-68.795357 -409.9389 -538.80914 684
-67.247406 -409.85458 -538.53711 684
-62.786064 -409.76096 -538.07373 684
-50.729076 -410.66251 -538.03137 684
-46.258869 -410.89743 -538.17499 684
183.65068 -450.0842 -537.96173 684
187.34895 -450.41534 -537.90405 684
189.86594 -450.68723 -537.30682 684
193.32397 -451.04095 -537.01752 684
199.55975 -451.13742 -537.82074 684
203.24754 -451.38748 -537.35614 684
205.53314 -451.50394 -537.0849 684
207.53938 -451.56989 -537.3429 684
213.47842 -451.98273 -537.23749 684
217.38841 -452.04395 -537.66669 684
219.35611 -452.33319 -537.22485 684
221.67667 -452.51889 -537.14636 684
223.58473 -452.60751 -537.12592 684
225.28725 -452.72476 -537.09998 684
227.30504 -452.57007 -537.76611 684
229.50929 -452.69244 -537.44989 684
231.46909 -452.7515 -537.38629 684
233.64061 -452.74603 -537.39154 684
235.5168 -452.77371 -537.32037 684
239.49722 -452.21973 -537.44263 684
241.43881 -451.53375 -537.81769 684
245.25237 -451.64883 -537.69922 684
247.46887 -452.82581 -537.22443 684
251.35138 -452.01324 -537.58783 684
253.33163 -452.23386 -537.62378 684
257.3591 -451.466 -537.62982 684
259.32104 -451.01291 -537.42255 684
261.27765 -451.74377 -537.23267 684
263.44308 -450.26028 -537.20502 684
265.60342 -450.01868 -537.04077 684
181.17387 -449.92596 -537.90808 684
253.27072 -448.17776 -537.8985 684
255.22243 -447.97916 -537.7099 684
257.3826 -447.62347 -537.47943 684
261.49734 -447.56396 -537.1665 684
263.23691 -447.44571 -537.00171 684
113.53769 -445.41589 -537.90155 684
127.70227 -445.46259 -537.47046 684
129.27893 -445.71298 -537.46063 684
132.25529 -445.90414 -537.83276 684
139.69553 -446.67841 -537.60577 684
146.03047 -446.93539 -537.69867 684
249.53326 -445.62979 -537.9942 684
255.48924 -445.36447 -537.41101 684
257.21774 -445.17792 -537.30176 684
41.495125 -441.25497 -537.94696 684
43.589653 -441.47345 -537.99414 684
247.57524 -443.2218 -537.99396 684
249.60493 -443.13272 -537.8808 684
251.60097 -441.2258 -537.84058 684
253.46335 -443.09964 -537.59113 684
255.60501 -442.02188 -537.49622 684
257.56445 -441.06104 -537.43005 684
259.50424 -441.02948 -537.29376 684
261.42831 -441.03159 -537.14471 684
-6.3824949 -438.00623 -537.8559 684
-2.846967 -438.40918 -537.73199 684
1.6882918 -438.77881 -537.5495 684
3.3614311 -438.84619 -537.97156 684
5.4719849 -438.92685 -537.79797 684
9.1211195 -439.08929 -537.90405 684
15.925039 -439.89133 -537.80365 684
19.501478 -440.04337 -537.53369 684
23.550987 -440.29919 -537.80145 684
25.065535 -440.35669 -537.70563 684
27.342953 -440.49097 -537.60162 684
29.214941 -440.65884 -537.99707 684
31.310085 -440.6803 -537.29974 684
33.32206 -440.91049 -537.74902 684
35.735813 -440.98233 -537.64343 684
253.49495 -439.80878 -537.86688 684
259.66772 -438.37283 -537.60229 684
261.55597 -438.14832 -537.47705 684
263.49509 -438.30005 -537.30585 684
265.46643 -438.5444 -537.11438 684
-19.112898 -437.28461 -537.76373 684
-8.7459345 -437.85687 -537.69696 684
257.39755 -436.19937 -537.80713 684
261.75949 -436.14728 -537.39819 684
-74.67012 -432.13708 -537.54834 684
-72.679634 -432.39911 -537.63788 684
-48.793934 -434.44647 -537.96234 684
241.43686 -432.02917 -537.67316 684
243.31566 -432.14822 -537.40967 684
247.4584 -432.82538 -537.49261 684
249.3856 -432.39493 -537.03088 684
251.33786 -432.59308 -537.03387 684
255.38634 -434.13235 -537.59052 684
259.46985 -434.09256 -537.21252 684
-86.344894 -429.29276 -537.19934 684
-85.416954 -429.91183 -537.1438 684
-84.233612 -430.05157 -537.31573 684
-80.600441 -430.65616 -537.7948 684
-78.522293 -431.83127 -537.18292 684
215.39325 -429.41312 -537.98468 684
217.79181 -429.60617 -537.98151 684
219.77873 -429.35144 -537.31042 684
223.4001 -429.53436 -537.22662 684
225.16995 -429.68591 -537.27008 684
227.84723 -429.83145 -537.23114 684
229.48177 -429.9021 -537.14697 684
231.71407 -430.07446 -537.14044 684
235.51169 -431.12537 -537.7782 684
237.24596 -431.25717 -537.59253 684
239.3279 -431.44946 -537.41412 684
-101.40381 -426.00833 -537.0144 684
-96.026428 -426.08047 -537.54974 684
-93.123444 -426.33411 -537.48315 684
-91.974388 -426.64682 -537.34473 684
-90.694946 -426.27402 -537.66498 684
-89.384155 -427.25613 -537.40204 684
-87.273682 -427.95581 -537.59491 684
179.57681 -426.16714 -537.97516 684
199.48738 -427.14105 -537.5896 684
201.77707 -427.38177 -537.51984 684
209.55138 -428.51422 -537.63928 684
211.41895 -428.61359 -537.39758 684
-105.40702 -424.22101 -537.04431 684
-103.03892 -424.34201 -537.51898 684
-99.452248 -425.57217 -537.47119 684
134.24507 -423.80359 -537.47137 684
135.26453 -423.92023 -537.7229 684
140.02002 -423.83289 -537.28766 684
141.86589 -424.0723 -537.79462 684
143.1532 -423.8284 -537.07416 684
145.2363 -424.05145 -537.30566 684
147.52037 -424.15402 -537.27332 684
151.68936 -424.0863 -537.83069 684
155.43999 -424.32611 -537.74811 684
159.40575 -424.81735 -537.97339 684
161.22961 -424.9292 -537.9375 684
163.4738 -425.10101 -537.96429 684
167.5601 -425.3562 -537.96381 684
173.36188 -425.63995 -537.9209 684
177.50156 -425.98788 -537.97455 684
-107.3633 -420.92719 -537.14014 684
-105.94957 -421.30566 -537.47247 684
-104.34972 -422.19217 -537.76874 684
95.790161 -420.19223 -537.89557 684
99.306885 -420.53787 -537.98083 684
101.46077 -420.68723 -537.98639 684
103.47662 -420.83545 -537.97449 684
105.58418 -420.86594 -537.90405 684
113.57745 -421.50665 -537.80859 684
119.14921 -421.95062 -537.78955 684
-107.71152 -418.37729 -537.17749 684
-106.56844 -417.99542 -537.54858 684
51.370319 -417.22504 -537.78424 684
53.759361 -417.36029 -537.81274 684
59.127144 -417.69357 -537.95422 684
65.489838 -418.14819 -537.92139 684
69.362045 -418.42279 -537.8717 684
71.844162 -418.57645 -537.84277 684
73.672234 -418.82983 -537.88373 684
75.291283 -418.94476 -537.94635 684
77.743095 -419.07523 -537.80176 684
81.644028 -419.22214 -537.88776 684
91.619682 -419.90085 -537.90704 684
-108.23924 -415.05481 -537.0415 684
-107.15279 -416.55981 -537.40149 684
-106.98962 -415.03613 -537.44672 684
-105.75993 -415.27286 -537.8399 684
3.7204576 -414.09949 -537.65411 684
5.4263463 -414.21863 -537.78473 684
9.4947147 -414.48322 -537.92651 684
13.551009 -414.76181 -537.92883 684
15.509323 -414.89346 -537.76233 684
19.374079 -415.16504 -537.91827 684
23.20557 -415.40448 -537.97998 684
35.191097 -416.15872 -537.91925 684
37.428127 -416.28445 -537.88251 684
41.226162 -416.52832 -537.96912 684
43.599903 -416.70319 -537.8241 684
45.336483 -416.95401 -537.82715 684
-106.45261 -412.35504 -537.4209 684
-105.3085 -412.63501 -537.84973 684
-104.07344 -411.06442 -537.88043 684
-38.230221 -411.39316 -537.87628 684
-34.694756 -411.56036 -537.80334 684
-32.37989 -411.72455 -537.71594 684
-30.660603 -411.83289 -537.91138 684
-24.52173 -412.26965 -537.89612 684
-20.45208 -412.56735 -537.93854 684
-16.760937 -412.95963 -537.88049 684
-14.501558 -412.97556 -537.72894 684
-10.751493 -413.28024 -537.97534 684
-4.5051517 -413.51013 -537.83362 684
-2.371757 -413.66995 -537.8432 684
-0.28673163 -413.84531 -537.57654 684
-105.84762 -410.0752 -537.10583 684
-102.48328 -409.28842 -537.44843 684
-99.639931 -409.24338 -537.82159 684
-94.972443 -408.66855 -537.10608 684
-92.480751 -408.97913 -537.52789 684
-91.109238 -409.00775 -537.22174 684
-86.847359 -409.74197 -537.77899 684
-84.587059 -409.84448 -537.56366 684
-74.665443 -409.11435 -537.56189 684
-72.572136 -409.40594 -537.84198 684
-64.266342 -409.60025 -537.94611 684
-58.223774 -410.07565 -537.87683 684
-54.855621 -410.4248 -537.83911 684
-52.964794 -410.53204 -537.89264 684
227.46764 -453.10297 -536.20734 684
229.53821 -453.22711 -536.0896 684
249.51657 -453.29944 -536.92358 684
255.3275 -453.86469 -536.93677 684
259.41559 -454.14496 -536.64557 684
261.34177 -454.04959 -536.56891 684
265.4024 -453.55719 -536.37701 684
267.73248 -453.55603 -536.1601 684
271.2673 -453.7522 -536.00562 684
177.44896 -450.12753 -536.16412 684
181.13167 -450.41962 -536.12708 684
183.30406 -450.56668 -536.23285 684
187.28865 -450.59985 -536.82196 684
195.39888 -451.21686 -536.80884 684
197.67621 -451.37662 -536.64929 684
199.16496 -451.44174 -536.20844 684
201.46524 -451.7193 -536.10455 684
209.40071 -452.23029 -536.05707 684
213.57872 -452.37219 -536.00073 684
221.68301 -452.82968 -536.17621 684
241.50822 -452.90448 -536.95953 684
243.43268 -452.88916 -536.90717 684
263.41208 -452.41608 -536.98456 684
265.60257 -452.49661 -536.72583 684
267.46222 -451.2652 -536.76862 684
269.73236 -451.30347 -536.58081 684
271.59753 -452.24469 -536.33386 684
273.53925 -451.07275 -536.29089 684
147.29518 -447.90836 -536.04987 684
151.34882 -448.31461 -536.21796 684
153.60158 -448.18741 -536.64435 684
155.34668 -448.29047 -536.71222 684
157.46494 -448.45273 -536.72131 684
159.25177 -448.55222 -536.55243 684
161.43402 -448.7439 -536.70789 684
163.67513 -448.8541 -536.59253 684
167.31734 -449.33228 -536.12024 684
169.41837 -449.48953 -536.08777 684
173.58182 -449.77713 -536.15674 684
265.60718 -447.29877 -536.78802 684
271.52744 -447.43491 -536.38214 684
274.37973 -447.35736 -536.14349 684
124.34466 -445.48746 -536.82037 684
130.56808 -445.87036 -536.26208 684
134.3654 -446.2056 -536.24353 684
137.66559 -446.58926 -536.13013 684
141.74567 -446.85245 -536.02582 684
261.54538 -443.21149 -536.97662 684
273.56912 -443.74942 -536.22113 684
269.50458 -439.319 -536.75452 684
271.37732 -439.48322 -536.59314 684
273.54614 -439.49982 -536.39954 684
275.22525 -439.93268 -536.08826 684
265.22433 -435.84698 -536.95972 684
267.50342 -436.08789 -536.76837 684
269.42218 -436.17633 -536.57489 684
271.60626 -436.13776 -536.36664 684
273.48651 -436.21332 -536.16998 684
-73.008926 -432.69629 -536.63751 684
-66.784615 -433.31696 -536.25116 684
-62.405003 -433.62646 -536.32886 684
253.5602 -432.7352 -536.96545 684
257.4827 -432.82736 -536.69946 684
259.31848 -432.77609 -536.45862 684
261.71658 -434.10263 -536.91699 684
263.57544 -434.18018 -536.84448 684
265.48178 -434.31418 -536.43207 684
267.32788 -434.64117 -536.31525 684
-87.793655 -429.76666 -536.03174 684
-86.399155 -430.13101 -536.49402 684
-85.558159 -430.66666 -536.14038 684
-84.744217 -430.56342 -536.6955 684
-82.914581 -430.87625 -536.21167 684
232.77356 -430.10559 -536.99365 684
245.70621 -431.8031 -536.87115 684
-105.91639 -426.37939 -536.0509 684
