# .PCD v0.7 - Point Cloud Data file format
VERSION 0.7
FIELDS x y z rgba
SIZE 4 4 4 4
TYPE F F F U
COUNT 1 1 1 1
WIDTH 1120
HEIGHT 1
VIEWPOINT 0 0 0 1 0 0 0
POINTS 1120
DATA ascii
229.45656 -451.48898 -538.42596 4294966758
231.30856 -451.07916 -538.59082 4294966758
233.45335 -450.47116 -538.62134 4294966758
235.33963 -451.0354 -538.41785 4294966758
237.31235 -450.99078 -538.22095 4294966758
241.30046 -450.15985 -538.33221 4294966758
243.46535 -450.31433 -538.2168 4294966758
245.30154 -450.293 -538.16602 4294966758
247.30234 -450.5148 -538.13147 4294966758
249.36275 -450.72501 -538.05328 4294966758
149.31749 -447.82211 -538.09229 4294966758
153.94046 -447.82462 -538.96021 4294966758
155.3351 -448.28586 -538.09082 4294966758
157.21606 -448.56265 -538.53076 4294966758
159.51413 -448.53723 -538.31213 4294966758
161.34932 -448.67761 -538.43994 4294966758
163.56271 -448.84781 -538.28748 4294966758
171.5692 -449.46396 -538.01672 4294966758
175.31573 -449.38025 -538.79028 4294966758
179.38791 -449.94788 -538.00751 4294966758
233.36778 -448.11606 -538.90527 4294966758
237.29379 -448.36035 -538.83704 4294966758
239.31018 -448.37216 -538.76086 4294966758
241.47856 -448.18314 -538.53479 4294966758
245.56244 -448.16537 -538.37164 4294966758
247.36702 -448.02805 -538.37225 4294966758
249.30624 -447.96176 -538.22217 4294966758
251.35303 -448.12753 -538.06177 4294966758
125.60327 -444.90472 -538.71411 4294966758
129.57191 -445.3685 -538.43201 4294966758
130.98592 -445.72372 -538.06519 4294966758
133.78874 -445.73242 -538.84393 4294966758
135.94174 -446.1665 -538.3736 4294966758
138.00259 -446.24548 -538.80023 4294966758
141.54893 -446.3114 -538.76715 4294966758
143.91582 -446.40488 -538.36267 4294966758
147.88229 -446.98425 -538.58459 4294966758
241.82936 -445.3385 -538.32257 4294966758
243.24513 -445.35345 -538.255 4294966758
245.63332 -445.50427 -538.17529 4294966758
243.59109 -441.12677 -538.27563 4294966758
245.35684 -443.15778 -538.1037 4294966758
247.31522 -441.0574 -538.1062 4294966758
239.33344 -439.95947 -538.56433 4294966758
241.50037 -438.95352 -538.59979 4294966758
243.55096 -438.51633 -538.57257 4294966758
245.48528 -438.7197 -538.4563 4294966758
247.55347 -438.47104 -538.39508 4294966758
249.30243 -438.58334 -538.28882 4294966758
251.44725 -438.51147 -538.16504 4294966758
239.71025 -436.42764 -538.95374 4294966758
241.36238 -436.15485 -538.88062 4294966758
245.65631 -436.33524 -538.72675 4294966758
247.42712 -436.1123 -538.65118 4294966758
249.5966 -436.23923 -538.51056 4294966758
251.50322 -436.0741 -538.39056 4294966758
253.63358 -435.99313 -538.255 4294966758
233.51532 -432.24112 -538.81085 4294966758
237.53624 -432.6449 -538.4137 4294966758
239.46091 -434.07373 -538.82483 4294966758
243.66515 -434.26163 -538.55536 4294966758
225.43268 -430.96301 -538.76068 4294966758
227.33621 -430.9873 -538.61536 4294966758
229.42679 -431.03442 -538.50629 4294966758
231.48692 -431.12009 -538.34729 4294966758
183.49915 -426.49481 -538.12683 4294966758
187.66745 -426.87567 -538.23206 4294966758
189.97307 -427.02341 -538.14954 4294966758
192.95241 -427.1221 -538.26306 4294966758
197.22296 -427.26334 -538.93481 4294966758
205.52803 -428.06448 -538.04602 4294966758
124.64821 -423.64746 -538.02509 4294966758
126.3591 -423.90588 -538.14197 4294966758
128.00232 -424.36481 -538.37317 4294966758
130.26314 -424.91568 -538.96716 4294966758
132.52751 -424.18777 -538.05219 4294966758
136.64903 -424.2861 -538.16913 4294966758
138.5041 -424.2485 -538.19067 4294966758
139.67749 -424.5777 -538.85406 4294966758
140.86322 -424.39917 -538.64154 4294966758
143.70052 -424.68863 -538.54523 4294966758
149.37 -424.66006 -538.26111 4294966758
169.32281 -425.44916 -538.01849 4294966758
175.42953 -425.82376 -538.06024 4294966758
183.65068 -450.0842 -537.96173 4294966759
187.34895 -450.41534 -537.90405 4294966759
189.86594 -450.68723 -537.30682 4294966759
193.32397 -451.04095 -537.01752 4294966759
199.55975 -451.13742 -537.82074 4294966759
203.24754 -451.38748 -537.35614 4294966759
205.53314 -451.50394 -537.0849 4294966759
207.53938 -451.56989 -537.3429 4294966759
213.47842 -451.98273 -537.23749 4294966759
217.38841 -452.04395 -537.66669 4294966759
219.35611 -452.33319 -537.22485 4294966759
221.67667 -452.51889 -537.14636 4294966759
223.58473 -452.60751 -537.12592 4294966759
225.28725 -452.72476 -537.09998 4294966759
227.30504 -452.57007 -537.76611 4294966759
229.50929 -452.69244 -537.44989 4294966759
231.46909 -452.7515 -537.38629 4294966759
233.64061 -452.74603 -537.39154 4294966759
235.5168 -452.77371 -537.32037 4294966759
239.49722 -452.21973 -537.44263 4294966759
241.43881 -451.53375 -537.81769 4294966759
245.25237 -451.64883 -537.69922 4294966759
247.46887 -452.82581 -537.22443 4294966759
251.35138 -452.01324 -537.58783 4294966759
253.33163 -452.23386 -537.62378 4294966759
257.3591 -451.466 -537.62982 4294966759
259.32104 -451.01291 -537.42255 4294966759
261.27765 -451.74377 -537.23267 4294966759
263.44308 -450.26028 -537.20502 4294966759
265.60342 -450.01868 -537.04077 4294966759
181.17387 -449.92596 -537.90808 4294966759
253.27072 -448.17776 -537.8985 4294966759
255.22243 -447.97916 -537.7099 4294966759
257.3826 -447.62347 -537.47943 4294966759
261.49734 -447.56396 -537.1665 4294966759
263.23691 -447.44571 -537.00171 4294966759
127.70227 -445.46259 -537.47046 4294966759
129.27893 -445.71298 -537.46063 4294966759
132.25529 -445.90414 -537.83276 4294966759
139.69553 -446.67841 -537.60577 4294966759
146.03047 -446.93539 -537.69867 4294966759
249.53326 -445.62979 -537.9942 4294966759
255.48924 -445.36447 -537.41101 4294966759
257.21774 -445.17792 -537.30176 4294966759
247.57524 -443.2218 -537.99396 4294966759
249.60493 -443.13272 -537.8808 4294966759
251.60097 -441.2258 -537.84058 4294966759
253.46335 -443.09964 -537.59113 4294966759
255.60501 -442.02188 -537.49622 4294966759
257.56445 -441.06104 -537.43005 4294966759
259.50424 -441.02948 -537.29376 4294966759
261.42831 -441.03159 -537.14471 4294966759
253.49495 -439.80878 -537.86688 4294966759
259.66772 -438.37283 -537.60229 4294966759
261.55597 -438.14832 -537.47705 4294966759
263.49509 -438.30005 -537.30585 4294966759
265.46643 -438.5444 -537.11438 4294966759
257.39755 -436.19937 -537.80713 4294966759
261.75949 -436.14728 -537.39819 4294966759
241.43686 -432.02917 -537.67316 4294966759
243.31566 -432.14822 -537.40967 4294966759
247.4584 -432.82538 -537.49261 4294966759
249.3856 -432.39493 -537.03088 4294966759
251.33786 -432.59308 -537.03387 4294966759
255.38634 -434.13235 -537.59052 4294966759
259.46985 -434.09256 -537.21252 4294966759
215.39325 -429.41312 -537.98468 4294966759
217.79181 -429.60617 -537.98151 4294966759
219.77873 -429.35144 -537.31042 4294966759
223.4001 -429.53436 -537.22662 4294966759
225.16995 -429.68591 -537.27008 4294966759
227.84723 -429.83145 -537.23114 4294966759
229.48177 -429.9021 -537.14697 4294966759
231.71407 -430.07446 -537.14044 4294966759
235.51169 -431.12537 -537.7782 4294966759
237.24596 -431.25717 -537.59253 4294966759
239.3279 -431.44946 -537.41412 4294966759
179.57681 -426.16714 -537.97516 4294966759
199.48738 -427.14105 -537.5896 4294966759
201.77707 -427.38177 -537.51984 4294966759
209.55138 -428.51422 -537.63928 4294966759
211.41895 -428.61359 -537.39758 4294966759
134.24507 -423.80359 -537.47137 4294966759
135.26453 -423.92023 -537.7229 4294966759
140.02002 -423.83289 -537.28766 4294966759
141.86589 -424.0723 -537.79462 4294966759
143.1532 -423.8284 -537.07416 4294966759
145.2363 -424.05145 -537.30566 4294966759
147.52037 -424.15402 -537.27332 4294966759
151.68936 -424.0863 -537.83069 4294966759
155.43999 -424.32611 -537.74811 4294966759
159.40575 -424.81735 -537.97339 4294966759
161.22961 -424.9292 -537.9375 4294966759
163.4738 -425.10101 -537.96429 4294966759
167.5601 -425.3562 -537.96381 4294966759
173.36188 -425.63995 -537.9209 4294966759
177.50156 -425.98788 -537.97455 4294966759
227.46764 -453.10297 -536.20734 4294966760
229.53821 -453.22711 -536.0896 4294966760
249.51657 -453.29944 -536.92358 4294966760
255.3275 -453.86469 -536.93677 4294966760
259.41559 -454.14496 -536.64557 4294966760
261.34177 -454.04959 -536.56891 4294966760
265.4024 -453.55719 -536.37701 4294966760
267.73248 -453.55603 -536.1601 4294966760
271.2673 -453.7522 -536.00562 4294966760
177.44896 -450.12753 -536.16412 4294966760
181.13167 -450.41962 -536.12708 4294966760
183.30406 -450.56668 -536.23285 4294966760
187.28865 -450.59985 -536.82196 4294966760
195.39888 -451.21686 -536.80884 4294966760
197.67621 -451.37662 -536.64929 4294966760
199.16496 -451.44174 -536.20844 4294966760
201.46524 -451.7193 -536.10455 4294966760
209.40071 -452.23029 -536.05707 4294966760
213.57872 -452.37219 -536.00073 4294966760
221.68301 -452.82968 -536.17621 4294966760
241.50822 -452.90448 -536.95953 4294966760
243.43268 -452.88916 -536.90717 4294966760
263.41208 -452.41608 -536.98456 4294966760
265.60257 -452.49661 -536.72583 4294966760
267.46222 -451.2652 -536.76862 4294966760
269.73236 -451.30347 -536.58081 4294966760
271.59753 -452.24469 -536.33386 4294966760
273.53925 -451.07275 -536.29089 4294966760
147.29518 -447.90836 -536.04987 4294966760
151.34882 -448.31461 -536.21796 4294966760
153.60158 -448.18741 -536.64435 4294966760
155.34668 -448.29047 -536.71222 4294966760
157.46494 -448.45273 -536.72131 4294966760
159.25177 -448.55222 -536.55243 4294966760
161.43402 -448.7439 -536.70789 4294966760
163.67513 -448.8541 -536.59253 4294966760
167.31734 -449.33228 -536.12024 4294966760
169.41837 -449.48953 -536.08777 4294966760
173.58182 -449.77713 -536.15674 4294966760
265.60718 -447.29877 -536.78802 4294966760
271.52744 -447.43491 -536.38214 4294966760
274.37973 -447.35736 -536.14349 4294966760
124.34466 -445.48746 -536.82037 4294966760
130.56808 -445.87036 -536.26208 4294966760
134.3654 -446.2056 -536.24353 4294966760
137.66559 -446.58926 -536.13013 4294966760
141.74567 -446.85245 -536.02582 4294966760
261.54538 -443.21149 -536.97662 4294966760
273.56912 -443.74942 -536.22113 4294966760
269.50458 -439.319 -536.75452 4294966760
271.37732 -439.48322 -536.59314 4294966760
273.54614 -439.49982 -536.39954 4294966760
275.22525 -439.93268 -536.08826 4294966760
265.22433 -435.84698 -536.95972 4294966760
267.50342 -436.08789 -536.76837 4294966760
269.42218 -436.17633 -536.57489 4294966760
271.60626 -436.13776 -536.36664 4294966760
273.48651 -436.21332 -536.16998 4294966760
253.5602 -432.7352 -536.96545 4294966760
257.4827 -432.82736 -536.69946 4294966760
259.31848 -432.77609 -536.45862 4294966760
261.71658 -434.10263 -536.91699 4294966760
263.57544 -434.18018 -536.84448 4294966760
265.48178 -434.31418 -536.43207 4294966760
267.32788 -434.64117 -536.31525 4294966760
232.77356 -430.10559 -536.99365 4294966760
245.70621 -431.8031 -536.87115 4294966760
191.45213 -426.58041 -536.1524 4294966760
193.153 -426.6716 -536.2475 4294966760
195.52904 -426.88803 -536.09412 4294966760
197.37685 -427.03058 -536.7843 4294966760
203.28835 -427.53302 -536.68384 4294966760
205.72789 -427.82544 -536.75446 4294966760
207.52499 -427.90292 -536.09827 4294966760
127.15046 -423.2616 -536.26477 4294966760
130.6311 -423.58459 -536.42072 4294966760
133.26535 -423.47916 -536.29895 4294966760
135.4917 -423.49295 -536.10455 4294966760
137.98804 -423.62027 -536.37573 4294966760
175.78839 -425.31555 -536.09137 4294966760
179.55324 -425.66681 -536.01929 4294966760
235.53133 -453.51953 -535.98969 4294966761
239.47939 -453.71115 -535.7254 4294966761
241.24515 -453.82178 -535.55505 4294966761
243.61523 -454.00412 -535.20819 4294966761
247.43279 -454.21671 -535.242 4294966761
249.46538 -454.32614 -535.32312 4294966761
251.69763 -454.51089 -535.29681 4294966761
253.50476 -454.69943 -535.39777 4294966761
259.27063 -455.02457 -535.40332 4294966761
263.38364 -455.06769 -535.24286 4294966761
265.50714 -454.86118 -535.5 4294966761
267.56607 -454.75867 -535.42615 4294966761
275.47156 -453.6279 -535.60602 4294966761
277.40036 -453.60983 -535.05182 4294966761
203.35938 -451.81757 -535.65613 4294966761
211.40512 -452.27676 -535.87598 4294966761
215.58009 -452.47397 -535.83929 4294966761
219.21126 -452.6911 -535.99884 4294966761
275.68958 -450.04053 -535.91724 4294966761
277.25214 -451.8353 -535.46771 4294966761
139.57379 -447.30896 -535.87335 4294966761
145.01349 -447.10468 -535.33832 4294966761
149.19461 -448.04468 -535.93866 4294966761
275.96158 -447.64594 -535.95111 4294966761
277.45776 -447.92947 -535.70789 4294966761
278.28818 -449.89886 -535.43585 4294966761
279.38235 -448.13892 -535.27655 4294966761
280.17963 -447.14612 -535.09399 4294966761
276.74646 -445.43427 -535.85577 4294966761
279.25491 -445.61441 -535.41003 4294966761
276.45248 -442.60428 -535.97882 4294966761
277.78134 -441.64206 -535.89166 4294966761
278.31 -443.07065 -535.74725 4294966761
279.19763 -441.11896 -535.73645 4294966761
280.32376 -442.65701 -535.42224 4294966761
281.24686 -443.91968 -535.05988 4294966761
276.95172 -440.8916 -535.96777 4294966761
277.36307 -439.42776 -535.85834 4294966761
278.73148 -439.6106 -535.78333 4294966761
279.56113 -438.54028 -535.52509 4294966761
281.21338 -439.62421 -535.34613 4294966761
275.16107 -436.14172 -535.53424 4294966761
277.65628 -436.69571 -535.42133 4294966761
263.39682 -433.08932 -535.9856 4294966761
265.59225 -433.19904 -535.6521 4294966761
267.42682 -433.58401 -535.61621 4294966761
269.38745 -434.01016 -535.54321 4294966761
271.59195 -434.77103 -535.78546 4294966761
273.47134 -434.74179 -535.51343 4294966761
277.17203 -434.69135 -535.08075 4294966761
223.60402 -429.02307 -535.80444 4294966761
227.70381 -429.37106 -535.98157 4294966761
229.8439 -429.51474 -535.98749 4294966761
231.86322 -429.63718 -535.88879 4294966761
235.14017 -429.9115 -535.83545 4294966761
239.50589 -430.1759 -535.61908 4294966761
249.78627 -430.95157 -535.2384 4294966761
253.33952 -431.25125 -535.37653 4294966761
255.61342 -431.42731 -535.15631 4294966761
259.42578 -431.73795 -535.26697 4294966761
187.78029 -426.36899 -535.73877 4294966761
209.72574 -427.92474 -535.99377 4294966761
211.9046 -428.09229 -535.70337 4294966761
213.16751 -428.29578 -535.96851 4294966761
215.54459 -428.41483 -535.68549 4294966761
221.81 -428.78513 -535.76984 4294966761
139.74669 -423.44598 -535.13025 4294966761
141.85239 -423.54382 -535.62463 4294966761
143.65247 -423.24875 -535.69946 4294966761
147.04375 -423.45416 -535.78363 4294966761
149.41582 -423.59274 -535.72034 4294966761
151.93115 -423.81741 -535.36047 4294966761
153.20653 -423.87976 -535.77942 4294966761
155.86252 -424.10352 -535.39972 4294966761
157.50186 -424.20374 -535.79614 4294966761
159.39809 -424.33456 -535.7359 4294966761
161.27818 -424.46402 -535.97919 4294966761
163.1916 -424.61807 -535.87256 4294966761
165.47404 -424.77914 -535.81464 4294966761
167.24113 -424.89359 -535.98987 4294966761
169.41527 -425.01511 -535.99109 4294966761
171.63275 -425.13995 -535.80151 4294966761
177.62463 -425.52307 -535.76031 4294966761
181.29593 -425.80048 -535.95374 4294966761
183.68106 -425.98721 -535.94409 4294966761
124.07663 -422.68945 -535.79102 4294966761
223.26245 -453.17542 -534.09314 4294966762
227.70395 -453.20718 -534.00165 4294966762
229.47963 -453.35733 -534.625 4294966762
231.47054 -453.49918 -534.66718 4294966762
233.21149 -453.87677 -534.46356 4294966762
235.56592 -454.05859 -534.23132 4294966762
241.1787 -454.39758 -534.11786 4294966762
249.51653 -454.64438 -534.11975 4294966762
251.7144 -454.71603 -534.06073 4294966762
253.54018 -454.87256 -534.20679 4294966762
255.36182 -454.98267 -534.711 4294966762
257.56494 -455.08719 -534.82031 4294966762
259.54663 -455.31189 -534.18713 4294966762
261.57529 -455.59036 -534.13361 4294966762
269.75552 -455.35541 -534.84027 4294966762
271.04251 -455.60785 -534.19427 4294966762
273.54282 -454.91943 -534.95905 4294966762
275.32736 -455.28125 -534.51874 4294966762
277.46747 -455.17783 -534.69122 4294966762
279.34238 -453.9592 -534.35724 4294966762
279.43637 -451.89713 -534.89661 4294966762
281.56256 -451.22421 -534.28448 4294966762
280.71503 -448.66064 -534.79785 4294966762
282.20102 -448.00436 -534.23492 4294966762
127.29761 -445.63428 -534.52826 4294966762
281.44232 -445.95886 -534.74121 4294966762
283.78354 -444.66904 -534.10229 4294966762
282.55118 -442.96887 -534.79706 4294966762
284.18597 -441.91937 -534.44214 4294966762
285.72275 -441.51437 -534.03619 4294966762
283.32233 -439.37833 -534.86151 4294966762
285.27612 -438.90277 -534.19873 4294966762
279.46219 -435.81998 -534.8064 4294966762
281.23611 -436.92242 -534.88361 4294966762
282.56534 -437.7229 -534.88702 4294966762
283.30124 -436.7771 -534.33185 4294966762
271.3826 -433.55408 -534.99249 4294966762
273.50735 -433.53363 -534.63684 4294966762
275.37872 -433.39545 -534.17377 4294966762
235.34627 -429.51392 -534.198 4294966762
237.36221 -429.60898 -534.104 4294966762
253.36835 -430.74915 -534.12958 4294966762
255.62019 -430.98746 -534.07489 4294966762
221.57097 -453.02298 -533.91962 4294966763
225.38754 -453.24799 -533.7724 4294966763
243.63728 -454.33694 -533.97089 4294966763
245.60007 -454.38455 -533.80103 4294966763
265.36841 -455.86499 -533.96509 4294966763
270.50793 -455.82468 -533.27368 4294966763
275.17938 -455.76538 -533.73651 4294966763
279.10095 -455.16412 -533.44476 4294966763
280.99185 -454.66791 -533.2088 4294966763
281.50983 -453.01947 -533.98474 4294966763
282.73557 -453.78006 -533.29706 4294966763
183.51334 -450.05661 -533.2713 4294966763
185.40421 -450.181 -533.39551 4294966763
189.71758 -450.42108 -533.16595 4294966763
191.17892 -450.58472 -533.80652 4294966763
201.16104 -451.4296 -533.13257 4294966763
203.58156 -451.64639 -533.10492 4294966763
205.49548 -451.87457 -533.47198 4294966763
207.51572 -452.08121 -533.71057 4294966763
209.4494 -452.26877 -533.84558 4294966763
213.61903 -452.62149 -533.71576 4294966763
217.36266 -452.78705 -533.83258 4294966763
219.48489 -452.88309 -533.79065 4294966763
283.4144 -451.83893 -533.39026 4294966763
149.15366 -447.3277 -533.21265 4294966763
153.5722 -447.6026 -533.09149 4294966763
157.43199 -447.92001 -533.08075 4294966763
159.21561 -448.04678 -533.35492 4294966763
161.34254 -448.25372 -533.10468 4294966763
169.35419 -448.83832 -533.08911 4294966763
171.56937 -449.07104 -533.10089 4294966763
181.42802 -449.89621 -533.19739 4294966763
282.76385 -449.78024 -533.8465 4294966763
283.78998 -448.36703 -533.49402 4294966763
133.45309 -445.95306 -533.11945 4294966763
136.73022 -446.20465 -533.01312 4294966763
283.65768 -446.64673 -533.789 4294966763
285.45398 -445.38358 -533.37689 4294966763
287.31979 -444.03098 -533.11835 4294966763
285.61472 -443.38593 -533.73895 4294966763
287.43048 -442.00696 -533.47107 4294966763
287.28452 -440.08487 -533.67023 4294966763
288.53302 -438.89529 -533.28204 4294966763
289.3559 -440.40964 -533.16711 4294966763
281.68356 -435.09836 -533.83362 4294966763
283.56995 -435.28354 -533.388 4294966763
285.11743 -436.27301 -533.40607 4294966763
287.02295 -437.84119 -533.4054 4294966763
271.37054 -432.3219 -533.26233 4294966763
279.65036 -433.54001 -533.64844 4294966763
231.72664 -429.22873 -533.82153 4294966763
233.53494 -429.36905 -533.69464 4294966763
245.46242 -430.12762 -533.88 4294966763
247.26878 -430.27591 -533.94452 4294966763
251.59245 -430.56717 -533.90106 4294966763
257.3884 -431.10086 -533.97186 4294966763
261.58124 -431.45084 -533.98083 4294966763
265.63977 -431.87338 -533.65204 4294966763
181.54018 -426.12067 -533.00208 4294966763
189.56503 -426.73746 -533.00269 4294966763
195.45944 -426.94229 -533.30157 4294966763
197.60919 -427.16098 -533.54791 4294966763
199.68086 -427.33762 -533.49609 4294966763
205.44955 -427.70685 -533.32574 4294966763
207.19507 -427.78632 -533.29456 4294966763
209.72142 -427.90518 -533.05829 4294966763
211.68951 -428.0639 -533.3844 4294966763
213.37828 -428.13373 -533.47955 4294966763
219.27071 -428.44876 -533.2038 4294966763
221.82092 -428.61548 -533.37616 4294966763
225.31296 -428.79791 -533.76331 4294966763
133.36874 -423.12866 -533.47931 4294966763
137.54353 -423.30719 -533.29504 4294966763
143.54848 -423.52792 -533.1604 4294966763
149.18098 -423.86737 -533.19348 4294966763
153.23766 -424.15698 -533.14459 4294966763
159.10344 -424.57278 -533.11011 4294966763
163.34163 -424.88025 -533.10217 4294966763
169.28798 -425.23065 -533.05591 4294966763
171.27794 -425.39856 -533.02069 4294966763
173.18761 -425.50827 -533.20709 4294966763
129.7814 -422.91367 -533.51636 4294966763
277.88062 -456.14792 -532.53351 4294966764
243.44392 -454.51382 -532.06812 4294966764
255.28076 -454.9649 -532.00745 4294966764
259.32584 -455.6344 -532.13165 4294966764
282.29803 -454.82385 -532.77429 4294966764
283.3161 -454.75879 -532.37823 4294966764
284.29758 -453.98962 -532.37189 4294966764
187.18428 -450.23758 -532.97021 4294966764
285.6496 -451.92709 -532.2655 4294966764
145.35941 -447.04782 -532.91907 4294966764
147.43155 -447.15292 -532.95911 4294966764
151.38957 -447.42654 -532.97321 4294966764
163.47313 -448.34872 -532.93976 4294966764
165.51294 -448.53528 -532.98328 4294966764
179.53723 -449.64273 -532.92181 4294966764
284.93564 -449.91364 -532.83978 4294966764
285.45584 -447.59415 -532.93994 4294966764
286.55054 -449.07489 -532.33258 4294966764
287.21393 -447.79626 -532.35974 4294966764
130.23798 -445.68103 -532.6427 4294966764
139.36371 -446.51883 -532.92322 4294966764
143.41164 -446.89209 -532.96021 4294966764
287.18365 -446.07584 -532.72437 4294966764
288.93924 -446.87622 -532.21301 4294966764
289.1459 -444.77097 -532.59039 4294966764
291.1282 -445.5968 -532.20599 4294966764
293.40408 -444.22049 -532.24072 4294966764
295.69342 -445.06293 -532.02185 4294966764
289.30066 -442.64597 -532.94727 4294966764
291.31479 -442.38318 -532.64771 4294966764
293.37555 -442.08459 -532.45221 4294966764
295.60931 -442.74014 -532.20325 4294966764
297.30954 -441.07529 -532.03131 4294966764
290.05225 -438.51981 -532.85608 4294966764
291.48059 -439.42349 -532.70483 4294966764
293.20462 -439.18839 -532.31567 4294966764
294.69922 -439.16473 -532.15308 4294966764
295.18472 -440.71045 -532.24554 4294966764
286.78452 -436.14172 -532.66565 4294966764
288.63239 -436.88171 -532.52661 4294966764
290.33499 -436.85275 -532.18085 4294966764
291.48608 -437.95062 -532.42108 4294966764
281.61243 -433.92975 -532.80585 4294966764
283.28561 -434.13196 -532.29608 4294966764
284.65814 -434.84097 -532.57312 4294966764
141.45964 -423.4028 -532.96881 4294966764
147.09811 -423.74509 -532.99066 4294966764
152.2822 -424.1138 -532.89178 4294966764
165.14272 -425.00278 -532.99591 4294966764
167.25313 -425.09335 -532.95288 4294966764
177.53645 -425.88373 -532.95197 4294966764
263.0936 -456.31766 -531.99957 4294966765
265.20074 -456.4314 -531.93188 4294966765
267.16898 -456.35187 -531.82208 4294966765
229.13304 -453.10165 -531.25879 4294966765
231.50053 -453.2366 -531.28113 4294966765
233.55663 -453.58728 -531.79474 4294966765
235.53009 -453.7966 -531.73737 4294966765
239.25639 -454.17371 -531.77612 4294966765
241.38123 -454.20047 -531.82709 4294966765
245.49652 -454.56552 -531.76721 4294966765
251.64313 -454.71237 -531.22845 4294966765
253.49554 -454.91629 -531.71625 4294966765
279.7048 -455.66968 -531.78809 4294966765
282.14557 -455.42926 -531.58093 4294966765
284.11737 -455.32162 -531.23621 4294966765
285.36499 -454.69513 -531.45062 4294966765
286.65042 -453.47025 -531.4856 4294966765
209.40845 -451.52536 -531.06396 4294966765
217.42773 -452.30554 -531.04297 4294966765
221.56897 -452.60626 -531.05463 4294966765
225.39316 -452.79544 -531.27216 4294966765
227.45511 -452.88809 -531.12885 4294966765
286.97577 -450.54837 -531.97949 4294966765
287.4169 -451.98441 -531.57477 4294966765
288.88104 -451.01276 -531.43304 4294966765
290.84531 -451.71906 -531.06879 4294966765
292.90137 -450.8443 -531.19037 4294966765
297.25165 -451.20334 -531.14862 4294966765
301.59048 -450.8743 -531.2868 4294966765
303.32474 -451.28418 -531.11169 4294966765
288.5289 -449.05243 -531.87305 4294966765
290.85721 -448.82709 -531.65491 4294966765
293.06305 -448.73712 -531.58881 4294966765
295.3042 -448.69366 -531.56775 4294966765
297.48398 -448.71216 -531.60028 4294966765
299.577 -448.72009 -531.57019 4294966765
301.47195 -448.69046 -531.52393 4294966765
303.20322 -448.61096 -531.35742 4294966765
293.26425 -446.48221 -531.94037 4294966765
297.83878 -446.21881 -531.85022 4294966765
300.16464 -445.31265 -531.80194 4294966765
301.758 -446.65082 -531.62061 4294966765
302.36075 -444.82501 -531.5835 4294966765
303.54251 -446.09079 -531.39081 4294966765
305.11917 -445.81473 -531.08655 4294966765
298.46857 -443.34869 -531.9682 4294966765
300.81177 -442.92374 -531.77643 4294966765
302.89276 -442.90848 -531.50543 4294966765
303.98108 -441.53061 -531.30646 4294966765
305.45255 -442.7243 -531.04248 4294966765
296.55966 -439.00854 -531.82477 4294966765
298.40588 -439.60577 -531.74487 4294966765
299.48956 -440.97302 -531.81024 4294966765
300.18304 -439.08096 -531.41943 4294966765
302.0563 -439.58533 -531.29871 4294966765
303.79016 -439.58252 -531.1167 4294966765
289.79907 -435.71057 -531.57184 4294966765
292.04495 -436.87564 -531.83368 4294966765
293.78922 -436.33493 -531.18915 4294966765
294.96112 -437.81851 -531.73364 4294966765
298.52972 -437.87982 -531.2514 4294966765
275.46304 -432.14243 -531.73285 4294966765
277.61295 -432.38239 -531.90186 4294966765
281.92075 -433.2186 -531.11127 4294966765
283.45532 -433.44135 -531.0061 4294966765
284.6756 -433.90805 -531.29779 4294966765
286.4946 -434.62567 -531.39758 4294966765
223.41602 -429.05908 -531.03595 4294966765
229.17986 -429.39716 -531.00519 4294966765
237.14784 -429.79602 -531.24969 4294966765
245.41615 -430.06921 -531.30255 4294966765
247.46681 -430.20261 -531.36096 4294966765
249.53915 -430.35907 -531.26752 4294966765
251.34224 -430.45261 -531.2934 4294966765
253.60974 -430.53683 -531.69983 4294966765
255.53334 -430.66806 -531.68561 4294966765
259.63251 -430.86264 -531.95435 4294966765
261.60654 -431.01935 -531.86298 4294966765
263.66937 -431.22586 -531.69122 4294966765
267.45975 -431.5415 -531.84784 4294966765
271.69009 -431.78918 -531.79449 4294966765
273.41034 -431.94431 -531.73871 4294966765
195.37842 -427.25339 -531.02606 4294966765
217.79642 -428.57724 -531.0058 4294966765
247.75244 -454.4736 -530.97791 4294966766
285.88873 -455.62183 -530.11798 4294966766
287.48663 -454.37183 -530.80054 4294966766
289.03113 -454.67145 -530.24762 4294966766
290.59604 -454.08725 -530.35815 4294966766
291.08484 -453.11389 -530.68719 4294966766
292.63464 -454.21616 -530.23962 4294966766
294.43698 -453.66565 -530.46832 4294966766
297.07104 -454.15475 -530.22845 4294966766
298.88644 -454.88705 -530.07043 4294966766
299.43002 -454.00223 -530.49603 4294966766
301.39224 -453.32336 -530.7356 4294966766
302.17938 -454.84781 -530.06305 4294966766
303.78891 -453.51868 -530.47186 4294966766
201.46295 -450.9064 -530.65723 4294966766
203.55205 -451.11148 -530.81305 4294966766
207.4585 -451.35962 -530.87805 4294966766
211.38895 -451.68164 -530.99042 4294966766
215.61105 -452.07135 -530.90155 4294966766
289.00787 -452.9519 -530.95801 4294966766
292.75967 -452.63498 -530.77203 4294966766
294.93652 -452.11325 -530.89526 4294966766
299.3526 -452.25485 -530.98749 4294966766
304.67032 -451.52435 -530.88196 4294966766
305.71341 -452.64078 -530.38934 4294966766
306.21854 -451.09683 -530.58551 4294966766
153.40958 -447.31195 -530.70905 4294966766
157.26164 -447.57327 -530.79498 4294966766
159.49037 -447.69925 -530.67279 4294966766
163.33682 -447.93851 -530.67761 4294966766
167.7793 -448.1824 -530.52246 4294966766
175.42099 -448.95984 -530.64258 4294966766
179.51434 -449.23328 -530.80676 4294966766
180.79831 -449.41724 -530.85645 4294966766
185.5089 -449.64828 -530.84888 4294966766
189.58386 -449.92505 -530.58942 4294966766
305.19498 -449.20813 -530.98444 4294966766
306.59729 -448.15033 -530.70239 4294966766
307.62726 -448.89856 -530.35828 4294966766
129.38754 -445.33823 -530.45667 4294966766
141.40958 -446.11981 -530.03479 4294966766
143.37901 -446.39575 -530.40582 4294966766
147.48886 -446.70279 -530.57098 4294966766
149.84184 -446.90393 -530.44562 4294966766
307.31458 -445.52591 -530.56934 4294966766
306.65576 -443.74384 -530.78571 4294966766
308.34085 -442.73669 -530.37659 4294966766
305.83255 -440.3364 -530.85376 4294966766
308.49661 -439.89825 -530.3689 4294966766
291.40857 -435.36758 -530.86316 4294966766
295.24292 -435.24582 -530.15552 4294966766
296.52527 -436.62024 -530.94641 4294966766
297.87836 -435.56757 -530.03339 4294966766
298.67297 -436.38403 -530.54327 4294966766
300.83994 -436.86868 -530.49634 4294966766
303.32138 -437.21344 -530.46887 4294966766
305.48581 -437.58618 -530.39191 4294966766
307.72702 -437.89667 -530.28265 4294966766
309.46454 -437.89102 -530.24384 4294966766
289.15982 -434.86557 -530.8667 4294966766
293.5538 -434.84842 -530.00391 4294966766
177.63008 -426.065 -530.7301 4294966766
179.6474 -426.17661 -530.84424 4294966766
181.41985 -426.31967 -530.71252 4294966766
193.28374 -427.09921 -530.87122 4294966766
197.63019 -427.39313 -530.82239 4294966766
201.51691 -427.66531 -530.99579 4294966766
205.73227 -427.85349 -530.82007 4294966766
209.56866 -428.08817 -530.86658 4294966766
213.9933 -428.39508 -530.66461 4294966766
135.18105 -423.1662 -530.68018 4294966766
137.6861 -423.31512 -530.7699 4294966766
139.29744 -423.3577 -530.96808 4294966766
141.63899 -423.54849 -530.63965 4294966766
143.53415 -423.68805 -530.78058 4294966766
147.26656 -423.9277 -530.71417 4294966766
149.24452 -424.03796 -530.86359 4294966766
151.89346 -424.23126 -530.75305 4294966766
153.2446 -424.35294 -530.65112 4294966766
157.56717 -424.63962 -530.62445 4294966766
163.45213 -425.05255 -530.76184 4294966766
164.91429 -425.1138 -530.63025 4294966766
167.42093 -425.30298 -530.7124 4294966766
170.89606 -425.5379 -530.67084 4294966766
175.68872 -425.92044 -530.75354 4294966766
129.57111 -422.60034 -530.84021 4294966766
131.3362 -422.72379 -530.91962 4294966766
133.54013 -422.98337 -530.85034 4294966766
266.89307 -456.1427 -529.07458 4294966767
275.42554 -456.18707 -529.87738 4294966767
277.26141 -456.17914 -529.6925 4294966767
283.70297 -456.0022 -529.06049 4294966767
243.44241 -453.85263 -529.34619 4294966767
269.60526 -455.89426 -529.0791 4294966767
271.39685 -455.73236 -529.30432 4294966767
273.21661 -455.83563 -529.52325 4294966767
280.67755 -455.94742 -529.36505 4294966767
287.78558 -455.46695 -529.86865 4294966767
289.51724 -455.75757 -529.0755 4294966767
291.3877 -455.33923 -529.56964 4294966767
293.67667 -455.58887 -529.45483 4294966767
294.75137 -454.79477 -529.97339 4294966767
295.539 -455.79446 -529.13324 4294966767
298.63504 -455.79315 -529.25623 4294966767
300.32114 -455.2399 -529.8595 4294966767
303.54639 -455.22659 -529.6731 4294966767
305.78683 -454.58469 -529.62952 4294966767
307.67865 -454.83478 -529.26099 4294966767
307.91141 -452.28149 -529.83612 4294966767
310.9288 -451.93347 -529.04596 4294966767
309.56918 -449.55032 -529.69391 4294966767
135.43771 -445.67572 -529.88806 4294966767
309.85123 -446.18802 -529.8208 4294966767
311.29312 -443.51337 -529.60059 4294966767
313.50098 -442.71429 -529.1452 4294966767
311.44537 -439.2868 -529.81067 4294966767
313.47931 -439.21466 -529.40515 4294966767
315.54935 -440.43176 -529.10522 4294966767
296.72995 -435.24936 -529.91626 4294966767
299.53516 -435.37653 -529.49133 4294966767
301.43652 -435.24976 -529.08179 4294966767
302.81644 -435.80734 -529.60248 4294966767
304.74191 -435.64868 -529.39972 4294966767
307.47131 -435.22028 -529.64478 4294966767
309.5101 -435.48328 -529.2995 4294966767
275.57471 -432.02551 -529.17029 4294966767
279.62164 -432.2258 -529.34808 4294966767
284.06226 -433.10599 -529.28949 4294966767
285.79001 -433.56403 -529.88196 4294966767
287.31619 -433.64777 -529.33502 4294966767
288.55243 -434.02203 -529.68494 4294966767
290.59241 -434.15259 -529.33063 4294966767
292.42258 -434.32605 -529.38428 4294966767
294.86813 -434.35269 -529.14282 4294966767
296.10486 -434.59149 -529.21301 4294966767
257.17914 -431.09366 -529.01025 4294966767
263.23743 -431.40472 -529.01611 4294966767
273.46326 -431.85251 -529.25989 4294966767
263.76639 -456.45395 -528.94702 4294966768
285.82831 -456.10947 -528.76703 4294966768
287.54645 -456.03717 -528.69843 4294966768
291.24194 -456.1413 -528.51544 4294966768
292.83078 -456.23016 -528.7063 4294966768
294.36621 -456.3428 -528.56897 4294966768
297.12653 -456.05194 -528.76141 4294966768
299.98441 -456.41589 -528.62909 4294966768
301.94324 -456.22876 -528.89587 4294966768
304.20724 -456.36331 -528.66321 4294966768
305.84106 -456.51453 -528.74805 4294966768
307.47049 -457.0184 -528.0932 4294966768
233.17662 -453.03815 -528.90375 4294966768
241.32143 -453.72311 -528.95062 4294966768
245.27214 -453.85406 -528.69531 4294966768
247.25125 -454.0062 -528.74811 4294966768
249.51985 -454.10785 -528.5379 4294966768
255.46741 -454.51031 -528.8689 4294966768
309.51642 -454.90063 -528.81281 4294966768
311.56686 -454.26733 -528.60327 4294966768
209.20042 -450.8541 -528.45447 4294966768
211.68625 -451.0831 -528.19104 4294966768
213.62547 -451.36121 -528.16638 4294966768
215.38533 -451.60983 -528.32159 4294966768
217.32312 -451.88544 -528.86243 4294966768
219.47383 -452.02518 -528.63129 4294966768
221.30745 -452.13803 -528.50574 4294966768
227.70596 -452.5054 -528.6416 4294966768
231.50377 -452.90417 -528.70667 4294966768
313.67639 -452.17889 -528.39844 4294966768
155.52092 -447.25104 -528.18866 4294966768
159.40382 -447.51813 -528.34113 4294966768
161.55495 -447.52408 -528.16986 4294966768
123.42401 -444.76108 -528.05676 4294966768
131.4066 -445.26877 -528.01764 4294966768
147.22568 -446.53189 -528.33844 4294966768
149.64575 -446.71887 -528.22266 4294966768
317.4588 -442.5466 -528.1925 4294966768
319.76419 -440.1608 -528.08081 4294966768
311.56833 -435.3176 -528.65698 4294966768
313.57742 -436.50439 -528.93762 4294966768
277.58939 -432.18335 -528.9942 4294966768
281.98639 -432.73126 -528.79761 4294966768
286.47229 -433.18079 -528.13861 4294966768
293.79114 -434.09521 -528.85663 4294966768
294.42725 -433.8916 -528.31458 4294966768
297.80618 -434.6062 -528.79364 4294966768
233.35214 -429.80087 -528.57196 4294966768
237.23306 -430.03201 -528.75201 4294966768
241.64044 -430.23895 -528.8064 4294966768
245.25154 -430.39014 -528.72906 4294966768
249.41692 -430.64603 -528.77722 4294966768
253.36081 -430.94107 -528.74341 4294966768
259.61362 -431.19144 -528.90863 4294966768
177.19215 -426.26807 -528.18652 4294966768
179.81482 -426.50128 -528.03943 4294966768
183.6097 -426.7648 -528.06519 4294966768
187.62839 -426.96396 -528.20746 4294966768
189.42529 -427.04254 -528.28442 4294966768
191.46759 -427.14752 -528.26593 4294966768
193.17705 -427.23364 -528.3161 4294966768
197.36064 -427.49908 -528.37433 4294966768
199.36731 -427.64969 -528.13135 4294966768
201.4906 -427.78662 -528.14215 4294966768
213.36737 -428.52307 -528.63745 4294966768
139.00241 -423.52039 -528.46051 4294966768
147.06502 -424.1911 -528.11377 4294966768
167.45105 -425.48196 -528.13104 4294966768
169.50348 -425.62024 -528.26971 4294966768
171.28792 -425.76367 -528.09735 4294966768
173.38498 -425.93109 -528.08478 4294966768
283.28778 -456.31555 -527.0354 4294966769
290.16943 -456.37131 -527.10089 4294966769
292.26254 -456.51535 -527.77179 4294966769
293.73077 -456.62015 -527.81519 4294966769
295.76254 -456.66373 -527.27216 4294966769
298.53583 -456.78363 -527.39764 4294966769
300.80585 -457.10196 -527.26166 4294966769
302.99756 -457.30408 -527.32422 4294966769
305.44391 -457.79889 -527.21106 4294966769
309.43961 -457.00586 -527.58337 4294966769
311.35806 -456.88617 -527.21344 4294966769
313.59201 -456.03986 -527.37146 4294966769
311.56454 -455.76587 -527.95447 4294966769
315.52518 -454.41888 -527.33691 4294966769
201.81018 -450.20856 -527.66803 4294966769
203.74828 -450.48209 -527.87408 4294966769
205.48158 -450.45462 -527.78937 4294966769
207.49054 -450.57205 -527.95825 4294966769
153.55873 -447.10376 -527.85449 4294966769
163.29126 -447.55789 -527.9668 4294966769
165.45085 -447.65747 -527.96326 4294966769
167.43896 -447.76291 -527.63477 4294966769
169.31821 -447.89212 -527.93549 4294966769
171.48445 -448.05853 -527.8703 4294966769
177.72681 -448.52945 -527.81201 4294966769
179.50819 -448.65137 -527.79401 4294966769
183.35435 -448.90167 -527.89185 4294966769
185.37027 -449.04904 -527.87927 4294966769
187.53815 -449.15817 -527.68768 4294966769
189.45091 -449.29056 -527.85376 4294966769
193.62125 -449.4277 -527.63745 4294966769
197.68416 -449.698 -527.60291 4294966769
129.40176 -445.17749 -527.87476 4294966769
133.17577 -445.52087 -527.93872 4294966769
137.37895 -445.83612 -527.48834 4294966769
139.62445 -445.91827 -527.93298 4294966769
141.52386 -446.12173 -527.98425 4294966769
315.23734 -435.41602 -527.78088 4294966769
317.3916 -435.32367 -527.03992 4294966769
283.19684 -432.77902 -527.20453 4294966769
289.29828 -433.32614 -527.35822 4294966769
292.83838 -433.6629 -527.65009 4294966769
295.70917 -433.88147 -527.73529 4294966769
297.96011 -433.95847 -527.34485 4294966769
300.23215 -434.21915 -527.30505 4294966769
303.40616 -434.49826 -527.85443 4294966769
305.62039 -433.86447 -527.79706 4294966769
309.66196 -434.15466 -527.93414 4294966769
313.41266 -434.46005 -527.31641 4294966769
207.49612 -428.17966 -527.94427 4294966769
131.34917 -423.06506 -527.74268 4294966769
133.82718 -423.22391 -527.89996 4294966769
135.31387 -423.31998 -527.73346 4294966769
141.48195 -423.79477 -527.68787 4294966769
143.33163 -423.95129 -527.65594 4294966769
145.47897 -424.10092 -527.90869 4294966769
149.44444 -424.37421 -527.65479 4294966769
151.5072 -424.49588 -527.8808 4294966769
153.30698 -424.60648 -527.90332 4294966769
163.09753 -425.23325 -527.97095 4294966769
125.14938 -422.66318 -527.71204 4294966769
129.40799 -422.93262 -527.74237 4294966769
264.3793 -457.07507 -526.68103 4294966770
265.14114 -456.07666 -526.2168 4294966770
281.37766 -456.10968 -526.71661 4294966770
286.32242 -456.25473 -526.50708 4294966770
293.34155 -456.70026 -526.30145 4294966770
313.51239 -457.17441 -526.43323 4294966770
315.29993 -456.12039 -526.75311 4294966770
317.61432 -456.1456 -526.02582 4294966770
245.32457 -453.43744 -526.02167 4294966770
259.39182 -455.12341 -526.39166 4294966770
261.70422 -455.84177 -526.59094 4294966770
266.89926 -455.86621 -526.08624 4294966770
277.22034 -455.71695 -526.60876 4294966770
279.59464 -455.84055 -526.54462 4294966770
319.38705 -454.43988 -526.12634 4294966770
237.3139 -452.98276 -526.03467 4294966770
199.28235 -449.79147 -526.98285 4294966770
125.53358 -445.47269 -526.02448 4294966770
127.59576 -445.42291 -526.13159 4294966770
321.64362 -442.90866 -526.84497 4294966770
323.62244 -440.2283 -526.83221 4294966770
326.06427 -439.42938 -526.18439 4294966770
323.43234 -436.95544 -526.203 4294966770
273.29404 -432.11249 -526.72131 4294966770
277.34738 -432.40765 -526.84283 4294966770
281.21933 -432.59906 -526.76422 4294966770
285.04263 -432.90225 -526.61469 4294966770
287.18744 -432.92133 -526.02051 4294966770
311.72537 -433.85284 -526.1073 4294966770
235.27637 -429.90375 -526.01923 4294966770
241.50623 -430.42331 -526.12073 4294966770
245.39032 -430.5148 -526.50824 4294966770
247.58513 -430.62701 -526.56409 4294966770
251.41518 -430.91101 -526.51709 4294966770
255.31523 -431.21179 -526.60242 4294966770
257.35034 -431.36353 -526.35486 4294966770
259.54434 -431.42065 -526.58649 4294966770
261.58292 -431.51236 -526.61945 4294966770
213.27803 -428.5676 -526.00299 4294966770
215.57513 -428.71692 -526.03259 4294966770
263.46594 -456.04263 -525.26599 4294966771
299.95242 -457.22791 -525.1181 4294966771
301.85678 -457.90512 -525.78497 4294966771
303.91241 -458.03427 -525.85571 4294966771
305.75775 -457.8927 -525.24817 4294966771
307.63956 -457.90933 -525.72577 4294966771
309.77377 -457.91608 -525.61279 4294966771
311.1832 -457.9176 -525.45941 4294966771
313.67386 -457.99176 -525.10663 4294966771
315.28815 -457.49002 -525.66754 4294966771
317.29172 -457.55008 -525.07947 4294966771
319.44528 -456.31839 -525.3429 4294966771
247.37241 -453.55347 -525.85614 4294966771
253.31679 -453.99265 -525.91357 4294966771
261.67209 -455.99237 -525.0683 4294966771
269.05389 -455.46573 -525.78088 4294966771
273.63907 -455.23688 -525.95374 4294966771
321.51147 -454.50641 -525.32013 4294966771
197.60768 -450.01611 -525.6662 4294966771
199.47937 -450.18759 -525.63574 4294966771
201.38164 -450.29044 -525.8255 4294966771
207.11203 -450.46414 -525.82513 4294966771
209.05217 -450.68561 -525.70654 4294966771
211.04591 -450.936 -525.85547 4294966771
215.61591 -451.68808 -525.81012 4294966771
217.85303 -452.03986 -525.19562 4294966771
225.61786 -452.13385 -525.52661 4294966771
229.32385 -452.43842 -525.50415 4294966771
231.37247 -452.64886 -525.81989 4294966771
233.73936 -452.83133 -525.64484 4294966771
234.99323 -452.88605 -525.81799 4294966771
321.4874 -451.72845 -525.5304 4294966771
147.37849 -447.05212 -525.72864 4294966771
149.45839 -447.16412 -525.71265 4294966771
151.33467 -447.52365 -525.78827 4294966771
153.29202 -447.70255 -525.89581 4294966771
155.67322 -448.04886 -525.65094 4294966771
157.24013 -448.13168 -525.76056 4294966771
159.7361 -448.24301 -525.6781 4294966771
165.62875 -448.07678 -525.72571 4294966771
167.39493 -448.29346 -525.65582 4294966771
169.35205 -448.34424 -525.83142 4294966771
179.23792 -449.00134 -525.75348 4294966771
181.75299 -449.13828 -525.586 4294966771
187.51674 -449.46857 -525.4364 4294966771
191.60172 -449.70068 -525.50879 4294966771
131.50569 -445.85138 -525.88629 4294966771
135.39642 -446.12421 -525.75909 4294966771
137.44312 -446.24265 -525.72479 4294966771
139.56 -446.47818 -525.68121 4294966771
141.44426 -446.66159 -525.66699 4294966771
145.40855 -446.8717 -525.85126 4294966771
325.42975 -444.97751 -525.00177 4294966771
325.59961 -442.23938 -525.69537 4294966771
321.49567 -435.47839 -525.71301 4294966771
323.3826 -435.64078 -525.40662 4294966771
327.53156 -437.96271 -525.43994 4294966771
291.89297 -433.01135 -525.19977 4294966771
294.49838 -433.15555 -525.12134 4294966771
297.6557 -433.47003 -525.32532 4294966771
302.83752 -433.80685 -525.17651 4294966771
305.66785 -433.42615 -525.84631 4294966771
307.76996 -433.71603 -525.99377 4294966771
237.29604 -430.22333 -525.79437 4294966771
239.05414 -430.36771 -525.58954 4294966771
180.11949 -426.06778 -525.99976 4294966771
181.60837 -426.18689 -525.78546 4294966771
187.6241 -426.65521 -525.96704 4294966771
189.60699 -426.72955 -525.67133 4294966771
193.19327 -427.09885 -525.63293 4294966771
197.34673 -427.40387 -525.92627 4294966771
199.46779 -427.41272 -525.61749 4294966771
203.36128 -427.86407 -525.6402 4294966771
207.50922 -428.03094 -525.70319 4294966771
139.74864 -423.22217 -525.3504 4294966771
141.44344 -423.28073 -525.54987 4294966771
143.53989 -423.43735 -525.51807 4294966771
147.23781 -423.84042 -525.58459 4294966771
149.38185 -423.8598 -525.68823 4294966771
151.7076 -424.15247 -525.66193 4294966771
159.34489 -424.76752 -525.67322 4294966771
161.18617 -424.89944 -525.67322 4294966771
165.48557 -424.95886 -525.69855 4294966771
167.34015 -425.09064 -525.66016 4294966771
169.31366 -425.21997 -525.78571 4294966771
172.98677 -425.61102 -525.86896 4294966771
175.38913 -425.79169 -525.84039 4294966771
177.36626 -425.99503 -525.9895 4294966771
129.72209 -422.16928 -525.1579 4294966771
131.3647 -422.60767 -525.29175 4294966771
133.87321 -422.92316 -525.6521 4294966771
135.05624 -422.82956 -525.6441 4294966771
264.12454 -456.49814 -524.14661 4294966772
289.36829 -456.38638 -524.83643 4294966772
292.1088 -456.56421 -524.49463 4294966772
294.01395 -456.70825 -524.4115 4294966772
295.59671 -456.79169 -524.56415 4294966772
297.80173 -456.95621 -524.88623 4294966772
319.21518 -457.4664 -524.60858 4294966772
321.59607 -456.2991 -524.62744 4294966772
241.71017 -453.31198 -524.02783 4294966772
266.85587 -455.76416 -524.09821 4294966772
323.71295 -454.59961 -524.53668 4294966772
193.39079 -450.18124 -524.62372 4294966772
195.32259 -450.28317 -524.62146 4294966772
199.47824 -450.60202 -524.58911 4294966772
203.31049 -450.44836 -524.76044 4294966772
207.31682 -450.92828 -524.36084 4294966772
213.13826 -451.73254 -524.31915 4294966772
219.44963 -452.20627 -524.65564 4294966772
221.26387 -452.17572 -524.71655 4294966772
223.18469 -452.1767 -524.73669 4294966772
325.53738 -451.29001 -524.06116 4294966772
135.12868 -447.10245 -524.46008 4294966772
139.5056 -447.4342 -524.3949 4294966772
153.28059 -449.07056 -524.05957 4294966772
163.64513 -448.74652 -524.40417 4294966772
171.313 -449.47763 -524.00745 4294966772
175.29434 -449.1601 -524.71771 4294966772
179.40161 -449.50592 -524.61237 4294966772
181.65874 -449.55368 -524.53516 4294966772
183.4444 -449.56973 -524.64691 4294966772
185.2054 -449.70047 -524.50391 4294966772
187.26128 -449.80585 -524.39301 4294966772
189.33661 -449.9325 -524.59058 4294966772
191.23589 -449.90765 -524.82751 4294966772
325.50439 -449.34155 -524.24072 4294966772
129.29088 -446.67944 -524.29956 4294966772
131.48241 -446.80609 -524.30792 4294966772
133.42618 -446.98148 -524.49359 4294966772
327.41095 -442.47485 -524.96124 4294966772
329.77127 -442.33224 -524.1015 4294966772
329.91803 -439.09207 -524.68512 4294966772
273.34485 -432.05188 -524.3468 4294966772
275.54187 -432.15341 -524.52118 4294966772
279.39615 -432.4704 -524.5025 4294966772
281.46167 -432.62042 -524.26306 4294966772
283.57751 -432.77252 -524.37793 4294966772
285.51184 -432.88416 -524.40857 4294966772
300.3284 -433.64636 -524.60529 4294966772
313.7536 -433.88443 -524.87738 4294966772
319.50122 -434.23526 -524.08844 4294966772
235.40883 -429.43301 -524.05908 4294966772
241.58424 -430.01849 -524.03497 4294966772
245.42168 -430.18097 -524.58716 4294966772
247.98012 -430.29745 -524.62012 4294966772
249.67932 -430.47659 -524.66705 4294966772
251.42603 -430.59448 -524.37152 4294966772
253.63896 -430.85175 -524.19092 4294966772
259.39551 -431.16995 -524.03687 4294966772
261.40692 -431.32715 -524.25928 4294966772
263.40421 -431.41559 -524.18427 4294966772
267.13367 -431.70694 -524.74274 4294966772
189.48022 -426.18738 -524.12445 4294966772
191.24707 -426.28226 -524.02832 4294966772
199.89584 -426.99103 -524.05536 4294966772
211.31178 -427.77353 -524.01306 4294966772
146.27997 -423.02234 -524.29156 4294966772
149.3441 -423.21054 -524.22797 4294966772
155.60243 -423.71185 -524.47644 4294966772
159.40363 -423.9722 -524.27832 4294966772
161.1167 -424.07941 -524.18158 4294966772
163.33461 -424.40494 -524.17432 4294966772
165.69939 -424.37769 -524.14008 4294966772
167.1503 -424.44943 -524.1037 4294966772
169.24599 -424.58118 -524.1601 4294966772
171.20905 -424.79523 -524.45862 4294966772
173.40674 -425.00659 -524.2981 4294966772
177.29272 -425.4252 -524.59613 4294966772
180.63599 -425.49374 -524.3335 4294966772
183.47107 -425.71851 -524.23358 4294966772
185.58682 -425.97552 -524.38226 4294966772
187.5752 -425.99307 -524.0921 4294966772
123.04351 -421.33508 -524.42969 4294966772
126.77732 -421.56998 -524.35938 4294966772
134.93268 -422.19638 -524.22455 4294966772
137.13615 -422.3736 -524.25238 4294966772
139.31082 -422.51239 -524.1795 4294966772
141.81883 -422.76297 -524.32013 4294966772
143.71251 -422.86243 -524.25348 4294966772
263.11505 -456.5318 -523.8877 4294966773
287.48361 -456.1727 -523.84698 4294966773
303.81073 -457.75833 -523.14886 4294966773
307.66476 -458.17468 -523.29694 4294966773
309.64417 -458.12811 -523.75385 4294966773
311.74609 -458.4086 -523.91315 4294966773
313.87823 -458.2912 -523.74261 4294966773
315.30505 -458.31274 -523.72491 4294966773
317.40134 -458.46091 -523.12274 4294966773
319.36072 -458.45956 -523.06 4294966773
321.41962 -457.80667 -523.56653 4294966773
323.62552 -456.17975 -523.94781 4294966773
325.30728 -456.26831 -523.35315 4294966773
229.51431 -453.10489 -523.60986 4294966773
231.45013 -453.24179 -523.55231 4294966773
233.36267 -453.33832 -523.53778 4294966773
237.26086 -453.24237 -523.9115 4294966773
253.16504 -454.45087 -523.81891 4294966773
255.70352 -454.54465 -523.91766 4294966773
269.11859 -455.76221 -523.28571 4294966773
271.07446 -455.20926 -523.29913 4294966773
