# .PCD v0.7 - Point Cloud Data file format
VERSION 0.7
FIELDS x y z rgba
SIZE 4 4 4 4
TYPE F F F U
COUNT 1 1 1 1
WIDTH 1147
HEIGHT 1
VIEWPOINT 0 0 0 1 0 0 0
POINTS 1147
DATA ascii
359.25391 364.82217 -48.70842 4294967248
354.80719 367.72672 -48.371117 4294967248
353.59564 369.92947 -48.196869 4294967248
355.45187 331.72821 -47.8452 4294967249
353.29282 333.74149 -47.019756 4294967249
355.79367 335.16711 -47.1744 4294967249
357.42386 335.7644 -47.216736 4294967249
383.80502 335.56396 -47.00528 4294967249
387.21817 335.32709 -47.803543 4294967249
390.12286 335.36011 -47.829594 4294967249
359.31537 336.522 -47.193535 4294967249
365.50153 337.63513 -47.049282 4294967249
371.34781 337.39487 -47.910728 4294967249
373.24094 337.16205 -47.528275 4294967249
375.28003 336.83926 -47.038918 4294967249
395.11459 336.27209 -47.255672 4294967249
397.64743 338.19449 -47.162064 4294967249
398.68665 339.27765 -47.335182 4294967249
399.54385 341.16711 -47.610298 4294967249
399.15353 343.87271 -47.050323 4294967249
399.22507 347.43671 -47.123405 4294967249
399.13983 350.97757 -47.777195 4294967249
397.24231 352.9422 -47.033001 4294967249
394.12766 358.19632 -47.942589 4294967249
365.13712 362.93304 -47.704823 4294967249
367.14929 362.66724 -47.417496 4294967249
368.99637 362.56396 -47.936298 4294967249
373.32657 362.45224 -47.173927 4294967249
377.71881 362.44327 -47.12072 4294967249
355.53891 365.29047 -47.234138 4294967249
357.90271 364.68747 -47.665905 4294967249
360.93994 363.5123 -47.398899 4294967249
363.60886 363.21927 -47.87714 4294967249
350.91284 367.92926 -47.148079 4294967249
353.10773 366.14755 -47.056942 4294967249
351.19797 369.88684 -47.461155 4294967249
351.37088 372.43524 -47.246147 4294967249
351.62982 334.42178 -46.440178 4294967250
381.03555 335.94974 -46.770935 4294967250
385.26141 335.58612 -46.194668 4294967250
361.3576 337.26764 -46.803059 4294967250
363.90106 337.68509 -46.578407 4294967250
392.83536 336.55267 -46.005268 4294967250
396.27438 337.62671 -46.714165 4294967250
394.34427 356.78259 -46.764862 4294967250
395.19952 354.51294 -46.087158 4294967250
390.12759 359.77292 -46.0382 4294967250
392.42395 357.89001 -46.005466 4294967250
378.72073 362.63794 -46.164455 4294967250
381.77206 362.57446 -46.851391 4294967250
347.95038 367.59979 -46.410034 4294967250
347.90536 369.76373 -46.683838 4294967250
349.04367 369.73645 -46.92503 4294967250
347.39584 372.55432 -46.269852 4294967250
349.99805 372.23965 -46.927639 4294967250
350.91739 374.81213 -46.887276 4294967250
345.17804 333.93048 -45.09544 4294967251
346.99255 334.04385 -45.494591 4294967251
347.93829 335.7702 -45.239128 4294967251
387.5481 335.62311 -45.712364 4294967251
389.12967 335.97662 -45.04248 4294967251
353.22479 336.78445 -45.717735 4294967251
355.31485 337.1192 -45.576012 4294967251
359.46375 337.60867 -45.663033 4294967251
361.70972 337.91965 -45.154018 4294967251
367.01099 338.00201 -45.558907 4294967251
370.90378 337.47577 -45.160431 4294967251
390.67072 336.37305 -45.052036 4294967251
394.88318 337.73718 -45.897564 4294967251
396.63977 340.49371 -45.736301 4294967251
397.49866 349.21878 -45.963257 4294967251
395.65167 351.23401 -45.014416 4294967251
363.12329 362.98892 -45.551949 4294967251
367.31708 362.85956 -45.163284 4294967251
371.36795 362.77979 -45.151295 4294967251
387.40268 361.27637 -45.965904 4294967251
352.98221 364.77579 -45.425457 4294967251
354.92661 364.11853 -45.117371 4294967251
357.90012 363.83875 -45.846592 4294967251
349.24002 366.19507 -45.916084 4294967251
340.81555 370.32443 -45.101624 4294967251
339.91052 333.72702 -44.124088 4294967252
343.35452 333.88007 -44.7784 4294967252
381.95749 335.96304 -44.384892 4294967252
341.61346 336.14746 -44.293896 4294967252
345.25034 336.74216 -44.346584 4294967252
347.5336 337.24893 -44.390045 4294967252
349.25204 337.43365 -44.716705 4294967252
351.34772 337.84668 -44.583622 4294967252
357.27371 337.65781 -44.925365 4294967252
373.84207 336.96509 -44.884346 4294967252
377.18521 336.42969 -44.666374 4294967252
393.74515 338.77676 -44.466885 4294967252
395.65768 347.70563 -44.248093 4294967252
393.77649 352.96979 -44.072758 4294967252
393.26273 355.58847 -44.963001 4294967252
390.73468 358.22296 -44.4622 4294967252
373.38239 362.80392 -44.746563 4294967252
375.29199 362.82993 -44.618233 4294967252
377.41193 362.77545 -44.772961 4294967252
382.11899 362.94022 -44.277515 4294967252
388.53314 360.38693 -44.481712 4294967252
347.4227 365.3053 -44.452351 4294967252
335.18387 367.91504 -44.117687 4294967252
336.39038 368.49695 -44.393909 4294967252
339.45279 367.82825 -44.575863 4294967252
340.38104 368.561 -44.838314 4294967252
307.58176 371.18762 -44.079651 4294967252
309.02155 371.38129 -44.165146 4294967252
311.31354 371.57724 -44.279037 4294967252
325.48236 369.37027 -44.254681 4294967252
327.52097 370.47989 -44.298935 4294967252
329.1723 371.90271 -44.624554 4294967252
331.2756 370.46802 -44.445385 4294967252
332.91989 369.81375 -44.398567 4294967252
334.95071 371.7164 -44.717693 4294967252
335.32419 369.5282 -44.528416 4294967252
337.15695 370.05164 -44.708317 4294967252
333.34296 373.3858 -44.500633 4294967252
338.6221 372.72278 -44.816147 4294967252
336.89551 334.94785 -43.584282 4294967253
337.62186 336.99176 -43.701183 4294967253
339.41965 338.25613 -43.192204 4294967253
343.53168 337.18631 -43.8661 4294967253
344.96536 338.1514 -43.337742 4294967253
349.74487 338.66495 -43.333519 4294967253
352.69641 338.66974 -43.205231 4294967253
357.07364 338.4194 -43.404209 4294967253
359.38702 338.46237 -43.120068 4294967253
361.58969 338.44382 -43.429848 4294967253
363.47427 338.40515 -43.623623 4294967253
385.58652 336.13977 -43.492447 4294967253
387.82413 336.20483 -43.847031 4294967253
391.70605 337.75272 -43.821552 4294967253
393.85458 341.38535 -43.346737 4294967253
395.15305 344.14783 -43.842659 4294967253
393.93146 349.95047 -43.259113 4294967253
391.74481 355.50397 -43.565235 4294967253
389.11331 359.12317 -43.401966 4294967253
390.14133 357.46835 -43.132729 4294967253
385.09351 362.0777 -43.733639 4294967253
337.42087 365.96286 -43.018875 4294967253
351.89243 364.25513 -43.754074 4294967253
354.68311 363.71378 -43.486897 4294967253
357.6904 363.37653 -43.918354 4294967253
358.88824 363.24689 -43.828342 4294967253
361.29736 363.25058 -43.297546 4294967253
363.99008 363.25089 -43.028702 4294967253
307.13724 368.42212 -43.071442 4294967253
312.89099 368.86386 -43.544575 4294967253
318.02231 368.53632 -43.636539 4294967253
323.3457 368.53555 -43.680416 4294967253
327.83755 368.38638 -43.707909 4294967253
329.35556 367.37268 -43.204327 4294967253
331.07437 368.21735 -43.861465 4294967253
333.8605 367.75684 -43.910854 4294967253
335.34854 366.85583 -43.573555 4294967253
279.82968 371.76974 -43.060913 4294967253
283.28079 371.48956 -43.273056 4294967253
285.81259 371.82892 -43.398232 4294967253
286.52359 371.52707 -43.310421 4294967253
291.55017 370.98108 -43.259674 4294967253
293.18854 370.27051 -43.03558 4294967253
295.10742 371.81567 -43.644962 4294967253
297.75592 370.125 -43.049072 4294967253
299.6842 370.59573 -43.322128 4294967253
301.13257 371.50909 -43.813332 4294967253
303.06299 371.59894 -43.923119 4294967253
305.38208 370.48907 -43.71225 4294967253
309.24512 369.47919 -43.805187 4294967253
313.84512 369.8168 -43.8596 4294967253
273.36414 373.02847 -43.327705 4294967253
275.49857 373.49084 -43.437492 4294967253
276.83704 372.04047 -43.015327 4294967253
279.30371 373.30576 -43.484253 4294967253
281.30368 373.89056 -43.525974 4294967253
285.44119 373.68665 -43.617764 4294967253
287.17044 373.71878 -43.62117 4294967253
289.8981 373.99084 -43.584126 4294967253
290.92413 373.5058 -43.651726 4294967253
295.65594 373.91141 -43.758198 4294967253
296.84979 374.01569 -43.730083 4294967253
299.64017 373.79422 -43.829327 4294967253
301.34052 374.37451 -43.822113 4294967253
303.55164 373.86334 -43.867336 4294967253
253.53284 375.00729 -43.078796 4294967253
255.61865 375.95703 -43.094627 4294967253
257.95068 375.65054 -43.124332 4294967253
381.9642 335.72543 -42.399651 4294967254
309.61026 338.43536 -42.563416 4294967254
315.33737 338.5798 -42.631985 4294967254
317.44971 338.008 -42.496891 4294967254
319.29504 338.08044 -42.553036 4294967254
323.69333 338.54477 -42.301853 4294967254
325.28531 338.55319 -42.302158 4294967254
327.94345 338.5683 -42.307529 4294967254
329.44211 336.85254 -42.552055 4294967254
331.74509 337.29053 -42.724083 4294967254
332.0144 338.67914 -42.621868 4294967254
333.62057 338.0997 -42.822071 4294967254
341.07217 338.80127 -42.574066 4294967254
343.45078 338.77234 -42.524193 4294967254
387.28281 336.92096 -42.250729 4294967254
389.44427 337.30579 -42.967415 4294967254
390.89474 338.54785 -42.571198 4294967254
289.55487 340.49829 -42.335045 4294967254
295.81198 341.34088 -42.318638 4294967254
297.66507 341.52832 -42.217663 4294967254
307.99994 339.14319 -42.441841 4294967254
311.56375 339.92157 -42.26112 4294967254
312.85898 340.00128 -42.233261 4294967254
317.82669 339.53079 -42.238636 4294967254
322.32193 339.2186 -42.159462 4294967254
323.25421 339.4458 -42.058071 4294967254
326.18613 339.05203 -42.09613 4294967254
329.53085 339.24161 -42.279053 4294967254
331.3157 340.20282 -42.013573 4294967254
336.62479 339.51132 -42.445854 4294967254
392.10663 339.62665 -42.752808 4294967254
393.07672 344.112 -42.19791 4294967254
393.76508 346.85846 -42.656509 4294967254
392.10342 351.88022 -42.35339 4294967254
390.29315 355.79947 -42.320938 4294967254
386.92032 360.71927 -42.591602 4294967254
338.63724 365.57114 -42.875698 4294967254
367.42465 363.23557 -42.920757 4294967254
377.44083 363.19852 -42.088493 4294967254
297.54877 368.94431 -42.419495 4294967254
301.10281 368.70261 -42.577393 4294967254
303.5715 368.82678 -42.865387 4294967254
305.20734 368.4183 -42.694103 4294967254
309.52902 368.22409 -42.892769 4294967254
314.5209 367.33118 -42.166813 4294967254
318.83154 367.35397 -42.726494 4294967254
322.24136 367.36685 -42.854351 4294967254
324.5687 367.25516 -42.796715 4294967254
330.65784 366.82397 -42.866985 4294967254
333.2381 366.51788 -42.931053 4294967254
252.29488 371.85773 -42.081291 4294967254
269.76389 371.51389 -42.659184 4294967254
273.43387 370.66214 -42.357903 4294967254
275.48486 371.78406 -42.937099 4294967254
276.6972 370.47421 -42.389736 4294967254
280.2916 371.03662 -42.762207 4294967254
281.45203 370.56915 -42.567097 4294967254
286.95273 370.45938 -42.739334 4294967254
294.7587 370.20242 -42.964298 4294967254
231.5856 374.56192 -42.081455 4294967254
243.2627 373.87564 -42.408825 4294967254
244.80525 374.69452 -42.655849 4294967254
245.32219 373.47241 -42.538647 4294967254
247.54514 373.75787 -42.567406 4294967254
249.27103 373.54034 -42.470558 4294967254
250.46921 374.80899 -42.780315 4294967254
253.43248 372.56876 -42.371273 4294967254
255.52347 372.90265 -42.480164 4294967254
256.88889 372.48022 -42.41161 4294967254
259.37976 373.02417 -42.612823 4294967254
261.26105 373.11392 -42.636559 4294967254
265.10092 372.91147 -42.892899 4294967254
271.02002 372.22849 -42.852245 4294967254
215.25006 377.01242 -42.669655 4294967254
217.21835 376.26956 -42.233513 4294967254
218.72972 377.88461 -42.699844 4294967254
221.50426 377.33759 -42.560417 4294967254
223.30725 376.755 -42.483406 4294967254
225.44138 377.72443 -42.61866 4294967254
227.20796 376.76221 -42.497375 4294967254
229.57904 377.80753 -42.665764 4294967254
233.46721 375.65811 -42.457859 4294967254
235.17589 377.85602 -42.821609 4294967254
237.27863 375.66977 -42.545399 4294967254
239.44849 375.7543 -42.663757 4294967254
241.1288 375.71176 -42.89093 4294967254
243.34837 375.76129 -42.730373 4294967254
231.21317 378.04526 -42.778366 4294967254
354.81128 338.97562 -41.454044 4294967255
357.69107 338.73862 -41.404819 4294967255
360.97214 338.54889 -41.058769 4294967255
383.43842 336.32169 -41.603966 4294967255
235.11119 341.9472 -41.09053 4294967255
279.49011 340.89816 -41.7696 4294967255
291.72424 341.72601 -41.927586 4294967255
306.83887 341.21594 -41.721123 4294967255
309.01407 341.06223 -41.773067 4294967255
311.58157 341.36789 -41.909203 4294967255
313.38589 341.04785 -41.818489 4294967255
317.57672 341.73996 -41.14954 4294967255
321.47876 340.86893 -41.300846 4294967255
323.37405 340.883 -41.121403 4294967255
325.52988 340.77917 -41.130863 4294967255
327.60928 340.65414 -41.217632 4294967255
329.46063 340.22754 -41.899467 4294967255
339.73221 340.01373 -41.198353 4294967255
341.793 339.56665 -41.325291 4294967255
345.43542 339.41714 -41.582279 4294967255
348.44034 339.53699 -41.302521 4294967255
351.2406 339.32458 -41.632622 4294967255
390.05457 339.72614 -41.368427 4294967255
391.71384 341.91168 -41.57394 4294967255
215.27679 343.89337 -41.014629 4294967255
217.29689 343.79358 -41.035515 4294967255
219.75246 343.63474 -41.088108 4294967255
223.172 344.0553 -41.260201 4294967255
228.44926 343.8902 -41.360004 4294967255
231.44646 344.14703 -41.224564 4294967255
233.8279 344.08438 -41.217598 4294967255
235.32306 344.17047 -41.232773 4294967255
237.66951 344.39645 -41.218651 4294967255
240.811 342.34235 -41.383636 4294967255
243.37511 343.96725 -41.212864 4294967255
247.77448 344.04752 -41.352776 4294967255
255.62675 344.02548 -41.583614 4294967255
259.65887 343.88196 -41.363605 4294967255
261.34528 343.36084 -41.406754 4294967255
276.71619 342.39096 -41.145607 4294967255
283.26962 342.92166 -41.460922 4294967255
285.3132 342.75275 -41.399403 4294967255
293.70078 342.06488 -41.844574 4294967255
295.36948 342.8624 -41.14138 4294967255
207.86337 346.24417 -41.132118 4294967255
213.81076 346.86655 -41.177242 4294967255
217.3528 345.93112 -41.034138 4294967255
223.75471 346.22302 -41.198425 4294967255
228.16403 345.7229 -41.341648 4294967255
231.63829 346.10226 -41.029354 4294967255
246.24991 345.1604 -41.002796 4294967255
251.30318 345.07288 -41.351177 4294967255
391.94626 346.52896 -41.301182 4294967255
392.13977 349.12924 -41.730972 4294967255
390.39764 353.62674 -41.562424 4294967255
387.6929 359.12497 -41.604275 4294967255
388.76428 357.48349 -41.718552 4294967255
383.85455 362.82599 -41.838135 4294967255
384.98508 361.85898 -41.524139 4294967255
329.50571 365.93723 -41.278984 4294967255
330.68362 365.74161 -41.021873 4294967255
334.63513 365.53036 -41.671127 4294967255
340.52124 364.95215 -41.456821 4294967255
347.0784 364.41287 -41.983021 4294967255
348.57248 364.23395 -41.786942 4294967255
351.52145 363.92175 -41.692745 4294967255
353.05634 363.80197 -41.587219 4294967255
355.30435 363.61716 -41.626522 4294967255
357.74689 363.62411 -41.166958 4294967255
359.30826 363.61127 -41.017391 4294967255
363.72934 363.54642 -41.020908 4294967255
379.70621 363.25903 -41.745811 4294967255
285.18567 368.99408 -41.24649 4294967255
290.0972 368.86487 -41.772419 4294967255
293.04337 368.71057 -41.949387 4294967255
296.22705 368.33847 -41.653362 4294967255
297.52838 367.79358 -41.186577 4294967255
299.4747 367.75394 -41.390144 4294967255
303.4086 367.55792 -41.198463 4294967255
305.12628 367.45724 -41.217785 4294967255
307.44501 367.39444 -41.441166 4294967255
309.10602 367.23233 -41.272011 4294967255
311.55804 366.92651 -41.278404 4294967255
314.86755 366.65536 -41.058647 4294967255
317.53836 366.51569 -41.298286 4294967255
319.37161 366.50018 -41.065624 4294967255
322.05115 366.50577 -41.497242 4294967255
326.02127 366.15381 -41.220322 4294967255
243.90402 371.85254 -41.185093 4294967255
245.8199 371.59387 -41.514751 4294967255
248.4198 371.40015 -41.362183 4294967255
251.52492 371.22931 -41.671551 4294967255
255.11591 371.04343 -41.364635 4294967255
259.02881 371.37656 -41.966194 4294967255
261.41855 370.42514 -41.594875 4294967255
269.6734 369.76694 -41.113499 4294967255
274.44977 369.49567 -41.120266 4294967255
277.77551 369.64856 -41.499088 4294967255
283.67795 369.33881 -41.733692 4294967255
211.54021 374.74561 -41.298706 4294967255
213.35568 374.68326 -41.258049 4294967255
219.53635 374.08017 -41.159725 4294967255
221.1989 374.18896 -41.396496 4294967255
222.62801 374.75336 -41.932228 4294967255
227.69907 374.36862 -41.893391 4294967255
231.23688 373.37994 -41.382908 4294967255
234.76086 374.06216 -41.889286 4294967255
235.62338 372.8103 -41.072964 4294967255
237.19241 373.53049 -41.842464 4294967255
240.19179 373.12482 -41.694256 4294967255
241.36011 372.88477 -41.723618 4294967255
216.56166 375.23776 -41.784798 4294967255
220.30249 375.15121 -41.987545 4294967255
377.67398 336.33353 -40.034187 4294967256
385.55072 337.38498 -40.600376 4294967256
387.80743 338.49313 -40.790642 4294967256
319.15134 341.72772 -40.54744 4294967256
325.38034 341.44766 -40.00795 4294967256
333.11523 341.07877 -40.016075 4294967256
335.56104 340.8287 -40.199486 4294967256
336.99127 340.34564 -40.870735 4294967256
345.20065 339.96906 -40.145027 4294967256
389.9841 341.78204 -40.421108 4294967256
208.7066 344.91055 -40.905209 4294967256
213.59109 343.65656 -40.91404 4294967256
273.48193 343.08096 -40.88834 4294967256
276.04822 343.54111 -40.577248 4294967256
281.82101 343.54874 -40.957466 4294967256
290.19489 343.18018 -40.644539 4294967256
291.65106 342.98386 -40.855083 4294967256
299.53906 342.69058 -40.990231 4294967256
301.28293 342.81516 -40.268475 4294967256
303.62854 342.49438 -40.697773 4294967256
306.65625 342.34543 -40.356487 4294967256
311.47693 342.44986 -40.139637 4294967256
316.01251 342.05963 -40.573109 4294967256
390.62482 342.88507 -40.544792 4294967256
391.23962 344.26697 -40.846378 4294967256
201.28175 345.95709 -40.937805 4294967256
203.6395 346.19662 -40.857391 4294967256
205.18936 345.98175 -40.918205 4294967256
211.9225 347.95935 -40.852062 4294967256
212.43329 347.1915 -40.916775 4294967256
215.54099 346.67532 -40.961452 4294967256
217.35553 347.73233 -40.687859 4294967256
219.50513 347.66281 -40.606487 4294967256
220.06201 346.02328 -40.968849 4294967256
221.58257 347.24515 -40.851322 4294967256
224.6991 347.60818 -40.747093 4294967256
227.63966 347.67014 -40.718094 4294967256
229.89098 347.33511 -40.77013 4294967256
233.55037 346.88428 -40.643429 4294967256
235.60956 346.51309 -40.74662 4294967256
236.92987 346.02023 -40.954094 4294967256
237.27292 347.29251 -40.488586 4294967256
239.83516 347.22876 -40.217472 4294967256
241.75293 345.69357 -40.880783 4294967256
249.08234 345.2442 -40.864002 4294967256
252.73088 345.939 -40.547489 4294967256
255.37234 345.7019 -40.655209 4294967256
257.39673 345.47662 -40.731331 4294967256
390.14624 346.39679 -40.088326 4294967256
193.07863 349.4411 -40.337666 4294967256
197.04018 349.19989 -40.362953 4294967256
199.27908 349.28561 -40.318989 4294967256
201.53304 348.23822 -40.670723 4294967256
203.40759 348.68173 -40.560997 4294967256
205.88409 348.12305 -40.73732 4294967256
206.17343 349.07382 -40.438797 4294967256
208.83076 348.0849 -40.777206 4294967256
209.62782 349.28607 -40.473133 4294967256
211.31174 349.00623 -40.598404 4294967256
215.40089 348.96341 -40.248993 4294967256
390.69254 348.41458 -40.602036 4294967256
389.54987 352.20667 -40.519352 4294967256
388.53738 355.21021 -40.546501 4294967256
386.57269 359.76956 -40.833721 4294967256
383.86673 362.51611 -40.101917 4294967256
333.14221 365.22696 -40.089725 4294967256
339.10248 364.85202 -40.219181 4294967256
366.8446 363.76306 -40.355595 4294967256
369.38733 363.54724 -40.963276 4294967256
371.81277 363.50702 -40.670193 4294967256
373.41367 363.55389 -40.145535 4294967256
375.9407 363.45746 -40.312542 4294967256
278.15616 368.96423 -40.58839 4294967256
279.18692 368.69595 -40.066933 4294967256
281.56625 368.5397 -40.259781 4294967256
285.14764 368.55872 -40.113651 4294967256
287.44571 368.58005 -40.983009 4294967256
293.08417 367.7001 -40.133423 4294967256
296.33627 367.73572 -40.493916 4294967256
303.68173 367.16296 -40.086445 4294967256
305.32718 366.97128 -40.349426 4294967256
307.39157 366.95605 -40.076298 4294967256
309.12152 366.84833 -40.170124 4294967256
242.25035 371.70416 -40.565842 4294967256
251.47978 370.66074 -40.120567 4294967256
257.92279 370.65402 -40.963005 4294967256
271.7012 369.2988 -40.169125 4294967256
274.66211 369.12076 -40.190033 4294967256
215.68373 374.1311 -40.786388 4294967256
222.63783 373.37961 -40.697639 4294967256
227.41072 373.18918 -40.94717 4294967256
229.54822 372.89105 -40.757 4294967256
233.03813 372.798 -40.92009 4294967256
237.17647 372.33762 -40.691353 4294967256
357.63657 338.8454 -39.164185 4294967257
381.83105 336.17334 -39.625404 4294967257
383.50012 337.12009 -39.254269 4294967257
323.38345 341.68304 -39.731018 4294967257
327.29092 341.41306 -39.992367 4294967257
329.28516 341.26907 -39.997581 4294967257
341.73727 340.37646 -39.553955 4294967257
343.73193 340.11478 -39.935863 4294967257
347.35147 339.94083 -39.81543 4294967257
351.42175 339.63528 -39.275944 4294967257
355.41339 339.11032 -39.142075 4294967257
388.17715 341.01782 -39.521011 4294967257
277.30637 344.91315 -39.162563 4294967257
279.46579 344.64523 -39.280247 4294967257
281.22308 344.70651 -39.124378 4294967257
282.73593 344.64227 -39.227024 4294967257
285.62421 344.3602 -39.398098 4294967257
291.89072 343.82129 -39.427002 4294967257
293.51822 343.81708 -39.326252 4294967257
295.27979 343.71747 -39.416706 4294967257
297.45282 343.61563 -39.374241 4294967257
311.58963 342.78571 -39.05904 4294967257
317.76178 342.63235 -39.05764 4294967257
389.21725 343.80713 -39.558384 4294967257
241.27177 347.82755 -39.203594 4294967257
243.44002 347.10999 -39.899765 4294967257
245.29079 347.21304 -39.505936 4294967257
247.62129 346.67841 -39.940495 4294967257
249.50754 346.61868 -39.867798 4294967257
251.32491 346.91653 -39.312645 4294967257
255.41895 346.64999 -39.360283 4294967257
257.21558 346.56458 -39.258904 4294967257
259.63574 346.35907 -39.264927 4294967257
261.50562 346.09406 -39.697746 4294967257
197.34476 350.72269 -39.5238 4294967257
201.43881 350.7276 -39.383755 4294967257
203.18852 350.56732 -39.484844 4294967257
207.81645 350.03986 -39.819599 4294967257
209.57692 350.21637 -39.450314 4294967257
211.53387 350.18604 -39.328571 4294967257
213.79692 350.05173 -39.12632 4294967257
217.45346 349.34186 -39.661716 4294967257
219.16655 349.2204 -39.549194 4294967257
221.59285 349.08459 -39.462334 4294967257
229.6189 348.77869 -39.157696 4294967257
231.6795 348.19946 -39.994312 4294967257
235.68939 348.25104 -39.300091 4294967257
237.46075 348.06711 -39.479942 4294967257
239.49107 348.05405 -39.102848 4294967257
387.82578 350.66174 -39.065689 4294967257
388.94852 348.70209 -39.518303 4294967257
191.0965 351.60034 -39.134888 4294967257
193.53407 351.04294 -39.484741 4294967257
195.23874 351.00287 -39.396553 4294967257
198.98615 351.06323 -39.070896 4294967257
387.6225 353.11621 -39.323002 4294967257
386.9657 355.27795 -39.294842 4294967257
386.53101 357.75336 -39.764515 4294967257
382.15015 362.81085 -39.691807 4294967257
384.62897 360.73682 -39.617695 4294967257
320.51898 365.7955 -39.548618 4294967257
323.48834 365.64761 -39.917492 4294967257
325.60168 365.68228 -39.670246 4294967257
327.92706 365.60233 -39.815884 4294967257
329.54138 365.43939 -39.523163 4294967257
334.86676 365.09744 -39.913589 4294967257
337.74533 364.7662 -39.952759 4294967257
347.02859 364.24258 -39.640163 4294967257
348.61972 364.17343 -39.538132 4294967257
352.21753 364.02942 -39.530991 4294967257
357.23474 363.94348 -39.003002 4294967257
378.29266 363.41174 -39.890694 4294967257
291.17102 368.08142 -39.950958 4294967257
300.92532 367.2818 -39.942265 4294967257
314.99677 366.41568 -39.797512 4294967257
317.77679 366.01965 -39.976372 4294967257
247.07976 370.81723 -39.96907 4294967257
248.86047 370.75452 -39.957367 4294967257
253.86795 370.50446 -39.993267 4294967257
257.77344 370.20227 -39.55447 4294967257
259.00171 370.15997 -39.982643 4294967257
261.6521 369.65649 -39.175316 4294967257
212.40686 373.32172 -39.186626 4294967257
215.84273 373.41956 -39.472168 4294967257
217.52036 373.29248 -39.53899 4294967257
219.50275 373.14636 -39.760204 4294967257
223.66362 372.79221 -39.711899 4294967257
225.25693 372.66199 -39.819965 4294967257
226.84572 372.5593 -39.830872 4294967257
230.44328 372.29828 -39.772575 4294967257
233.2951 372.11716 -39.811821 4294967257
235.2531 372.0087 -39.904671 4294967257
381.90781 336.75543 -38.021416 4294967258
384.69119 338.23819 -38.633873 4294967258
325.25983 341.98135 -38.130238 4294967258
329.15674 341.75333 -38.14698 4294967258
333.31177 341.47449 -38.022312 4294967258
337.17258 341.1037 -38.732239 4294967258
349.1752 339.86868 -38.803631 4294967258
386.36292 340.43115 -38.521706 4294967258
288.90344 344.38037 -38.969585 4294967258
309.19467 343.0878 -38.798298 4294967258
313.04904 342.99899 -38.760494 4294967258
319.45898 342.48871 -38.541298 4294967258
321.20047 342.35522 -38.475842 4294967258
387.42758 343.96014 -38.388824 4294967258
249.19098 347.63016 -38.150665 4294967258
251.50198 347.65372 -38.148399 4294967258
253.34299 347.33127 -38.218822 4294967258
259.26746 346.87988 -38.071491 4294967258
260.901 346.89853 -38.127975 4294967258
263.49762 346.63721 -38.353424 4294967258
272.94635 345.32764 -38.938854 4294967258
279.59131 345.21164 -38.035069 4294967258
283.02444 345.07156 -38.01199 4294967258
388.14462 346.48016 -38.840477 4294967258
209.79303 350.83505 -38.260651 4294967258
211.49332 350.74985 -38.197601 4294967258
213.50081 350.55939 -38.213505 4294967258
217.4436 350.15714 -38.246704 4294967258
222.90283 349.73557 -38.019436 4294967258
225.53639 349.7854 -38.090885 4294967258
229.6575 349.26801 -38.189579 4294967258
231.84396 349.08554 -38.131973 4294967258
241.16194 348.39066 -38.063042 4294967258
386.78549 348.69971 -38.209732 4294967258
204.16251 351.2261 -38.403198 4294967258
205.41194 351.26617 -38.010838 4294967258
207.4319 351.07819 -38.054859 4294967258
382.21146 362.45667 -38.659008 4294967258
321.27762 365.62698 -38.261703 4294967258
342.7406 364.64337 -38.598633 4294967258
361.33948 363.93021 -38.872036 4294967258
365.32935 363.97333 -38.709606 4294967258
367.55133 363.96057 -38.517509 4294967258
369.60599 363.97583 -38.127216 4294967258
273.73233 368.93863 -38.73209 4294967258
281.67273 368.25696 -38.192509 4294967258
283.57458 368.18405 -38.612827 4294967258
284.94427 368.09723 -38.187462 4294967258
287.87625 368.00119 -38.092648 4294967258
291.11603 367.82199 -38.137192 4294967258
297.57846 367.05624 -38.336266 4294967258
299.24753 367.03607 -38.004074 4294967258
301.198 366.9834 -38.065144 4294967258
308.12878 366.71463 -38.099121 4294967258
312.33411 366.27225 -38.536316 4294967258
230.43277 371.8302 -38.016281 4294967258
233.36279 371.73972 -38.508026 4294967258
237.2798 371.23566 -38.157921 4294967258
239.07867 371.2764 -38.859337 4294967258
244.6895 370.76984 -38.461731 4294967258
247.00729 370.71637 -38.649727 4294967258
249.45602 370.44461 -38.09623 4294967258
251.30545 370.41068 -38.608517 4294967258
259.44571 369.79572 -38.916367 4294967258
269.24542 369.13596 -38.55122 4294967258
271.38324 369.13043 -38.526272 4294967258
210.8947 373.21057 -38.028702 4294967258
215.95528 372.98953 -38.076706 4294967258
221.45311 372.55945 -38.248695 4294967258
225.09933 372.23505 -38.064419 4294967258
226.87497 372.13315 -38.14489 4294967258
377.93582 336.61615 -37.837074 4294967259
383.33133 338.35013 -37.554886 4294967259
335.17285 341.36047 -37.437298 4294967259
339.69339 340.8299 -37.288994 4294967259
341.46216 340.67703 -37.356094 4294967259
343.80597 340.44525 -37.325241 4294967259
345.64294 340.23508 -37.149055 4294967259
347.60611 340.05313 -37.374352 4294967259
354.23013 339.2923 -37.512913 4294967259
384.65128 339.44611 -37.662659 4294967259
385.34265 340.78033 -37.562946 4294967259
285.91959 344.91492 -37.874043 4294967259
291.41418 344.53534 -37.542614 4294967259
293.45651 344.35117 -37.607758 4294967259
295.34503 344.26056 -37.825581 4294967259
299.38882 344.0632 -37.74189 4294967259
301.73538 343.76593 -37.797256 4294967259
305.47949 343.42874 -37.959969 4294967259
307.43262 343.34647 -37.922825 4294967259
385.62155 342.99869 -37.361687 4294967259
386.6543 344.31119 -37.854404 4294967259
275.22314 345.60602 -37.52179 4294967259
277.57907 345.42746 -37.52779 4294967259
386.04709 345.87411 -37.564095 4294967259
214.97069 350.49527 -37.900677 4294967259
221.28186 349.97656 -37.782551 4294967259
235.38647 348.85922 -37.958633 4294967259
247.46562 348.04053 -37.919617 4294967259
193.27319 352.27301 -37.804142 4294967259
197.1969 351.8504 -37.923382 4294967259
383.37326 358.44421 -37.225742 4294967259
379.70749 362.83524 -37.988914 4294967259
318.03198 365.9032 -37.90974 4294967259
323.31668 365.68048 -37.732281 4294967259
325.88821 365.50278 -37.826221 4294967259
328.14774 365.42734 -37.767334 4294967259
329.75562 365.34229 -37.682198 4294967259
333.21277 365.13824 -37.522007 4294967259
335.18518 365.01492 -37.716118 4294967259
338.81143 365.01141 -37.076649 4294967259
341.97958 364.91168 -37.164986 4294967259
349.04025 364.53085 -37.005054 4294967259
358.10876 364.19717 -37.17712 4294967259
372.42209 363.91354 -37.800583 4294967259
373.98737 363.75977 -37.713085 4294967259
378.35397 363.03207 -37.666676 4294967259
275.02655 368.73578 -37.795826 4294967259
289.01776 367.99524 -37.199986 4294967259
293.13623 367.48822 -37.982494 4294967259
305.30533 366.82242 -37.857975 4294967259
308.98056 366.59784 -37.890224 4294967259
313.14563 366.39444 -37.440582 4294967259
315.20941 366.22742 -37.667206 4294967259
212.59808 373.03101 -37.999508 4294967259
219.41473 372.52267 -37.83979 4294967259
222.80501 372.37561 -37.657459 4294967259
379.50504 337.21838 -36.352692 4294967260
383.61108 340.81589 -36.502895 4294967260
304.19986 343.78207 -36.338062 4294967260
383.65564 344.47754 -36.128746 4294967260
271.81668 346.3692 -36.174351 4294967260
281.57706 345.54535 -36.068325 4294967260
215.39621 350.85666 -36.170502 4294967260
221.76097 350.28955 -36.315121 4294967260
227.74956 350.04083 -36.142029 4294967260
231.81891 349.52087 -36.078533 4294967260
234.33585 349.4137 -36.084721 4294967260
239.41951 348.86496 -36.444542 4294967260
241.47754 348.8468 -36.168987 4294967260
245.62904 348.48947 -36.552544 4294967260
249.29108 348.22574 -36.10136 4294967260
384.05048 348.4321 -36.614132 4294967260
199.23215 352.42407 -36.236439 4294967260
205.67854 351.6301 -36.441105 4294967260
207.33315 351.50412 -36.291706 4294967260
209.52983 351.35956 -36.125107 4294967260
211.8065 351.09891 -36.547009 4294967260
379.78345 362.34879 -36.805229 4294967260
381.68478 361.43698 -36.751316 4294967260
322.185 365.86688 -36.225677 4294967260
346.96732 364.67633 -36.88443 4294967260
353.40039 364.43399 -36.904461 4294967260
355.43372 364.34064 -36.802746 4294967260
359.38147 364.28653 -36.616016 4294967260
361.3429 364.33145 -36.458469 4294967260
362.84702 364.38596 -36.128738 4294967260
367.50702 364.33997 -36.154526 4294967260
375.85101 363.19556 -36.006168 4294967260
373.82193 337.02942 -35.699333 4294967261
381.46881 338.11111 -35.922874 4294967261
327.36932 341.87057 -35.100731 4294967261
329.42728 341.728 -35.369015 4294967261
335.58997 341.22458 -35.681828 4294967261
341.76669 340.4993 -35.034191 4294967261
289.67352 344.87796 -35.85886 4294967261
291.63904 344.7348 -35.742115 4294967261
293.58063 344.68271 -35.433361 4294967261
297.54221 344.46329 -35.524651 4294967261
301.16443 344.11621 -35.571922 4294967261
305.59644 343.6915 -35.389057 4294967261
309.09958 343.36664 -35.584877 4294967261
313.35748 343.08469 -35.77039 4294967261
315.51431 342.87875 -35.409805 4294967261
319.2959 342.57288 -35.908703 4294967261
255.65472 347.5899 -35.963272 4294967261
257.37555 347.56253 -35.886589 4294967261
259.43625 347.35861 -35.947605 4294967261
261.30148 347.16052 -35.798519 4294967261
263.32535 346.9859 -35.491402 4294967261
275.57278 346.04706 -35.747559 4294967261
277.43423 345.80438 -35.841309 4294967261
279.37936 345.65903 -35.84668 4294967261
283.17068 345.5051 -35.496124 4294967261
285.93289 345.28448 -35.941822 4294967261
217.3614 350.7749 -35.232212 4294967261
219.34909 350.66858 -35.868496 4294967261
223.44832 350.37521 -35.860584 4294967261
237.35597 349.07208 -35.962872 4294967261
247.21266 348.37387 -35.546925 4294967261
251.45158 348.03653 -35.55426 4294967261
195.25456 352.60846 -35.795235 4294967261
202.92717 352.06866 -35.902168 4294967261
381.81406 355.74683 -35.679993 4294967261
381.89621 358.20456 -35.393337 4294967261
379.35638 361.13809 -35.318951 4294967261
381.59705 360.15936 -35.898117 4294967261
325.74664 365.89362 -35.216518 4294967261
329.52951 365.75476 -35.065487 4294967261
345.12488 365.07037 -35.054092 4294967261
365.70938 364.47079 -35.896236 4294967261
370.12735 364.15289 -35.754574 4294967261
372.4209 363.62689 -35.690655 4294967261
374.00464 363.33459 -35.691124 4294967261
283.23596 368.45297 -35.708172 4294967261
285.0657 368.36722 -35.129246 4294967261
289.09204 368.14001 -35.413929 4294967261
290.96255 367.97281 -35.310226 4294967261
297.56729 367.54044 -35.522415 4294967261
299.49869 367.44312 -35.589233 4294967261
305.31186 367.2113 -35.149376 4294967261
309.53064 366.97607 -35.160816 4294967261
312.74991 366.7012 -35.256371 4294967261
318.68011 366.29449 -35.228615 4294967261
230.21671 371.79703 -35.864124 4294967261
233.01953 371.64493 -35.821587 4294967261
245.36974 370.88614 -35.682552 4294967261
249.49725 370.66046 -35.202503 4294967261
251.39206 370.48392 -35.644936 4294967261
253.34576 370.36032 -35.82354 4294967261
255.34941 370.34421 -35.431423 4294967261
257.95883 370.15521 -35.363884 4294967261
259.57016 370.05515 -35.684406 4294967261
271.55179 369.22403 -35.701206 4294967261
213.23434 372.98074 -35.936039 4294967261
218.09787 372.72025 -35.572453 4294967261
220.72574 372.51675 -35.596519 4294967261
223.59778 372.2197 -35.802753 4294967261
226.85428 372.0459 -35.578377 4294967261
377.52448 337.7901 -34.566807 4294967262
333.2099 341.39224 -34.936577 4294967262
337.27579 340.96716 -34.903263 4294967262
343.44998 340.39752 -34.75489 4294967262
345.62357 340.1861 -34.651901 4294967262
381.28769 341.81686 -34.176399 4294967262
310.59076 343.21735 -34.332561 4294967262
237.90834 349.06549 -34.131573 4294967262
378.97702 350.98236 -34.074436 4294967262
208.12346 351.57959 -34.2901 4294967262
379.78232 355.48151 -34.386135 4294967262
379.90793 358.03494 -34.395748 4294967262
375.85876 361.81885 -34.125164 4294967262
327.9082 365.84302 -34.933548 4294967262
333.70505 365.66183 -34.857231 4294967262
339.26459 365.35562 -34.839119 4294967262
343.43695 365.17563 -34.859421 4294967262
347.207 365.04929 -34.585491 4294967262
349.28464 364.92813 -34.772842 4294967262
355.73746 364.76416 -34.43071 4294967262
294.52759 367.88776 -34.177975 4294967262
301.19476 367.42499 -34.903866 4294967262
307.91714 367.09348 -34.973858 4294967262
323.23148 366.01834 -34.992977 4294967262
214.77716 373.10144 -34.393894 4294967262
367.44418 337.74399 -33.562252 4294967263
337.83984 340.79556 -33.065979 4294967263
339.52872 340.70087 -33.020771 4294967263
346.5304 340.08655 -33.84581 4294967263
377.99521 339.90509 -33.103897 4294967263
291.53534 344.71252 -33.374607 4294967263
295.08511 344.45047 -33.117641 4294967263
306.19135 343.52838 -33.072193 4294967263
311.23599 343.15112 -33.039116 4294967263
316.09851 342.79929 -33.370502 4294967263
251.68655 347.91663 -33.629417 4294967263
271.89182 346.27332 -33.166573 4294967263
275.31458 346.04114 -33.260368 4294967263
277.263 345.91461 -33.545204 4294967263
287.37943 345.03687 -33.195103 4294967263
215.3604 350.95236 -33.450863 4294967263
217.7061 350.73032 -33.564598 4294967263
219.2242 350.58545 -33.215591 4294967263
221.48874 350.44409 -33.245853 4294967263
223.45932 350.31473 -33.528633 4294967263
225.18823 350.16617 -33.113998 4294967263
227.79935 349.94113 -33.074009 4294967263
229.74292 349.74875 -33.017654 4294967263
231.53716 349.57693 -33.120964 4294967263
235.30719 349.21158 -33.04628 4294967263
239.4178 348.91782 -33.199467 4294967263
241.43129 348.73672 -33.348873 4294967263
245.40195 348.39905 -33.165909 4294967263
247.73019 348.24622 -33.827343 4294967263
189.69417 353.04559 -33.518024 4294967263
191.4269 352.91245 -33.530312 4294967263
201.66113 352.14764 -33.617161 4294967263
203.41701 351.99442 -33.832645 4294967263
209.73273 351.40131 -33.486221 4294967263
213.44174 351.11075 -33.626293 4294967263
377.51019 352.94919 -33.421654 4294967263
377.74875 354.97162 -33.488007 4294967263
377.71835 357.97763 -33.362209 4294967263
372.77179 362.7897 -33.717766 4294967263
377.74939 360.0629 -33.978985 4294967263
344.34012 365.32449 -33.349449 4294967263
350.95468 365.05585 -33.853653 4294967263
357.53198 364.77817 -33.710472 4294967263
359.84045 364.73315 -33.914024 4294967263
361.7124 364.73535 -33.136864 4294967263
365.86331 364.26984 -33.478737 4294967263
369.90579 363.66907 -33.928322 4294967263
291.49393 368.26306 -33.058132 4294967263
297.52197 367.79285 -33.069672 4294967263
299.33609 367.75873 -33.04969 4294967263
215.80444 373.14722 -33.268929 4294967263
233.14951 372.05307 -33.108902 4294967263
369.66647 338.32382 -32.165386 4294967264
373.27444 338.62024 -32.624142 4294967264
375.20346 338.4863 -32.921318 4294967264
329.31888 341.54263 -32.82547 4294967264
331.43829 341.42447 -32.987206 4294967264
333.67734 341.1666 -32.722553 4294967264
335.26401 340.96503 -32.682446 4294967264
341.60278 340.47952 -32.531128 4294967264
345.44894 340.0787 -32.532127 4294967264
375.86517 341.45361 -32.025471 4294967264
377.745 341.66751 -32.784115 4294967264
297.34543 344.26483 -32.632732 4294967264
302.99927 343.68341 -32.34108 4294967264
307.59445 343.43256 -32.962261 4294967264
313.34753 342.93359 -32.818825 4294967264
319.45932 342.41071 -32.789513 4294967264
253.53247 347.71533 -32.874615 4294967264
259.39981 347.24548 -32.906464 4294967264
263.76508 346.82489 -32.957703 4294967264
279.20032 345.71091 -32.976257 4294967264
233.63307 349.42459 -32.971458 4294967264
249.42261 348.07321 -32.914871 4294967264
211.22906 351.25797 -32.994724 4294967264
374.16412 352.82144 -32.056721 4294967264
375.70959 352.97397 -32.67561 4294967264
375.63159 357.81281 -32.450966 4294967264
369.85934 362.8598 -32.321327 4294967264
371.37491 362.2699 -32.391098 4294967264
373.92877 360.07965 -32.266682 4294967264
335.41702 365.95932 -32.650681 4294967264
341.35379 365.62186 -32.221977 4294967264
365.9097 363.83319 -32.007427 4294967264
367.57281 363.61557 -32.321312 4294967264
285.51373 368.60745 -32.96965 4294967264
289.02094 368.51627 -32.793854 4294967264
295.58887 367.94025 -32.814056 4294967264
301.62964 367.7196 -32.933826 4294967264
303.49921 367.65891 -32.6987 4294967264
309.78046 367.28094 -32.949295 4294967264
315.91632 366.89819 -32.802929 4294967264
318.86182 366.79144 -32.585529 4294967264
323.82889 366.33743 -32.973415 4294967264
325.35623 366.27649 -32.875156 4294967264
327.845 366.15259 -32.857582 4294967264
331.41141 366.01492 -32.774876 4294967264
245.43115 371.31204 -32.925743 4294967264
193.07857 374.73282 -32.943939 4294967264
213.44464 373.41232 -32.817863 4294967264
235.16638 372.01105 -32.756687 4294967264
357.25107 338.96414 -31.095299 4294967265
360.39789 338.61145 -31.903927 4294967265
363.69937 338.48471 -31.646397 4294967265
365.505 338.51013 -31.82889 4294967265
347.32349 339.90884 -31.83597 4294967265
352.14673 339.24088 -31.987268 4294967265
371.33643 339.04694 -31.754116 4294967265
373.36658 341.064 -31.212275 4294967265
293.72021 344.4201 -31.143908 4294967265
309.57327 343.11313 -31.063797 4294967265
373.58783 343.97192 -31.047445 4294967265
273.35046 346.13602 -31.303535 4294967265
217.60329 350.6687 -31.222231 4294967265
223.13248 350.27481 -31.339239 4294967265
225.65744 350.06247 -31.249821 4294967265
239.93985 348.85034 -31.322981 4294967265
373.54037 349.81104 -31.767653 4294967265
191.41827 352.8194 -31.019701 4294967265
193.35992 352.68201 -31.018789 4294967265
205.77977 351.65353 -31.077106 4294967265
210.25514 351.33575 -31.73822 4294967265
373.76196 355.36023 -31.81167 4294967265
373.72855 357.99033 -31.815001 4294967265
345.28497 365.5426 -31.447697 4294967265
347.49991 365.42377 -31.930967 4294967265
349.54828 365.34311 -31.909803 4294967265
352.00613 365.25198 -31.699608 4294967265
353.57401 365.14023 -31.659334 4294967265
355.74683 364.92459 -31.681906 4294967265
358.78903 364.51984 -31.716219 4294967265
325.77252 341.70062 -30.8946 4294967266
327.28058 341.50012 -30.656668 4294967266
329.50644 341.32806 -30.457205 4294967266
335.46002 340.78946 -30.317389 4294967266
337.23367 340.61255 -30.273012 4294967266
339.86462 340.34409 -30.001997 4294967266
367.19952 339.77991 -30.304476 4294967266
369.60306 340.42825 -30.462986 4294967266
371.59793 340.9277 -30.750206 4294967266
290.94772 344.64993 -30.482054 4294967266
299.69373 343.96375 -30.787251 4294967266
305.0863 343.45062 -30.289145 4294967266
315.47269 342.61725 -30.571999 4294967266
261.39648 347.01776 -30.822954 4294967266
271.16672 346.21381 -30.501747 4294967266
275.3985 345.91968 -30.728823 4294967266
283.17627 345.31274 -30.766609 4294967266
371.60657 346.59705 -30.750263 4294967266
215.42326 350.87643 -30.865305 4294967266
221.13164 350.36758 -30.774706 4294967266
227.60251 349.85507 -30.810692 4294967266
231.23802 349.54254 -30.801716 4294967266
241.64352 348.6713 -30.959171 4294967266
369.46597 350.76688 -30.497662 4294967266
197.29922 352.38937 -30.979658 4294967266
199.22171 352.20563 -30.948692 4294967266
207.02565 351.49887 -30.534504 4294967266
368.01086 354.82269 -30.042007 4294967266
369.35052 355.39618 -30.355536 4294967266
369.72787 357.70261 -30.250643 4294967266
370.09387 359.78375 -30.708834 4294967266
371.20676 357.6358 -30.743734 4294967266
365.48132 362.99789 -30.570051 4294967266
367.27829 361.42947 -30.240959 4294967266
369.36722 361.27896 -30.963345 4294967266
360.05704 364.1272 -30.598547 4294967266
363.03195 363.87393 -30.503838 4294967266
294.00449 368.41171 -30.987225 4294967266
297.48605 368.23874 -30.842636 4294967266
299.47305 368.14444 -30.827496 4294967266
302.2045 368.06522 -30.794329 4294967266
305.74326 367.88428 -30.64459 4294967266
311.18112 367.51352 -30.744612 4294967266
315.36774 367.24615 -30.929745 4294967266
316.76672 367.33533 -30.213341 4294967266
319.42929 366.99966 -30.88628 4294967266
324.32309 366.70398 -30.578381 4294967266
325.3938 366.77402 -30.242331 4294967266
327.23904 366.60385 -30.425283 4294967266
328.92386 366.57022 -30.201504 4294967266
250.68959 371.29294 -30.760029 4294967266
257.7225 370.85083 -30.49369 4294967266
201.06503 374.56393 -30.64991 4294967266
230.03564 372.63535 -30.726826 4294967266
233.32251 372.4173 -30.867369 4294967266
238.97888 372.08563 -30.731203 4294967266
331.00519 341.14307 -29.877762 4294967267
342.04404 340.25485 -29.978212 4294967267
347.60745 339.93195 -29.0158 4294967267
351.47214 339.58029 -29.249052 4294967267
357.48477 339.45618 -29.722488 4294967267
363.23749 339.86621 -29.343102 4294967267
367.23767 341.4313 -29.465542 4294967267
369.37708 341.78287 -29.930885 4294967267
367.35663 343.80518 -29.077847 4294967267
369.43588 343.7117 -29.607225 4294967267
265.47256 346.58768 -29.050043 4294967267
269.9566 346.25018 -29.312815 4294967267
275.5564 345.86465 -29.525686 4294967267
367.74643 346.48361 -29.637625 4294967267
226.20845 349.87433 -29.721731 4294967267
363.62234 350.78183 -29.028063 4294967267
365.47736 349.7981 -29.390522 4294967267
367.61398 348.8103 -29.837749 4294967267
363.42984 352.82288 -29.035177 4294967267
365.45352 352.94907 -29.523081 4294967267
367.52197 352.92615 -29.994532 4294967267
365.71332 354.90576 -29.450521 4294967267
365.35568 357.77643 -29.103497 4294967267
367.62991 357.86301 -29.623156 4294967267
365.17648 361.27649 -29.434036 4294967267
343.18723 365.64935 -29.434202 4294967267
350.63336 364.71722 -29.000471 4294967267
353.92993 364.62653 -29.864918 4294967267
361.82227 363.3913 -29.765589 4294967267
320.82425 367.12177 -29.573645 4294967267
331.51138 366.56363 -29.986134 4294967267
333.88205 366.60434 -29.767473 4294967267
335.59537 366.4863 -29.706406 4294967267
337.77426 366.14856 -29.628588 4294967267
339.75827 366.13129 -29.693579 4294967267
242.25801 372.05447 -29.136705 4294967267
323.74435 341.67136 -28.024025 4294967268
337.86862 340.66382 -28.094687 4294967268
343.29446 340.19553 -28.889935 4294967268
355.54395 339.86475 -28.133015 4294967268
357.40082 340.37006 -28.099115 4294967268
359.40192 340.52765 -28.130827 4294967268
360.79099 341.75275 -28.001358 4294967268
361.41611 340.32739 -28.683287 4294967268
363.40161 341.82178 -28.257488 4294967268
365.49896 341.61783 -28.980728 4294967268
297.53674 343.93967 -28.566565 4294967268
303.29855 343.52051 -28.742228 4294967268
307.58475 343.17697 -28.506517 4294967268
311.15167 342.87631 -28.340658 4294967268
315.60193 342.45572 -28.224495 4294967268
317.53973 342.26831 -28.045235 4294967268
363.67587 343.68661 -28.137159 4294967268
365.86945 343.65369 -28.683289 4294967268
253.24687 347.50378 -28.503782 4294967268
273.33984 345.93134 -28.366953 4294967268
277.62769 345.62924 -28.763554 4294967268
363.46875 346.14261 -28.433077 4294967268
365.35583 346.40866 -28.940056 4294967268
215.29788 350.73593 -28.809717 4294967268
216.85306 350.58337 -28.741688 4294967268
219.23711 350.39691 -28.889009 4294967268
223.08978 350.08389 -28.600164 4294967268
229.65984 349.58966 -28.592989 4294967268
233.20889 349.28918 -28.670364 4294967268
244.8071 348.25565 -28.80089 4294967268
193.52931 352.5444 -28.793142 4294967268
211.10193 351.12448 -28.985167 4294967268
359.20956 352.95172 -28.038296 4294967268
361.71472 351.9805 -28.617519 4294967268
361.28082 355.06784 -28.449394 4294967268
363.34784 355.12494 -28.93228 4294967268
361.28293 357.92722 -28.167204 4294967268
363.46115 358.03915 -28.64002 4294967268
361.53247 362.01559 -28.591364 4294967268
363.73212 360.85934 -28.996431 4294967268
344.20441 365.12411 -28.108101 4294967268
347.65591 364.95099 -28.531853 4294967268
351.76077 364.25635 -28.32765 4294967268
353.38013 364.07364 -28.372913 4294967268
359.93176 363.08139 -28.949692 4294967268
291.84848 368.93652 -28.178123 4294967268
295.03726 368.69348 -28.33375 4294967268
297.63602 368.59613 -28.168427 4294967268
299.52454 368.53326 -28.140041 4294967268
303.26334 368.41516 -28.041176 4294967268
202.91238 374.78058 -28.325594 4294967268
229.83237 373.00388 -28.358992 4294967268
233.44586 372.71936 -28.815207 4294967268
235.35777 372.59229 -28.812426 4294967268
236.91687 372.48785 -28.779928 4294967268
239.42857 372.4274 -28.101072 4294967268
243.19308 372.1011 -28.369404 4294967268
321.55585 341.90793 -27.859461 4294967269
327.47464 341.26428 -27.87924 4294967269
329.49887 341.14447 -27.684906 4294967269
334.76443 341.12039 -27.710567 4294967269
339.64841 340.80286 -27.547188 4294967269
351.4884 340.28842 -27.587395 4294967269
355.66962 340.48657 -27.773344 4294967269
359.47253 343.6156 -27.196049 4294967269
361.45282 343.48651 -27.628008 4294967269
357.48523 346.38138 -27.000982 4294967269
359.62125 346.30801 -27.536173 4294967269
361.24548 346.20291 -27.913122 4294967269
214.11876 350.84528 -27.499491 4294967269
355.70197 350.75308 -27.177376 4294967269
359.56613 348.7529 -27.865301 4294967269
355.3024 352.86938 -27.217093 4294967269
357.43652 351.01108 -27.585308 4294967269
355.64691 354.96606 -27.22077 4294967269
357.67685 354.97226 -27.632088 4294967269
358.9935 355.10629 -27.913828 4294967269
355.85593 357.33124 -27.085669 4294967269
357.36078 357.51605 -27.375315 4294967269
359.68912 357.65964 -27.837141 4294967269
351.22513 362.96405 -27.024492 4294967269
353.66208 362.98608 -27.44261 4294967269
356.99246 362.60596 -27.939577 4294967269
357.45883 360.39993 -27.199507 4294967269
359.67633 360.18384 -27.875275 4294967269
337.2977 365.92587 -27.695101 4294967269
340.76465 365.46426 -27.324778 4294967269
355.69348 363.05695 -27.902363 4294967269
310.2132 368.02701 -27.974154 4294967269
317.41345 367.62421 -27.750889 4294967269
319.54398 367.48392 -27.523653 4294967269
321.91226 367.12039 -27.185579 4294967269
325.78101 366.75104 -27.072472 4294967269
329.22098 366.57385 -27.606831 4294967269
331.45804 366.38907 -27.80106 4294967269
