# .PCD v0.7 - Point Cloud Data file format
VERSION 0.7
FIELDS x y z rgba
SIZE 4 4 4 4
TYPE F F F U
COUNT 1 1 1 1
WIDTH 1139
HEIGHT 1
VIEWPOINT 0 0 0 1 0 0 0
POINTS 1139
DATA ascii
27.465511 358.09616 -578.52203 4294966718
29.477386 359.11011 -578.25787 4294966718
31.215149 359.45599 -578.13824 4294966718
35.520966 357.85199 -578.57281 4294966718
37.5168 357.66162 -578.57678 4294966718
43.593842 357.23315 -578.71606 4294966718
47.619221 357.86063 -578.69513 4294966718
49.297962 357.77081 -578.76361 4294966718
53.464417 357.77631 -578.64984 4294966718
55.368511 357.48825 -578.74847 4294966718
57.4067 357.06512 -578.67712 4294966718
61.507751 357.02811 -578.35535 4294966718
175.46014 329.94284 -577.19568 4294966719
185.72844 329.96201 -577.72479 4294966719
189.39331 329.06146 -577.44617 4294966719
123.51267 332.9342 -577.13831 4294966719
125.51227 332.70261 -577.14423 4294966719
127.32009 332.55951 -577.27289 4294966719
129.69244 331.87985 -577.04358 4294966719
131.77498 331.73355 -577.08435 4294966719
133.54858 332.06161 -577.53278 4294966719
135.43805 331.57523 -577.07178 4294966719
141.40602 332.23212 -577.07098 4294966719
145.33946 332.42456 -577.14868 4294966719
149.30876 332.0563 -577.19604 4294966719
151.25148 331.93881 -577.22455 4294966719
153.37624 331.7804 -577.39929 4294966719
155.35162 332.03564 -577.3725 4294966719
157.26813 331.56647 -577.37744 4294966719
159.41084 331.85632 -577.69617 4294966719
161.38986 332.01343 -577.83337 4294966719
163.51736 331.27475 -577.81927 4294966719
165.52649 330.08893 -577.24841 4294966719
167.4993 331.54019 -577.83221 4294966719
169.40184 330.83548 -577.4624 4294966719
171.43805 330.13593 -577.15277 4294966719
173.38795 330.95575 -577.59692 4294966719
177.56529 330.45746 -577.57806 4294966719
181.37936 330.1264 -577.71814 4294966719
183.33774 330.05173 -577.67175 4294966719
65.331261 335.83249 -577.61505 4294966719
69.464401 335.80609 -577.8783 4294966719
71.369881 335.65305 -577.8205 4294966719
75.3993 335.5397 -577.81635 4294966719
77.065842 335.31271 -577.39948 4294966719
113.39955 334.48016 -577.81201 4294966719
117.4055 334.50076 -577.67517 4294966719
121.23287 334.35895 -577.71832 4294966719
129.22928 333.46851 -577.94977 4294966719
135.28174 333.4303 -577.99323 4294966719
137.48575 333.56314 -577.89191 4294966719
139.24004 333.64664 -577.81262 4294966719
141.46893 333.76712 -577.72223 4294966719
147.34766 333.89587 -577.89673 4294966719
149.54036 333.75766 -577.71539 4294966719
151.41858 334.7641 -577.8667 4294966719
153.25638 333.50494 -577.76489 4294966719
37.172657 337.87427 -577.17407 4294966719
39.637352 337.68472 -577.57806 4294966719
41.611874 337.91321 -577.86102 4294966719
44.030098 337.29428 -577.18494 4294966719
47.454239 337.36755 -577.53845 4294966719
50.987629 337.21271 -577.56299 4294966719
53.316006 336.97079 -577.24164 4294966719
55.35363 337.00702 -577.39917 4294966719
57.537209 336.98889 -577.54645 4294966719
59.371353 336.79816 -577.65503 4294966719
61.306084 336.8288 -577.88416 4294966719
63.648182 336.20313 -577.81195 4294966719
77.184906 336.2883 -577.81921 4294966719
79.167274 336.90302 -577.65833 4294966719
80.963058 337.46414 -577.5036 4294966719
82.685448 338.70029 -577.67554 4294966719
85.609138 338.93161 -577.48743 4294966719
86.965569 338.79214 -577.27875 4294966719
141.42436 338.64182 -577.99512 4294966719
143.41106 338.64691 -577.94531 4294966719
145.33174 338.64935 -577.91254 4294966719
147.35628 338.76187 -577.87268 4294966719
149.52008 338.65051 -577.8244 4294966719
151.35472 338.71436 -577.78729 4294966719
153.44165 337.38788 -577.84857 4294966719
155.29439 336.13959 -577.87494 4294966719
9.6259127 341.97205 -577.41101 4294966719
13.469316 341.1619 -577.30609 4294966719
15.350988 340.8768 -577.36206 4294966719
17.37303 341.56763 -577.82623 4294966719
19.373196 341.43149 -577.86743 4294966719
21.103052 341.54315 -577.92285 4294966719
23.407234 339.86163 -577.15747 4294966719
25.541473 340.12317 -577.40436 4294966719
29.387056 339.60373 -577.37372 4294966719
31.472565 339.53394 -577.65356 4294966719
84.583832 339.25113 -577.7027 4294966719
92.580063 339.15451 -577.03296 4294966719
94.586617 339.90134 -577.46625 4294966719
96.375031 340.63651 -577.72937 4294966719
97.406937 339.48846 -577.10962 4294966719
98.034386 341.17587 -577.76556 4294966719
99.590904 341.55597 -577.71442 4294966719
101.23457 340.71432 -577.33099 4294966719
103.17219 340.53397 -577.32239 4294966719
105.33574 341.41702 -577.64886 4294966719
137.51294 340.83783 -577.95374 4294966719
149.57709 340.81857 -577.83722 4294966719
155.41777 340.81995 -577.77777 4294966719
-10.879205 343.85724 -577.00635 4294966719
-6.9230623 343.82782 -577.12946 4294966719
-4.4573517 343.68298 -577.19965 4294966719
-0.74237096 343.69513 -577.39166 4294966719
1.070479 343.6214 -577.41339 4294966719
3.4142561 343.5946 -577.52637 4294966719
5.3380823 342.87909 -577.42139 4294966719
7.2123065 342.03482 -577.3028 4294966719
15.350519 343.03226 -577.9671 4294966719
102.80826 342.21448 -577.7688 4294966719
145.31461 342.91714 -577.99786 4294966719
-8.5119534 345.86011 -577.51953 4294966719
-6.2888713 347.7854 -577.43518 4294966719
-4.2519155 345.82898 -577.51324 4294966719
-2.7772429 346.09476 -577.65515 4294966719
-0.48978665 345.7912 -577.62366 4294966719
1.387121 346.11041 -577.69238 4294966719
3.7455614 346.13522 -577.83978 4294966719
7.2514706 346.09329 -577.94299 4294966719
9.583746 346.3927 -577.95026 4294966719
13.610947 346.20981 -577.93201 4294966719
15.333101 346.30038 -577.92834 4294966719
-8.6401911 349.73676 -577.27606 4294966719
-4.5924263 349.77777 -577.3291 4294966719
-2.612148 348.14798 -577.4632 4294966719
-0.67147088 349.75519 -577.40527 4294966719
1.5641593 349.59027 -577.50159 4294966719
3.1553423 348.79938 -577.58179 4294966719
7.5107894 350.73718 -577.73022 4294966719
13.445002 349.89575 -577.77393 4294966719
17.400024 350.9512 -577.84534 4294966719
149.35774 350.93204 -577.39789 4294966719
151.38882 350.90485 -577.23059 4294966719
153.43813 350.87 -577.17249 4294966719
155.55086 350.68994 -577.31171 4294966719
157.35651 350.66034 -577.32538 4294966719
159.47719 350.61038 -577.37134 4294966719
161.35069 350.57993 -577.34741 4294966719
165.68095 350.43277 -577.33704 4294966719
169.59793 350.39282 -577.44867 4294966719
173.41968 349.88864 -577.86688 4294966719
175.50401 350.11676 -577.24207 4294966719
177.35568 350.03964 -577.04773 4294966719
179.5444 349.03329 -577.94891 4294966719
181.26501 348.83563 -577.81665 4294966719
185.42735 348.87967 -577.48077 4294966719
187.50201 348.63574 -577.65552 4294966719
189.31512 348.51968 -577.69153 4294966719
-12.316152 352.95215 -577.21545 4294966719
-8.5067539 352.68423 -577.33197 4294966719
-6.48031 352.93756 -577.36639 4294966719
-4.5620508 352.74481 -577.3551 4294966719
-2.4920156 352.93518 -577.32843 4294966719
-0.49685743 352.74402 -577.43512 4294966719
3.3889577 352.92429 -577.66895 4294966719
5.3681202 353.0751 -577.81445 4294966719
9.4605045 353.1315 -577.96185 4294966719
11.419317 353.06723 -577.97473 4294966719
99.211662 353.79349 -577.50024 4294966719
100.45207 353.2998 -577.58038 4294966719
102.19138 353.49622 -577.23175 4294966719
103.66656 352.26205 -577.81573 4294966719
105.48804 353.66858 -577.14148 4294966719
123.44514 352.96793 -577.74231 4294966719
127.36414 352.80341 -577.55743 4294966719
129.45865 352.59619 -577.64673 4294966719
133.44298 352.48245 -577.57178 4294966719
137.31271 352.39777 -577.36761 4294966719
141.47842 352.09558 -577.64368 4294966719
143.57982 351.45676 -577.97595 4294966719
147.41974 351.08603 -577.49762 4294966719
-16.637667 355.18335 -577.13562 4294966719
-13.298475 354.48819 -577.31348 4294966719
-10.507114 355.31433 -577.62622 4294966719
-8.2708426 355.69003 -577.7829 4294966719
-6.569787 354.9736 -577.64722 4294966719
-4.5625172 355.50836 -577.7345 4294966719
-2.7352061 355.2287 -577.69128 4294966719
-0.21706758 355.65244 -577.81378 4294966719
1.6026207 355.43362 -577.88599 4294966719
67.462486 356.94659 -577.92755 4294966719
69.491562 356.75217 -577.86444 4294966719
71.612495 356.72452 -577.76489 4294966719
73.379227 356.59378 -577.81879 4294966719
77.452766 356.44156 -577.72833 4294966719
81.292877 356.48706 -577.23352 4294966719
83.025719 355.16458 -577.75427 4294966719
87.396141 355.13904 -577.02008 4294966719
89.704315 355.21552 -577.31354 4294966719
92.820786 354.52689 -577.94513 4294966719
109.8196 354.37991 -577.57709 4294966719
113.44623 354.3887 -577.33936 4294966719
115.31046 354.2373 -577.4278 4294966719
117.45559 354.15228 -577.31018 4294966719
-30.068462 359.58453 -577.04773 4294966719
-28.71843 359.59561 -577.03827 4294966719
-19.104813 359.90054 -577.36957 4294966719
-18.08597 357.35986 -577.33051 4294966719
-16.597565 358.80771 -577.54651 4294966719
-14.918764 357.5632 -577.70575 4294966719
-12.373598 357.8577 -577.8233 4294966719
-10.396972 357.97372 -577.97357 4294966719
-0.90316814 359.86813 -577.73016 4294966719
1.5796561 359.76776 -577.73724 4294966719
3.7042706 359.71918 -577.81519 4294966719
5.357801 359.76624 -577.84393 4294966719
7.5717525 359.65442 -577.93573 4294966719
11.355839 359.46182 -577.87994 4294966719
13.530899 359.35547 -577.9165 4294966719
17.307396 359.77231 -577.58124 4294966719
19.179003 359.44928 -577.76868 4294966719
21.47101 359.29282 -577.86517 4294966719
31.12097 359.86337 -577.78485 4294966719
33.983131 359.991 -577.25073 4294966719
35.575848 359.09622 -577.8559 4294966719
37.63847 358.96991 -577.76349 4294966719
39.57526 358.68924 -577.88403 4294966719
41.626179 358.79089 -577.67462 4294966719
45.44022 358.61838 -577.71051 4294966719
49.369789 358.5047 -577.77887 4294966719
57.496517 358.25278 -577.21881 4294966719
59.470173 358.0553 -577.31519 4294966719
61.277813 357.97519 -577.14856 4294966719
63.220074 357.3187 -577.84967 4294966719
-28.417482 361.74268 -577.00305 4294966719
-26.556072 361.05231 -577.13293 4294966719
-24.681763 361.12708 -577.13586 4294966719
-22.626055 360.21899 -577.18475 4294966719
-20.581079 360.22644 -577.27325 4294966719
-16.191078 361.20969 -577.30383 4294966719
-14.95571 360.22293 -577.57404 4294966719
-12.639736 361.35187 -577.36176 4294966719
-10.52672 361.73456 -577.24829 4294966719
-4.4627404 361.60617 -577.3454 4294966719
-2.4742868 361.19449 -577.39661 4294966719
1.1116881 361.37039 -577.10144 4294966719
3.3591826 361.17795 -577.09406 4294966719
5.6549234 361.00262 -577.19202 4294966719
7.2494178 360.97394 -577.16467 4294966719
9.555892 360.86917 -577.09473 4294966719
11.372518 360.81805 -577.0506 4294966719
15.170544 360.18491 -577.41193 4294966719
19.277525 360.32501 -577.08868 4294966719
23.426178 360.38132 -577.1756 4294966719
27.304247 360.05008 -577.70654 4294966719
161.89734 329.73587 -576.74799 4294966720
163.22508 329.69159 -576.76025 4294966720
170.16812 329.60919 -576.77435 4294966720
177.40623 329.26462 -576.78131 4294966720
179.42775 329.16116 -576.8678 4294966720
181.48106 328.52509 -576.31293 4294966720
183.37222 328.93082 -576.91284 4294966720
185.49248 328.78519 -576.93628 4294966720
115.35464 332.66641 -576.29779 4294966720
121.53152 332.88623 -576.88245 4294966720
137.48683 331.67868 -576.92902 4294966720
139.461 331.86697 -576.92041 4294966720
143.42618 332.08603 -576.93213 4294966720
147.55127 331.10358 -576.56842 4294966720
149.58888 331.03839 -576.56049 4294966720
151.42279 330.47452 -576.1662 4294966720
153.39107 330.76764 -576.69299 4294966720
59.364067 335.76965 -576.01086 4294966720
61.591537 335.77478 -576.57526 4294966720
63.431931 335.61557 -576.74371 4294966720
67.439308 335.17328 -576.1687 4294966720
69.370003 335.05161 -576.03339 4294966720
71.486298 334.94104 -576.24786 4294966720
73.398445 334.80511 -576.21228 4294966720
75.926598 334.78638 -576.13037 4294966720
77.134789 334.67889 -576.09686 4294966720
78.554626 335.59146 -576.87781 4294966720
80.882713 335.84131 -576.28485 4294966720
109.02122 334.82837 -576.05798 4294966720
117.31284 333.16977 -576.87097 4294966720
119.6179 333.13437 -576.95221 4294966720
41.262051 336.90213 -576.05347 4294966720
46.728451 336.68753 -576.19568 4294966720
55.310211 336.1987 -576.02063 4294966720
82.438889 336.84314 -576.77039 4294966720
84.667572 337.00513 -576.28729 4294966720
88.702774 338.3266 -576.85986 4294966720
90.49221 338.69699 -576.87262 4294966720
96.021866 338.35132 -576.50531 4294966720
97.8563 338.21878 -576.35229 4294966720
100.74474 338.87622 -576.59979 4294966720
101.50615 337.88452 -576.18707 4294966720
102.98271 337.71494 -576.27081 4294966720
104.23636 338.19836 -576.61353 4294966720
106.48039 337.12051 -576.40466 4294966720
-0.058381263 341.26392 -576.43243 4294966720
1.3251514 340.99408 -576.32568 4294966720
3.4308174 340.90161 -576.39069 4294966720
6.7525053 340.85617 -576.61646 4294966720
10.065208 341.05896 -576.94427 4294966720
17.928646 339.67789 -576.79932 4294966720
20.379269 339.62085 -576.94958 4294966720
99.139458 339.57617 -576.97736 4294966720
102.28829 339.1113 -576.7868 4294966720
-14.879006 343.42166 -576.84479 4294966720
-12.96164 342.42398 -576.18787 4294966720
-10.029202 342.29938 -576.31506 4294966720
-6.2488256 342.46683 -576.62775 4294966720
-2.5646486 342.34467 -576.89178 4294966720
-16.5938 346.45148 -576.80188 4294966720
-24.381836 350.28214 -576.01074 4294966720
-21.914223 350.38464 -576.24475 4294966720
-20.808456 348.27036 -576.04358 4294966720
-19.674675 350.15442 -576.44855 4294966720
-18.566246 348.57956 -576.46069 4294966720
167.47774 350.97678 -576.16229 4294966720
169.51567 350.82733 -576.31818 4294966720
171.55745 350.73538 -576.27649 4294966720
175.62619 350.45013 -576.16522 4294966720
179.66661 349.93933 -576.47906 4294966720
185.24205 349.71924 -576.11102 4294966720
189.39264 349.48224 -576.04828 4294966720
-30.614576 353.13058 -576.00018 4294966720
-28.118265 352.78137 -576.10217 4294966720
-25.150471 352.88177 -576.284 4294966720
-22.912983 352.22269 -576.35278 4294966720
-20.47308 352.73581 -576.49103 4294966720
120.64805 353.87082 -576.95605 4294966720
123.38641 353.97443 -576.17114 4294966720
125.50533 353.83008 -576.11615 4294966720
127.59486 353.66257 -576.12854 4294966720
129.69237 353.55954 -576.04059 4294966720
131.386 353.45096 -576.09436 4294966720
133.41597 353.30338 -576.13641 4294966720
139.50423 352.92612 -576.1568 4294966720
145.54648 352.31927 -576.02435 4294966720
159.41954 351.45218 -576.10339 4294966720
-32.184124 355.34659 -576.21124 4294966720
-26.518019 354.86957 -576.47284 4294966720
-24.795534 354.65488 -576.48596 4294966720
-22.373034 355.16281 -576.64697 4294966720
-20.210445 354.43274 -576.70831 4294966720
83.296501 356.82532 -576.20081 4294966720
84.709885 356.0134 -576.27716 4294966720
91.578217 355.3967 -576.62506 4294966720
94.147575 354.89819 -576.92773 4294966720
95.751053 354.7077 -576.98187 4294966720
97.571838 354.6004 -576.68896 4294966720
99.466904 354.54349 -576.76007 4294966720
101.0804 354.48834 -576.39801 4294966720
103.31285 354.28818 -576.21252 4294966720
107.52895 355.14191 -576.0061 4294966720
111.49559 354.83051 -576.27142 4294966720
113.52186 354.72586 -576.2348 4294966720
115.49794 354.58368 -576.28961 4294966720
117.47169 354.57013 -576.22858 4294966720
119.59898 354.31427 -576.13422 4294966720
-38.339409 359.75653 -576.0639 4294966720
-35.297543 359.58093 -576.46106 4294966720
-30.208384 357.08511 -576.65814 4294966720
-26.73427 357.35413 -576.85547 4294966720
-22.664101 357.4772 -576.99127 4294966720
43.349602 359.63669 -576.09509 4294966720
45.442142 359.52054 -576.04321 4294966720
47.517448 359.36389 -576.17499 4294966720
49.187706 359.29395 -576.146 4294966720
51.78812 359.27545 -576.18268 4294966720
53.157192 359.05066 -576.12537 4294966720
55.25695 358.90582 -576.04095 4294966720
57.533768 358.71173 -576.15509 4294966720
59.646893 358.49747 -576.26459 4294966720
61.620598 358.40646 -576.17139 4294966720
65.621307 358.30374 -576.06152 4294966720
71.578911 357.69589 -576.12567 4294966720
77.219955 357.24274 -576.20819 4294966720
79.699844 357.12958 -576.06903 4294966720
-35.10788 362.08984 -576.39117 4294966720
-32.756386 360.85355 -576.68115 4294966720
-30.525532 361.82623 -576.83582 4294966720
-22.545038 362.06326 -576.98004 4294966720
-20.683069 361.86389 -576.99127 4294966720
-18.670565 362.47318 -576.73022 4294966720
-14.082333 362.79504 -576.53979 4294966720
-6.364944 362.358 -576.98859 4294966720
25.281328 360.91791 -576.04236 4294966720
27.551428 360.95135 -576.13855 4294966720
31.225748 360.75317 -576.039 4294966720
33.706776 360.42975 -576.07007 4294966720
-32.044102 364.07407 -576.23102 4294966720
-29.066761 364.84393 -576.0152 4294966720
-28.075371 363.32297 -576.64703 4294966720
-26.225903 364.54099 -576.07794 4294966720
-22.566652 363.83948 -576.25751 4294966720
-20.422655 363.11636 -576.4754 4294966720
151.96892 329.95111 -575.59045 4294966721
155.44426 329.44815 -575.27753 4294966721
157.28644 329.24957 -575.3277 4294966721
161.04713 329.01147 -575.41766 4294966721
163.22115 328.8696 -575.40344 4294966721
165.74229 328.77673 -575.53772 4294966721
169.57697 328.6033 -575.39496 4294966721
173.39523 328.45691 -575.18329 4294966721
175.43343 328.2832 -575.18054 4294966721
183.27908 327.76871 -575.20587 4294966721
187.47398 327.47815 -575.28223 4294966721
189.38312 327.32581 -575.26764 4294966721
113.11822 332.26199 -575.48718 4294966721
116.96564 332.0141 -575.23486 4294966721
119.77427 331.85989 -575.02448 4294966721
121.74303 331.73813 -575.14069 4294966721
123.23756 331.71179 -575.38599 4294966721
127.38081 331.32474 -575.20093 4294966721
129.62682 331.06415 -575.46228 4294966721
131.31342 330.99078 -575.7547 4294966721
133.68802 330.81357 -575.71039 4294966721
135.57959 330.69608 -575.64197 4294966721
137.66011 330.66992 -575.25604 4294966721
139.50154 330.60623 -575.21973 4294966721
140.84171 330.56702 -575.13434 4294966721
143.461 330.36829 -575.09619 4294966721
145.5114 330.64984 -575.64886 4294966721
147.32213 330.19736 -575.19653 4294966721
79.471184 334.97574 -575.71228 4294966721
82.378304 335.48813 -575.33679 4294966721
19.671904 338.77454 -575.51611 4294966721
21.313744 338.70016 -575.39807 4294966721
23.201612 338.59875 -575.43115 4294966721
27.695885 338.2363 -575.15576 4294966721
29.123363 338.20306 -575.53888 4294966721
31.383057 337.93695 -575.8222 4294966721
33.429062 337.66208 -575.82166 4294966721
37.479256 337.14972 -575.43903 4294966721
39.530209 336.89917 -575.11859 4294966721
43.153252 336.72147 -575.11615 4294966721
52.039951 336.32956 -575.93573 4294966721
57.498783 336.00891 -575.90686 4294966721
87.377983 336.73495 -575.74927 4294966721
89.418098 336.72781 -575.45306 4294966721
93.982666 337.54517 -575.84167 4294966721
95.377357 336.69388 -575.11078 4294966721
97.157913 336.87927 -575.32654 4294966721
99.681358 337.21219 -575.61896 4294966721
101.86356 336.8172 -575.62128 4294966721
103.59911 336.26501 -575.54333 4294966721
-8.5124979 341.0748 -575.28973 4294966721
-6.5865321 341.27066 -575.7865 4294966721
-2.4745502 340.95663 -575.8949 4294966721
1.0427145 340.05707 -575.05133 4294966721
3.1312985 339.95654 -575.14789 4294966721
5.4166307 339.73456 -575.20496 4294966721
10.316689 339.5228 -575.15833 4294966721
12.692256 339.54016 -575.65948 4294966721
15.243089 339.13953 -575.27002 4294966721
-17.463728 344.03174 -575.51324 4294966721
-23.724039 347.73483 -575.4809 4294966721
-22.443077 347.50543 -575.59399 4294966721
-21.261654 346.32373 -575.27155 4294966721
-18.75635 346.31113 -575.97229 4294966721
-32.74559 350.1926 -575.16638 4294966721
-30.620962 350.50787 -575.42279 4294966721
-29.189573 348.97418 -575.10077 4294966721
-27.230188 350.3613 -575.70898 4294966721
-25.793402 348.94781 -575.54303 4294966721
-24.474108 348.59772 -575.65234 4294966721
-23.003653 348.77368 -575.89819 4294966721
-36.703136 353.23932 -575.43115 4294966721
-33.469475 352.26425 -575.58319 4294966721
149.56688 351.98154 -575.77661 4294966721
151.5099 351.81329 -575.86493 4294966721
153.27702 351.72888 -575.85126 4294966721
155.57445 351.69843 -575.82477 4294966721
163.64796 351.26981 -575.99255 4294966721
-38.963989 354.64566 -575.39728 4294966721
-37.384338 356.6658 -575.83832 4294966721
-34.942333 355.38571 -575.94781 4294966721
89.403908 355.83011 -575.93103 4294966721
95.668877 355.34546 -575.75977 4294966721
99.406006 355.31882 -575.39813 4294966721
102.27394 355.06519 -575.15137 4294966721
105.1286 354.92496 -575.40833 4294966721
-43.076015 357.08359 -575.08643 4294966721
-42.19289 359.31976 -575.51196 4294966721
-40.841934 358.14523 -575.58752 4294966721
41.448971 359.78729 -575.92542 4294966721
-40.694191 361.90167 -575.91809 4294966721
-38.114956 361.52759 -575.94708 4294966721
-1.167577 362.70657 -575.46338 4294966721
1.2488267 362.59088 -575.26294 4294966721
3.8331058 362.38562 -575.39868 4294966721
5.6090565 362.32639 -575.26257 4294966721
7.3179827 362.16492 -575.48767 4294966721
9.4742355 361.94443 -575.65118 4294966721
11.381425 361.93338 -575.36499 4294966721
13.186264 361.79233 -575.40741 4294966721
15.299129 361.57001 -575.5686 4294966721
17.162781 361.40964 -575.59528 4294966721
19.377413 361.29193 -575.58057 4294966721
21.178293 361.08142 -575.85498 4294966721
37.44054 360.15549 -575.92493 4294966721
-32.862442 364.26654 -575.93164 4294966721
-28.176939 364.86795 -575.79596 4294966721
-26.804575 364.79062 -575.71869 4294966721
-24.406607 364.43591 -575.79999 4294966721
-22.383862 364.3952 -575.48767 4294966721
-20.345165 364.15802 -575.27594 4294966721
-18.326044 364.01334 -575.2146 4294966721
-16.853542 363.65955 -575.61456 4294966721
-12.870318 363.67395 -575.38525 4294966721
-5.0512319 363.08276 -575.99396 4294966721
155.42857 329.2131 -574.15491 4294966722
159.2907 328.92841 -574.17108 4294966722
161.69104 328.7363 -574.15637 4294966722
163.49426 328.60617 -574.16046 4294966722
165.71829 328.5022 -574.13159 4294966722
167.43158 328.42368 -574.30414 4294966722
169.61998 328.27405 -574.02753 4294966722
175.22369 327.71729 -574.05341 4294966722
177.52963 327.52802 -574.13306 4294966722
183.24184 327.25177 -574.10278 4294966722
184.95433 327.18253 -574.09766 4294966722
187.47803 327.12164 -574.0166 4294966722
189.26091 327.01129 -574.13849 4294966722
113.52525 331.74115 -574.00061 4294966722
119.2084 331.38699 -574.03223 4294966722
127.09765 331.06009 -574.11987 4294966722
131.46635 330.67795 -574.30945 4294966722
133.34616 330.51666 -574.32104 4294966722
135.66328 330.35159 -574.12097 4294966722
139.27911 330.26801 -574.09937 4294966722
57.232197 335.84781 -574.69403 4294966722
61.703274 335.586 -574.79059 4294966722
67.403076 335.15829 -574.68048 4294966722
69.476494 335.05429 -574.82129 4294966722
71.42643 334.9668 -574.84082 4294966722
73.345085 334.80368 -574.93506 4294966722
75.75103 334.6058 -574.80188 4294966722
79.585823 334.33002 -574.69537 4294966722
80.907379 334.88528 -574.49756 4294966722
83.414085 335.51657 -574.98834 4294966722
84.624786 335.33826 -574.09711 4294966722
86.031281 335.83859 -574.85217 4294966722
87.055817 335.6922 -574.6189 4294966722
88.18042 335.64227 -574.35016 4294966722
93.970619 335.82928 -574.01587 4294966722
98.056778 335.9411 -574.3515 4294966722
99.399223 335.66656 -574.22577 4294966722
101.32077 335.46857 -574.40533 4294966722
103.18134 334.96231 -574.46918 4294966722
104.65694 335.19144 -574.90137 4294966722
109.98295 333.06042 -574.40082 4294966722
14.599058 338.91962 -574.35315 4294966722
17.311804 338.55075 -574.05188 4294966722
19.250427 338.42615 -574.28662 4294966722
22.989538 338.19638 -574.00958 4294966722
31.438047 337.34799 -574.27869 4294966722
32.866482 337.51099 -574.88452 4294966722
35.397949 337.01569 -574.38635 4294966722
41.534523 336.81149 -574.76532 4294966722
45.160465 336.54099 -574.92462 4294966722
49.120327 336.07019 -574.95276 4294966722
51.913681 336.16168 -574.6947 4294966722
53.737278 336.08548 -574.84595 4294966722
91.632957 336.30408 -574.56915 4294966722
-8.5785418 340.45645 -574.01483 4294966722
-4.2720723 340.44336 -574.85394 4294966722
-0.46008599 339.75946 -574.07861 4294966722
2.5562737 339.62814 -574.17584 4294966722
6.5660605 339.42282 -574.31525 4294966722
7.790987 339.59848 -574.89453 4294966722
11.657119 339.01712 -574.2663 4294966722
-19.952328 344.44653 -574.50012 4294966722
-16.554602 342.20343 -574.77582 4294966722
-29.870853 347.34695 -574.14813 4294966722
-25.218945 347.36453 -574.94757 4294966722
-23.239561 346.57434 -574.94598 4294966722
-22.221519 345.1441 -574.16772 4294966722
-42.326424 349.53076 -574.04828 4294966722
-40.955994 350.89114 -574.54791 4294966722
-39.327263 349.80499 -574.38367 4294966722
-37.615093 350.79684 -574.81769 4294966722
-35.713776 350.59286 -574.95837 4294966722
-34.491936 349.47806 -574.73779 4294966722
-32.679134 348.31573 -574.3551 4294966722
-30.637711 348.68036 -574.83032 4294966722
-27.465702 348.17151 -574.94452 4294966722
173.46536 350.92899 -574.78162 4294966722
175.54256 350.91144 -574.20905 4294966722
177.47617 350.77646 -574.14862 4294966722
179.54489 350.76419 -574.13177 4294966722
183.49467 350.55115 -574.20068 4294966722
187.49332 350.22931 -574.11578 4294966722
-45.374027 351.66342 -574.13373 4294966722
-43.332668 353.58731 -574.67017 4294966722
-42.821846 351.37027 -574.42383 4294966722
-41.215591 353.77039 -574.98364 4294966722
-39.101219 352.17819 -574.99615 4294966722
131.59619 353.90518 -574.08716 4294966722
135.51482 353.63712 -574.1109 4294966722
137.60434 353.49039 -574.06219 4294966722
139.54103 353.37149 -574.20105 4294966722
141.53923 353.09515 -574.83221 4294966722
143.56415 352.90652 -574.92035 4294966722
145.66594 352.68164 -574.59064 4294966722
147.57498 352.63458 -574.17627 4294966722
149.4659 352.50833 -574.11987 4294966722
151.50089 352.39032 -574.04913 4294966722
153.24509 352.29926 -574.01575 4294966722
155.50035 352.25345 -574.09198 4294966722
157.2925 352.29489 -574.41064 4294966722
161.40125 351.90811 -574.04633 4294966722
163.34172 351.73193 -574.23163 4294966722
165.592 351.57819 -574.09314 4294966722
167.43733 351.35983 -574.64752 4294966722
169.45796 351.31604 -574.24847 4294966722
171.41338 351.06381 -574.82147 4294966722
-47.339359 354.57623 -574.12219 4294966722
-44.417229 355.66925 -574.69556 4294966722
85.946236 356.59177 -574.08185 4294966722
88.010742 356.30859 -574.4599 4294966722
101.26508 355.53674 -574.27435 4294966722
105.75806 355.78485 -574.01166 4294966722
109.68072 355.53 -574.1424 4294966722
111.51659 355.28055 -574.24017 4294966722
113.59654 355.15295 -574.06458 4294966722
119.59148 354.73172 -574.07404 4294966722
121.481 354.4866 -574.67224 4294966722
123.50963 354.59424 -574.34845 4294966722
127.38147 354.17398 -574.20844 4294966722
129.68637 354.19437 -574.19958 4294966722
47.628143 359.91235 -574.00214 4294966722
49.055172 359.6893 -574.02777 4294966722
55.411839 359.24835 -574.03162 4294966722
61.394989 358.89496 -574.20386 4294966722
65.274445 358.6824 -574.09796 4294966722
69.379074 358.42691 -574.16565 4294966722
75.497696 357.97168 -574.26453 4294966722
77.355019 357.84695 -574.08221 4294966722
79.681038 357.66196 -574.078 4294966722
83.264572 357.38092 -574.28802 4294966722
5.4110298 362.80704 -574.04053 4294966722
11.212438 362.41965 -574.03979 4294966722
27.243799 361.26361 -574.46094 4294966722
29.256035 361.06204 -574.72369 4294966722
33.417347 360.88681 -574.09943 4294966722
35.202133 360.76953 -574.98303 4294966722
37.24427 360.74258 -574.28241 4294966722
39.541168 360.57413 -574.17578 4294966722
41.493538 360.41196 -574.20117 4294966722
43.790432 360.22205 -574.07361 4294966722
45.482788 360.06921 -574.19049 4294966722
-24.370308 364.72424 -574.89417 4294966722
-21.959604 364.64041 -574.55786 4294966722
-20.328083 364.63867 -574.04285 4294966722
-18.505819 364.47784 -574.27679 4294966722
-17.231974 364.23999 -574.58875 4294966722
-14.291033 364.30856 -574.07037 4294966722
-12.799314 364.45767 -574.18835 4294966722
-10.22072 364.164 -574.47986 4294966722
-2.1820669 363.29462 -574.78308 4294966722
-0.44085485 363.3255 -574.11908 4294966722
141.65485 329.9563 -573.76373 4294966723
149.6806 329.58441 -573.97699 4294966723
152.23819 329.39035 -573.96936 4294966723
157.73088 328.98654 -573.94531 4294966723
117.27985 331.58261 -573.97156 4294966723
120.91486 331.38571 -573.96045 4294966723
123.88291 331.15433 -573.80139 4294966723
82.698151 334.91873 -573.62286 4294966723
86.553352 335.09314 -573.42206 4294966723
89.690399 335.54904 -573.99274 4294966723
96.047417 335.50558 -573.59625 4294966723
99.847366 335.01227 -573.52673 4294966723
102.35199 334.26929 -573.26923 4294966723
103.94563 334.30508 -573.90765 4294966723
106.07298 334.0285 -573.73627 4294966723
25.931963 337.91782 -573.58862 4294966723
-13.876426 340.75897 -573.10669 4294966723
-12.915395 340.82501 -573.9541 4294966723
-10.48544 340.52478 -573.70502 4294966723
-6.6173935 340.27231 -573.86316 4294966723
-2.7118526 339.93329 -573.99945 4294966723
-21.393354 343.99982 -573.34888 4294966723
-18.272575 342.84503 -573.79517 4294966723
-51.66914 347.9588 -573.00854 4294966723
-45.131695 347.5683 -573.17065 4294966723
-39.929829 347.89383 -573.50995 4294966723
-38.738503 347.07101 -573.02887 4294966723
-34.888283 347.65195 -573.74658 4294966723
-31.576187 346.38461 -573.06006 4294966723
-27.109327 346.1506 -573.58521 4294966723
-24.355907 345.61508 -573.7876 4294966723
-53.082253 349.82449 -573.07593 4294966723
-50.343056 349.9917 -573.38361 4294966723
-48.632618 348.72928 -573.37445 4294966723
-47.001125 350.06134 -573.77924 4294966723
-46.229279 348.92706 -573.58655 4294966723
-44.076576 349.33331 -573.80731 4294966723
-41.079166 349.04037 -573.99774 4294966723
-37.18066 348.33502 -573.89099 4294966723
-50.524487 352.07971 -573.46173 4294966723
-48.116974 351.22366 -573.75824 4294966723
90.248337 356.30624 -573.95526 4294966723
93.673592 356.03333 -573.91382 4294966723
97.284691 355.87262 -573.75165 4294966723
99.734688 356.24628 -573.97028 4294966723
103.49323 355.44604 -573.12836 4294966723
51.780556 359.61591 -573.92126 4294966723
53.890213 359.44827 -573.72211 4294966723
57.720913 359.17526 -573.88788 4294966723
63.432213 358.77798 -573.93323 4294966723
73.700325 358.12024 -573.88745 4294966723
3.6066597 362.93207 -573.88544 4294966723
9.4971704 362.58093 -573.92279 4294966723
13.894635 362.46738 -573.78119 4294966723
15.517414 362.15939 -573.94421 4294966723
17.627981 362.01279 -573.73877 4294966723
21.710032 361.69067 -573.67938 4294966723
25.13661 361.44836 -573.96136 4294966723
-24.999537 365.10193 -573.47766 4294966723
145.33638 329.59656 -572.15649 4294966724
150.98384 329.18573 -572.14026 4294966724
161.51889 328.63123 -572.00073 4294966724
173.10272 327.754 -572.20844 4294966724
109.47948 332.03949 -572.10132 4294966724
115.04519 331.60907 -572.17804 4294966724
137.35013 330.1701 -572.26471 4294966724
57.289085 335.85416 -572.00049 4294966724
88.559021 334.88965 -572.7583 4294966724
90.24453 335.11343 -572.95361 4294966724
91.234955 334.97205 -572.36707 4294966724
92.710808 335.03384 -572.44177 4294966724
94.370285 334.92441 -572.34265 4294966724
98.242928 334.79721 -572.67786 4294966724
100.39361 334.28735 -572.41962 4294966724
103.60003 333.76923 -572.77948 4294966724
9.0091829 338.97681 -572.58527 4294966724
11.134985 338.86292 -572.08984 4294966724
13.56506 338.66458 -572.09082 4294966724
21.250526 337.98267 -572.12164 4294966724
31.029345 337.40128 -572.05603 4294966724
49.019695 336.30615 -572.10175 4294966724
53.607098 336.06729 -572.0733 4294966724
-16.968037 341.83725 -572.93042 4294966724
-14.690664 341.28119 -572.48309 4294966724
-11.556996 340.46558 -572.71204 4294966724
-4.6095901 339.68652 -572.64233 4294966724
-2.7313259 339.80179 -572.79742 4294966724
1.3636103 339.52133 -572.89771 4294966724
4.2641978 339.17679 -572.23926 4294966724
-22.9575 344.25656 -572.73737 4294966724
-21.586248 343.39063 -572.15485 4294966724
-20.07242 343.13284 -572.82379 4294966724
-55.496178 346.96701 -572.3963 4294966724
-52.616398 345.77423 -572.73083 4294966724
-50.015884 346.74445 -572.82379 4294966724
-47.437023 346.69226 -572.75702 4294966724
-45.260242 345.88239 -572.24915 4294966724
-42.672253 347.28329 -572.97778 4294966724
-40.098465 346.16968 -572.1651 4294966724
-37.609489 346.30676 -572.34692 4294966724
-35.783684 346.68472 -572.86328 4294966724
-33.738407 346.15363 -572.49628 4294966724
-29.560989 345.6001 -572.49854 4294966724
-56.414635 348.07492 -572.22253 4294966724
-21.977974 365.25198 -572.02313 4294966724
-14.702087 364.82791 -572.0531 4294966724
-2.2866464 363.82108 -572.38068 4294966724
189.48811 326.89206 -571.91034 4294966725
143.28824 329.72736 -571.97638 4294966725
149.41373 329.47687 -571.94067 4294966725
153.95677 329.1821 -571.85193 4294966725
155.30295 329.11575 -571.89886 4294966725
157.36049 328.95166 -571.8847 4294966725
159.2068 328.79221 -571.97058 4294966725
163.56808 328.51651 -571.83356 4294966725
167.46739 328.30569 -571.94281 4294966725
169.48117 328.01889 -571.95154 4294966725
171.70552 327.93201 -571.69055 4294966725
185.49008 327.09491 -571.72491 4294966725
107.56606 332.84882 -571.32312 4294966725
123.66003 331.15601 -571.55176 4294966725
127.2784 330.79868 -571.89008 4294966725
129.20808 330.6521 -571.90826 4294966725
133.17322 330.34576 -571.92834 4294966725
135.4108 330.1684 -571.97766 4294966725
139.27956 330.11475 -571.9458 4294966725
61.520687 335.65482 -571.79333 4294966725
67.530182 335.08389 -571.15704 4294966725
69.362396 335.12814 -571.44208 4294966725
71.338943 335.03281 -571.53241 4294966725
72.976364 334.93536 -571.73572 4294966725
75.283234 334.7934 -571.58112 4294966725
80.35952 334.68393 -571.62958 4294966725
84.562088 334.7074 -571.47906 4294966725
87.030624 334.65131 -571.74524 4294966725
88.175804 334.56827 -571.38684 4294966725
89.670357 334.59613 -571.28528 4294966725
95.835388 334.44681 -571.0282 4294966725
97.544197 334.2457 -571.00281 4294966725
101.83731 333.64639 -571.349 4294966725
104.07638 333.33539 -571.323 4294966725
105.70219 333.14929 -571.44977 4294966725
15.990612 338.50296 -571.63568 4294966725
17.578043 338.29834 -571.99878 4294966725
23.681181 338.08044 -571.19586 4294966725
25.641064 337.89087 -571.58252 4294966725
27.238266 337.69687 -571.9964 4294966725
34.72728 337.20529 -571.9339 4294966725
37.343788 337.23834 -571.2514 4294966725
48.210129 336.41351 -571.64136 4294966725
51.628197 336.21539 -571.75208 4294966725
55.657341 336.07407 -571.29987 4294966725
-16.769165 341.51465 -571.71399 4294966725
-8.1972656 340.20331 -571.89209 4294966725
-52.194515 344.49146 -571.01172 4294966725
-47.186878 344.64999 -571.47955 4294966725
-45.491737 344.70892 -571.40454 4294966725
-27.625898 344.8989 -571.9574 4294966725
-25.245756 344.48126 -571.91162 4294966725
-18.431149 342.07416 -571.73584 4294966725
-49.862488 345.02951 -571.81659 4294966725
-41.927471 345.69104 -571.7583 4294966725
-35.838692 345.35571 -571.2749 4294966725
-31.593752 345.0499 -571.29156 4294966725
175.44577 350.97922 -571.60449 4294966725
177.30115 350.85834 -571.46851 4294966725
179.58051 350.70081 -571.37903 4294966725
183.58389 350.40717 -571.11615 4294966725
185.43022 350.26889 -571.12604 4294966725
187.4247 350.1319 -571.36041 4294966725
189.31453 349.98883 -571.36951 4294966725
131.58124 353.92169 -571.09235 4294966725
137.46471 353.54495 -571.37012 4294966725
139.41083 353.42981 -571.53467 4294966725
147.47664 352.87433 -571.46796 4294966725
151.58408 352.64658 -571.5448 4294966725
153.42354 352.58884 -571.67322 4294966725
155.33878 352.52014 -571.86194 4294966725
157.43248 352.35675 -571.5752 4294966725
159.55066 352.16318 -571.4978 4294966725
161.20415 352.03268 -571.72675 4294966725
163.36366 351.82724 -571.49762 4294966725
167.27267 351.50018 -571.62408 4294966725
169.50208 351.31744 -571.10992 4294966725
171.51854 351.18179 -571.08917 4294966725
173.56586 351.07187 -571.36499 4294966725
87.157051 356.95132 -571.1795 4294966725
93.443367 356.56467 -571.17834 4294966725
95.485016 356.42078 -571.25641 4294966725
97.445488 356.27527 -571.07928 4294966725
99.247055 356.17996 -571.46722 4294966725
101.49976 355.98831 -571.11139 4294966725
115.48378 355.01193 -571.14447 4294966725
117.44558 354.88675 -571.38293 4294966725
119.56102 354.74017 -571.08899 4294966725
121.43628 354.62344 -571.41516 4294966725
123.34543 354.49921 -571.36896 4294966725
125.40393 354.35101 -571.25562 4294966725
127.43285 354.20221 -571.13959 4294966725
47.608532 359.83728 -571.24695 4294966725
49.258083 359.71741 -571.02631 4294966725
53.621658 359.34946 -571.03387 4294966725
55.313789 359.21234 -571.0105 4294966725
75.597305 357.87827 -571.14636 4294966725
77.300713 357.64987 -571.08643 4294966725
79.562248 357.44882 -571.10919 4294966725
85.335167 357.0802 -571.14819 4294966725
11.239044 362.828 -571.96106 4294966725
13.743018 362.69275 -571.46948 4294966725
15.547553 362.58157 -571.65179 4294966725
17.346909 362.39905 -571.89081 4294966725
19.52846 362.15729 -571.5603 4294966725
21.844526 361.94025 -571.72021 4294966725
25.189079 361.64691 -571.75256 4294966725
27.484125 361.42731 -571.60547 4294966725
29.062082 361.28543 -571.71252 4294966725
31.474924 361.07642 -571.40094 4294966725
33.528736 360.9249 -571.13947 4294966725
35.146065 360.81232 -571.61609 4294966725
37.274948 360.65701 -571.32599 4294966725
41.310276 360.33035 -571.06903 4294966725
43.462605 360.16251 -571.18658 4294966725
45.474689 360.01151 -571.22357 4294966725
0.033680093 363.60739 -571.72845 4294966725
3.4214571 363.33905 -571.60382 4294966725
5.2363458 363.23294 -571.84326 4294966725
7.3926249 363.08353 -571.79401 4294966725
91.517815 334.52094 -570.802 4294966726
93.36908 334.4473 -570.56165 4294966726
98.891022 334.00412 -570.52356 4294966726
100.30183 333.77405 -570.9267 4294966726
-13.131846 340.42752 -570.93829 4294966726
-4.8551216 340.05484 -570.15564 4294966726
-55.560936 343.97321 -570.40179 4294966726
-54.037159 344.68768 -570.89014 4294966726
-50.84108 343.68958 -570.13977 4294966726
-48.960674 343.83615 -570.71344 4294966726
-47.682144 343.40091 -570.06549 4294966726
-45.897556 343.86838 -570.36035 4294966726
-43.64661 344.84048 -570.98181 4294966726
-41.003532 344.83719 -570.64325 4294966726
-38.338158 344.83273 -570.38269 4294966726
-33.809231 344.60236 -570.1051 4294966726
-28.987122 344.20389 -570.01025 4294966726
-26.763987 344.11316 -570.65729 4294966726
-22.772125 343.28415 -570.56506 4294966726
-20.53618 342.62671 -570.92834 4294966726
51.603241 359.50641 -570.9845 4294966726
71.367012 358.1026 -570.99554 4294966726
81.64225 357.29053 -570.97644 4294966726
149.40361 329.85184 -569.11249 4294966727
153.51965 329.55991 -569.09387 4294966727
157.82462 329.43335 -569.03577 4294966727
161.49734 329.19778 -569.00134 4294966727
165.36259 328.91647 -569.02307 4294966727
169.32828 328.61557 -569.12244 4294966727
175.23192 328.17416 -569.25433 4294966727
189.31799 327.46185 -569.01093 4294966727
105.29181 332.8624 -569.09686 4294966727
107.18935 332.78867 -569.05133 4294966727
131.75095 331.02863 -569.03778 4294966727
135.3228 330.7421 -569.06293 4294966727
139.52255 330.51917 -569.11755 4294966727
75.208992 335.09958 -569.01489 4294966727
77.414574 334.97662 -569.0683 4294966727
79.391479 334.71246 -569.11188 4294966727
87.403847 334.55206 -569.56354 4294966727
90.190536 334.42621 -569.16724 4294966727
91.92514 334.3577 -569.28522 4294966727
94.199951 334.27548 -569.02032 4294966727
95.645325 334.18488 -569.22382 4294966727
97.012245 334.08536 -569.487 4294966727
100.34155 333.66782 -569.40552 4294966727
102.49538 333.38721 -569.1778 4294966727
19.678673 338.77283 -569.03455 4294966727
21.414198 338.65128 -569.11182 4294966727
27.143181 338.22839 -569.19373 4294966727
30.602919 337.90738 -569.4762 4294966727
55.355953 336.38895 -569.07629 4294966727
59.476124 336.16537 -569.08118 4294966727
-19.176384 341.98447 -569.82776 4294966727
-16.875555 341.50299 -569.68219 4294966727
-8.6121292 340.45288 -569.75665 4294966727
-6.812016 340.38733 -569.26135 4294966727
0.98585707 339.74051 -569.9743 4294966727
3.5648234 339.66818 -569.74878 4294966727
9.4976978 339.50568 -569.25531 4294966727
-54.743969 343.79703 -569.64795 4294966727
-49.352936 343.04895 -569.40613 4294966727
-46.724762 343.0542 -569.01447 4294966727
-40.001892 344.0596 -569.06287 4294966727
-26.854074 343.62598 -569.10864 4294966727
-24.976936 343.42645 -569.31238 4294966727
143.44051 352.98764 -569.04681 4294966727
155.41922 352.28357 -569.02246 4294966727
121.33401 354.52008 -569.0191 4294966727
71.087257 358.01535 -569.13361 4294966727
7.5717998 362.91306 -569.00977 4294966727
9.3903513 362.80786 -569.16528 4294966727
15.224267 362.43069 -569.12177 4294966727
17.430698 362.19733 -569.08826 4294966727
19.103662 362.07007 -569.32281 4294966727
23.43046 361.6741 -569.06152 4294966727
27.752094 361.30811 -569.04681 4294966727
45.25119 360.00348 -569.19019 4294966727
-20.418459 365.03091 -569.11615 4294966727
-18.885809 364.94864 -569.02197 4294966727
-16.228918 364.78668 -569.13458 4294966727
-14.847425 364.71744 -569.40552 4294966727
1.6106528 363.31662 -569.00641 4294966727
5.2385511 363.07016 -569.09546 4294966727
159.37469 329.35254 -568.91107 4294966728
163.49159 329.06506 -568.9353 4294966728
109.51828 332.55258 -568.95538 4294966728
137.45151 330.68896 -568.96136 4294966728
71.158958 335.23428 -568.93842 4294966728
74.253754 335.19711 -568.4837 4294966728
82.816063 334.72766 -568.85687 4294966728
85.105598 334.65347 -568.81531 4294966728
92.848778 334.3158 -568.98004 4294966728
23.500813 338.58127 -568.703 4294966728
29.588381 338.06134 -568.98627 4294966728
33.2066 337.75391 -568.99689 4294966728
51.16177 336.65433 -568.95947 4294966728
53.623276 336.58661 -568.91345 4294966728
57.592449 336.30673 -568.79425 4294966728
-18.81546 341.81833 -568.51025 4294966728
-13.320537 341.06479 -568.74738 4294966728
-9.8200274 340.7626 -568.54431 4294966728
-2.2088726 340.08087 -568.89709 4294966728
8.0580873 339.59888 -568.84155 4294966728
15.647771 339.10168 -568.89368 4294966728
-55.902725 343.51923 -568.52057 4294966728
-53.366016 343.42673 -568.78082 4294966728
-51.040276 342.88409 -568.37402 4294966728
-48.087257 342.78748 -568.73145 4294966728
-44.697689 343.27878 -568.35889 4294966728
-42.026489 343.85184 -568.99463 4294966728
-36.086163 344.13098 -568.84222 4294966728
-31.690659 343.93909 -568.65106 4294966728
-23.117056 342.84836 -568.33807 4294966728
-20.862734 342.33047 -568.12268 4294966728
175.57487 350.82205 -568.93347 4294966728
179.52371 350.58569 -568.98376 4294966728
137.51854 353.34927 -568.98773 4294966728
151.58675 352.46658 -568.9577 4294966728
157.31824 352.15601 -568.94867 4294966728
159.6254 351.93481 -568.9502 4294966728
161.51913 351.77048 -568.96979 4294966728
165.34346 351.46432 -568.96222 4294966728
167.34576 351.3143 -568.99774 4294966728
171.50363 351.09363 -568.92499 4294966728
89.53611 356.71985 -568.90887 4294966728
93.309776 356.47238 -568.97913 4294966728
95.61676 356.29324 -568.81506 4294966728
99.286667 356.03537 -568.97125 4294966728
103.23029 355.7403 -568.92523 4294966728
123.40269 354.39328 -568.99249 4294966728
125.8197 354.18277 -568.86554 4294966728
49.887173 359.62198 -568.66309 4294966728
75.721855 357.66132 -568.87067 4294966728
79.413429 357.36148 -568.88074 4294966728
83.431633 357.13278 -568.93561 4294966728
11.489839 362.62225 -568.85687 4294966728
43.375607 360.194 -568.89001 4294966728
-0.26751399 363.43161 -568.80713 4294966728
173.01099 328.67261 -567.14642 4294966729
141.43314 330.76968 -567.07269 4294966729
67.325394 335.34219 -567.4472 4294966729
88.887161 334.57672 -567.07629 4294966729
91.969925 334.42517 -567.07935 4294966729
95.413635 334.23166 -567.05237 4294966729
98.418777 333.9613 -567.5304 4294966729
21.13236 338.95715 -567.31171 4294966729
-19.080202 341.90182 -567.27136 4294966729
-17.728352 341.65964 -567.64166 4294966729
-7.0405097 340.71387 -567.28552 4294966729
-2.6240003 340.38956 -567.19965 4294966729
7.4035854 339.87558 -567.05304 4294966729
12.565614 339.42288 -567.6886 4294966729
17.194937 339.31085 -567.08868 4294966729
-49.383419 342.59906 -567.78076 4294966729
-42.599174 343.16418 -567.18353 4294966729
-40.623264 343.34338 -567.08801 4294966729
-38.388092 343.67163 -567.61426 4294966729
-33.995464 343.59348 -567.28033 4294966729
-27.662111 343.35468 -567.29211 4294966729
-25.969379 343.19339 -567.57617 4294966729
-18.937878 364.81561 -567.11584 4294966729
-14.579967 364.51532 -567.18195 4294966729
157.5777 329.88354 -566.78235 4294966730
159.35706 329.75302 -566.62732 4294966730
161.42299 329.59521 -566.71527 4294966730
167.06517 329.17725 -566.82312 4294966730
175.31117 328.64932 -566.75299 4294966730
131.63896 331.51608 -566.75262 4294966730
135.28825 331.24582 -566.79193 4294966730
139.45076 330.92352 -566.84033 4294966730
149.35831 330.32166 -566.78339 4294966730
153.57109 330.04724 -566.84753 4294966730
70.646622 335.30322 -566.84399 4294966730
73.807884 335.43216 -566.39178 4294966730
74.903603 335.43066 -566.95367 4294966730
77.706955 335.32767 -566.71771 4294966730
81.833473 334.97455 -566.75226 4294966730
101.05294 333.71744 -566.99841 4294966730
103.36288 333.44775 -566.93573 4294966730
107.35986 333.1019 -566.97095 4294966730
25.358625 338.75262 -566.9848 4294966730
27.510271 338.54105 -566.94788 4294966730
33.765278 338.30392 -566.52161 4294966730
35.667461 338.14587 -566.93292 4294966730
37.552231 338.03525 -566.75763 4294966730
50.269161 337.354 -566.27496 4294966730
51.695042 337.06943 -566.88922 4294966730
53.586697 336.94293 -566.81879 4294966730
57.095387 336.71231 -566.97748 4294966730
60.387955 336.59271 -566.30914 4294966730
-17.960981 341.80405 -566.09863 4294966730
-15.588887 341.51105 -566.65253 4294966730
-10.531653 341.0553 -566.91522 4294966730
-4.5336595 340.5715 -566.77838 4294966730
3.1733735 340.13828 -566.94678 4294966730
9.4498072 339.83548 -566.7149 4294966730
11.783118 339.67627 -566.71344 4294966730
19.534561 339.22134 -566.64532 4294966730
-55.215244 343.17825 -566.83154 4294966730
-53.614182 342.96381 -566.24249 4294966730
-52.147343 342.79285 -566.95538 4294966730
-50.798149 342.58868 -566.77234 4294966730
-49.575935 342.54169 -566.08942 4294966730
-47.306042 342.6517 -566.92236 4294966730
-45.464043 342.75226 -566.38733 4294966730
-29.77597 343.38727 -566.72961 4294966730
-24.389833 342.87012 -566.9845 4294966730
-22.673077 342.5462 -566.64465 4294966730
-19.6478 342.04782 -566.10974 4294966730
175.57228 350.70432 -566.63043 4294966730
181.3989 350.28671 -566.69061 4294966730
187.36571 349.80341 -566.67291 4294966730
149.44983 352.47208 -566.76471 4294966730
153.35129 352.23123 -566.74738 4294966730
155.38863 352.08176 -566.76245 4294966730
157.40074 351.92712 -566.73346 4294966730
159.57059 351.74493 -566.73444 4294966730
161.59592 351.56915 -566.65295 4294966730
163.327 351.45142 -566.784 4294966730
165.37871 351.30521 -566.67566 4294966730
167.6163 351.16476 -566.60809 4294966730
83.545837 356.99454 -566.7099 4294966730
93.453682 356.33734 -566.63593 4294966730
97.300667 356.0462 -566.75958 4294966730
99.269684 355.87277 -566.65955 4294966730
101.30679 355.71469 -566.68848 4294966730
119.48113 354.48618 -566.79065 4294966730
123.36545 354.19241 -566.67017 4294966730
125.42828 354.05829 -566.76044 4294966730
43.402542 359.96558 -566.83148 4294966730
45.576286 359.87854 -566.69629 4294966730
47.360435 359.74863 -566.80493 4294966730
51.313988 359.43042 -566.67419 4294966730
73.383629 357.67279 -566.65802 4294966730
75.353416 357.54626 -566.79047 4294966730
77.57634 357.35172 -566.59601 4294966730
81.392105 357.10944 -566.75757 4294966730
5.3569965 362.92862 -566.67834 4294966730
9.2091093 362.66702 -566.75348 4294966730
13.489419 362.35635 -566.80554 4294966730
15.556437 362.17914 -566.90125 4294966730
21.734421 361.69116 -566.86224 4294966730
25.431103 361.3721 -566.74139 4294966730
29.620621 361.01904 -566.73022 4294966730
33.515709 360.76706 -566.74768 4294966730
35.421749 360.62234 -566.81348 4294966730
37.465267 360.48343 -566.74036 4294966730
39.468155 360.33258 -566.74127 4294966730
41.332664 360.23148 -566.90424 4294966730
-20.445232 364.89063 -566.78204 4294966730
